VERSION .7
FIELDS x y z rgb
SIZE 4 4 4 4
TYPE F F F F
COUNT 1 1 1 1
WIDTH 887
HEIGHT 1
VIEWPOINT 0 0 0 1 0 0 0
POINTS 887
DATA ascii
11.447982 2.86 -4.5 5000004.07997
11.49792 2.94 -4.52 5000004.1632
11.472696000000001 2.92 -4.52 5000004.12116
11.472696000000001 2.9 -4.52 5000004.12116
11.472696000000001 2.88 -4.52 5000004.12116
11.447982 -4.14 -4.52 5000004.07997
11.447982 -4.16 -4.52 5000004.07997
11.423754 -4.18 -4.58 5000004.03959
11.423754 -6.12 -4.6 5000004.03959
11.423754 3.26 -4.82 5000004.03959
11.423754 3.26 -4.84 5000004.03959
11.423754 3.32 -5.0 5000004.03959
11.423754 3.32 -5.02 5000004.03959
11.423754 3.3 -5.02 5000004.03959
11.423754 3.32 -5.04 5000004.03959
11.423754 3.3 -5.04 5000004.03959
11.423754 3.28 -5.04 5000004.03959
4.6 5000004.03959
7.615836 3.26 -4.82 5000004.03959
7.615836 3.26 -4.84 5000004.03959
7.615836 3.32 -5.0 5000004.03959
7.615836 3.32 -5.02 5000004.03959
7.615836 3.3 -5.02 5000004.03959
7.615836 3.32 -5.04 5000004.03959
7.615836 3.3 -5.04 5000004.03959
7.615836 3.28 -5.04 5000004.03959
000007.03235
2.472188 1.64 -3.08 5000006.18047
2.510196 1.18 -3.08 5000006.27549
1.773836 3.64 -3.1 5000004.43459
2.472188 2.12 -3.1 5000006.18047
2.472188 1.64 -3.1 5000006.18047
1.773836 3.64 -3.12 5000004.43459
2.472188 2.1 -3.12 5000006.18047
2.2981920000000002 2.98 -3.32 5000005.74548
2.435312 3.1 -3.34 5000006.08828
2.2981920000000002 3.04 -3.34 5000005.74548
2.2662880000000003 1.22 -3.36 5000005.66572
2.2662880000000003 1.2 -3.36 5000005.66572
2.2662880000000003 1.26 -3.4 5000005.66572
2.2662880000000003 1.24 -3.4 5000005.66572
2.2662880000000003 1.22 -3.4 5000005.66572
1.773836 3.94 -3.48 5000004.43459
1.6824400000000002 3.88 -3.48 5000004.2061
1.773836 3.94 -3.5 5000004.43459
1.6824400000000002 3.88 -3.5 5000004.2061
1.7361119999999999 3.92 -3.52 5000004.34028
1.6824400000000002 3.88 -3.52 5000004.2061
2.0397760000000003 2.4 -3.7 5000005.09944
2.0397760000000003 2.38 -3.7 5000005.09944
2.0397760000000003 2.38 -3.72 5000005.09944
2.0397760000000003 2.68 -3.78 5000005.09944
1.990048 2.64 -3.78 5000004.97512
1.990048 2.62 -3.78 5000004.97512
1.8132359999999998 3.26 -4.0 5000004.53309
1.8544280000000002 2.66 -4.02 5000004.63607
1.8336 -2.9 -4.1 5000004.584
1.8336 -2.92 -4.1 5000004.584
1.8132359999999998 -3.44 -4.1 5000004.53309
1.875732 1.36 -4.12 5000004.68933
1.875732 1.32 -4.12 5000004.68933
2.2352600000000002 1.54 -4.18 5000005.58815
1.79332 1.26 -4.18 5000004.4833
1.8132359999999998 1.24 -4.18 5000004.53309
1.79332 1.22 -4.18 5000004.4833
1.8132359999999998 1.2 -4.18 5000004.53309
1.8132359999999998 1.18 -4.18 5000004.53309
1.7547720000000002 3.34 -4.22 5000004.38693
1.7547720000000002 3.32 -4.22 5000004.38693
1.773836 1.62 -4.24 5000004.43459
1.9660840000000002 1.44 -4.24 5000004.91521
1.9660840000000002 1.4 -4.24 5000004.91521
1.7547720000000002 1.32 -4.24 5000004.38693
1.7547720000000002 1.3 -4.24 5000004.38693
1.7547720000000002 1.28 -4.24 5000004.38693
1.7547720000000002 1.26 -4.24 5000004.38693
1.7178439999999997 1.2 -4.24 5000004.29461
1.773836 1.62 -4.26 5000004.43459
1.773836 1.6 -4.26 5000004.43459
1.773836 1.58 -4.26 5000004.43459
1.773836 1.56 -4.26 5000004.43459
1.7547720000000002 1.3 -4.26 5000004.38693
1.7547720000000002 1.28 -4.26 5000004.38693
1.7547720000000002 1.26 -4.26 5000004.38693
1.7361119999999999 1.24 -4.26 5000004.34028
1.7361119999999999 1.22 -4.26 5000004.34028
1.79332 3.66 -4.28 5000004.4833
1.773836 1.58 -4.28 5000004.43459
1.773836 1.56 -4.28 5000004.43459
1.7547720000000002 1.54 -4.28 5000004.38693
1.6824400000000002 3.58 -4.3 5000004.2061
1.6824400000000002 3.58 -4.32 5000004.2061
1.6824400000000002 3.56 -4.32 5000004.2061
1.699956 2.92 -4.32 5000004.24989
1.699956 2.9 -4.32 5000004.24989
1.699956 -3.48 -4.4 5000004.24989
1.79332 3.38 -4.44 5000004.4833
1.6484639999999997 3.28 -4.44 5000004.12116
1.7547720000000002 3.2 -4.46 5000004.38693
1.6652799999999999 2.38 -4.46 5000004.1632
1.6652799999999999 2.36 -4.46 5000004.1632
1.7547720000000002 3.18 -4.48 5000004.38693
1.7547720000000002 3.14 -4.48 5000004.38693
1.6652799999999999 2.38 -4.48 5000004.1632
1.6484639999999997 1.92 -4.5 5000004.12116
1.6484639999999997 1.9 -4.5 5000004.12116
1.6484639999999997 1.88 -4.5 5000004.12116
1.631988 1.86 -4.5 5000004.07997
1.6652799999999999 1.94 -4.52 5000004.1632
1.6484639999999997 1.92 -4.52 5000004.12116
1.6484639999999997 1.9 -4.52 5000004.12116
1.6484639999999997 1.88 -4.52 5000004.12116
1.631988 -5.14 -4.52 5000004.07997
1.631988 -5.16 -4.52 5000004.07997
1.6158359999999998 -5.18 -4.58 5000004.03959
1.6158359999999998 -7.12 -4.6 5000004.03959
1.6158359999999998 2.26 -4.82 5000004.03959
1.6158359999999998 2.26 -4.84 5000004.03959
1.6158359999999998 2.32 -5.0 5000004.03959
1.6158359999999998 2.32 -5.02 5000004.03959
1.6158359999999998 2.3 -5.02 5000004.03959
1.6158359999999998 2.32 -5.04 5000004.03959
1.6158359999999998 2.3 -5.04 5000004.03959
1.6158359999999998 2.28 -5.04 5000004.03959
9999999 -0.62 -4.46 5000004.1632
1.6652799999999999 -0.64 -4.46 5000004.1632
1.7547720000000002 0.18 -4.48 5000004.38693
1.7547720000000002 0.14 -4.48 5000004.38693
1.6652799999999999 -0.62 -4.48 5000004.1632
1.6484639999999997 -1.08 -4.5 5000004.12116
1.6484639999999997 -1.1 -4.5 5000004.12116
1.6484639999999997 -1.12 -4.5 5000004.12116
1.631988 -1.14 -4.5 5000004.07997
1.6652799999999999 -1.06 -4.52 5000004.1632
1.6484639999999997 -1.08 -4.52 5000004.12116
1.6484639999999997 -1.1 -4.52 5000004.12116
1.6484639999999997 -1.12 -4.52 5000004.12116
1.631988 -8.14 -4.52 5000004.07997
1.631988 -8.16 -4.52 5000004.07997
1.6158359999999998 -8.18 -4.58 5000004.03959
1.6158359999999998 -10.12 -4.6 5000004.03959
1.6158359999999998 -0.74 -4.82 5000004.03959
1.6158359999999998 -0.74 -4.84 5000004.03959
1.6158359999999998 -0.68 -5.0 5000004.03959
1.6158359999999998 -0.68 -5.02 5000004.03959
1.6158359999999998 -0.7 -5.02 5000004.03959
1.6158359999999998 -0.68 -5.04 5000004.03959
1.6158359999999998 -0.7 -5.04 5000004.03959
1.6158359999999998 -0.72 -5.04 5000004.03959
13333333333333333 6.8 5000004.53309
10.295508333333334 -2.3666666666666667 6.8 5000008.86525
10.295508333333334 -2.4 6.8 5000008.86525
10.283206 -3.933333333333333 6.8 5000008.49618
10.147819666666667 1.1 6.766666666666667 5000004.43459
10.147819666666667 1.0666666666666667 6.766666666666667 5000004.43459
10.147819666666667 1.0333333333333334 6.766666666666667 5000004.43459
10.146231 1.0 6.766666666666667 5000004.38693
10.156311 0.9666666666666667 6.766666666666667 5000004.68933
10.156311 0.9333333333333333 6.766666666666667 5000004.68933
10.147819666666667 0.8333333333333334 6.766666666666667 5000004.43459
10.147819666666667 0.8 6.766666666666667 5000004.43459
10.191516 0.5333333333333333 6.766666666666667 5000005.74548
10.295508333333334 -2.3666666666666667 6.766666666666667 5000008.86525
10.289226333333334 -3.3 6.766666666666667 5000008.67679
10.283206 -3.933333333333333 6.766666666666667 5000008.49618
11.129943333333333 2.6666666666666665 6.733333333333333 5000033.8983
10.158127666666667 1.2333333333333334 6.733333333333333 5000004.74383
10.147819666666667 1.1333333333333333 6.733333333333333 5000004.43459
10.147819666666667 1.1 6.733333333333333 5000004.43459
10.147819666666667 1.0666666666666667 6.733333333333333 5000004.43459
10.146231 1.0 6.733333333333333 5000004.38693
10.156311 0.9333333333333333 6.733333333333333 5000004.68933
10.295508333333334 -2.3666666666666667 6.733333333333333 5000008.86525
10.283206 -3.933333333333333 6.733333333333333 5000008.49618
10.158127666666667 1.2333333333333334 6.7 5000004.74383
10.147819666666667 1.1333333333333333 6.7 5000004.43459
10.147819666666667 1.1 6.7 5000004.43459
10.147819666666667 1.0666666666666667 6.7 5000004.43459
10.295508333333334 -2.3666666666666667 6.7 5000008.86525
10.283206 -3.933333333333333 6.7 5000008.49618
10.149443333333334 1.1333333333333333 6.666666666666667 5000004.4833
10.149443333333334 1.1 6.666666666666667 5000004.4833
10.295508333333334 -2.3666666666666667 6.666666666666667 5000008.86525
10.283206 -3.933333333333333 6.666666666666667 5000008.49618
10.149443333333334 1.1666666666666667 6.633333333333334 5000004.4833
10.149443333333334 1.1333333333333333 6.633333333333334 5000004.4833
10.149443333333334 1.1 6.633333333333334 5000004.4833
10.295508333333334 -2.3666666666666667 6.633333333333334 5000008.86525
10.289226333333334 -3.4 6.633333333333334 5000008.67679
10.33151 -3.7666666666666666 6.633333333333334 5000009.9453
10.283206 -3.933333333333333 6.633333333333334 5000008.49618
10.151102999999999 1.1666666666666667 6.6 5000004.53309
10.151102999999999 1.1333333333333333 6.6 5000004.53309
10.151102999999999 1.1 6.6 5000004.53309
10.295508333333334 -2.3666666666666667 6.6 5000008.86525
10.283206 -3.966666666666667 6.6 5000008.49618
10.151102999999999 1.1666666666666667 6.566666666666666 5000004.53309
10.151102999999999 1.1333333333333333 6.566666666666666 5000004.53309
10.151102999999999 1.1 6.566666666666666 5000004.53309
10.295508333333334 -2.3666666666666667 6.566666666666666 5000008.86525
10.283206 -3.933333333333333 6.566666666666666 5000008.49618
10.283206 -3.966666666666667 6.566666666666666 5000008.49618
10.149443333333334 1.1666666666666667 6.533333333333333 5000004.4833
10.149443333333334 1.1333333333333333 6.533333333333333 5000004.4833
10.149443333333334 1.1 6.533333333333333 5000004.4833
10.283206 -3.6 6.533333333333333 5000008.49618
10.308928 -3.8333333333333335 6.533333333333333 5000009.26784
10.151102999999999 1.1666666666666667 6.5 5000004.53309
10.151102999999999 1.1333333333333333 6.5 5000004.53309
10.151102999999999 1.1 6.5 5000004.53309
10.141663 2.4 6.466666666666667 5000004.24989
10.149443333333334 1.1666666666666667 6.466666666666667 5000004.4833
10.149443333333334 1.1333333333333333 6.466666666666667 5000004.4833
10.149443333333334 1.1 6.466666666666667 5000004.4833
10.277431 -2.7666666666666666 6.466666666666667 5000008.32293
10.277431 -2.8 6.466666666666667 5000008.32293
10.149443333333334 1.1666666666666667 6.433333333333334 5000004.4833
10.149443333333334 1.1333333333333333 6.433333333333334 5000004.4833
10.149443333333334 1.1 6.433333333333334 5000004.4833
10.277431 -2.7 6.433333333333334 5000008.32293
10.151102999999999 1.1333333333333333 6.4 5000004.53309
10.151102999999999 1.1 6.4 5000004.53309
10.271887 -2.6666666666666665 6.4 5000008.15661
10.277431 -2.7 6.4 5000008.32293
10.141663 2.4 6.366666666666666 5000004.24989
10.151102999999999 1.1666666666666667 6.366666666666666 5000004.53309
10.151102999999999 1.1333333333333333 6.366666666666666 5000004.53309
10.151102999999999 1.1 6.366666666666666 5000004.53309
10.151102999999999 1.1666666666666667 6.333333333333333 5000004.53309
10.151102999999999 1.1333333333333333 6.333333333333333 5000004.53309
10.151102999999999 1.1 6.333333333333333 5000004.53309
10.141663 2.4 6.3 5000004.24989
10.151102999999999 1.1666666666666667 6.3 5000004.53309
10.151102999999999 1.1333333333333333 6.3 5000004.53309
10.151102999999999 1.1 6.3 5000004.53309
10.141663 2.4 6.266666666666667 5000004.24989
10.151102999999999 1.1333333333333333 6.266666666666667 5000004.53309
10.151102999999999 1.1 6.266666666666667 5000004.53309
10.151102999999999 1.1333333333333333 6.233333333333333 5000004.53309
10.151102999999999 1.1 6.233333333333333 5000004.53309
10.151102999999999 1.1666666666666667 6.2 5000004.53309
10.151102999999999 1.1333333333333333 6.2 5000004.53309
10.151102999999999 1.1 6.2 5000004.53309
10.151102999999999 1.1333333333333333 6.166666666666667 5000004.53309
10.151102999999999 1.1 6.166666666666667 5000004.53309
10.151102999999999 1.1333333333333333 6.133333333333334 5000004.53309
10.151102999999999 1.1 6.133333333333334 5000004.53309
10.151102999999999 1.1333333333333333 6.1 5000004.53309
10.151102999999999 1.1 6.1 5000004.53309
10.151102999999999 1.1333333333333333 6.066666666666666 5000004.53309
10.151102999999999 1.1 6.066666666666666 5000004.53309
10.26656 -3.2 6.066666666666666 5000007.9968
10.151102999999999 1.1333333333333333 6.033333333333333 5000004.53309
10.151102999999999 1.1 6.033333333333333 5000004.53309
10.141663 2.4 6.0 5000004.24989
10.151102999999999 1.1333333333333333 6.0 5000004.53309
10.151102999999999 1.1 6.0 5000004.53309
10.141663 2.4 5.966666666666667 5000004.24989
10.151102999999999 1.1333333333333333 5.966666666666667 5000004.53309
10.151102999999999 1.1 5.966666666666667 5000004.53309
10.151102999999999 1.1333333333333333 5.933333333333334 5000004.53309
10.151102999999999 1.1 5.933333333333334 5000004.53309
10.151102999999999 1.1333333333333333 5.9 5000004.53309
10.151102999999999 1.1 5.9 5000004.53309
10.283206 -3.2666666666666666 5.9 5000008.49618
10.151102999999999 1.1333333333333333 5.866666666666666 5000004.53309
10.151102999999999 1.1 5.866666666666666 5000004.53309
10.151102999999999 1.1333333333333333 5.833333333333333 5000004.53309
10.151102999999999 1.1 5.833333333333333 5000004.53309
10.151102999999999 1.1333333333333333 5.8 5000004.53309
10.151102999999999 1.1 5.8 5000004.53309
10.151102999999999 1.1333333333333333 5.766666666666667 5000004.53309
10.151102999999999 1.1 5.766666666666667 5000004.53309
10.151102999999999 1.1333333333333333 5.733333333333333 5000004.53309
10.151102999999999 1.1 5.733333333333333 5000004.53309
10.151102999999999 1.1333333333333333 5.7 5000004.53309
10.151102999999999 1.1 5.7 5000004.53309
10.151102999999999 1.1333333333333333 5.666666666666667 5000004.53309
10.151102999999999 1.1 5.666666666666667 5000004.53309
10.151102999999999 1.1333333333333333 5.633333333333334 5000004.53309
10.151102999999999 1.1 5.633333333333334 5000004.53309
10.151102999999999 1.1333333333333333 5.6 5000004.53309
10.151102999999999 1.1 5.6 5000004.53309
10.151102999999999 1.1333333333333333 5.566666666666666 5000004.53309
10.151102999999999 1.1 5.566666666666666 5000004.53309
10.151102999999999 1.1333333333333333 5.533333333333333 5000004.53309
10.151102999999999 1.1 5.533333333333333 5000004.53309
10.151102999999999 1.1333333333333333 5.5 5000004.53309
10.151102999999999 1.1 5.5 5000004.53309
10.151102999999999 1.1333333333333333 5.466666666666667 5000004.53309
10.151102999999999 1.1 5.466666666666667 5000004.53309
10.283206 -3.2666666666666666 5.466666666666667 5000008.49618
11.129943333333333 2.4 5.433333333333334 5000033.8983
11.129943333333333 1.6333333333333333 5.433333333333334 5000033.8983
10.149443333333334 1.1333333333333333 5.433333333333334 5000004.4833
10.149443333333334 1.1 5.433333333333334 5000004.4833
11.129943333333333 2.4 5.4 5000033.8983
10.149443333333334 1.1333333333333333 5.4 5000004.4833
10.149443333333334 1.1 5.4 5000004.4833
11.129943333333333 1.6333333333333333 5.366666666666666 5000033.8983
10.149443333333334 1.1 5.366666666666666 5000004.4833
10.149443333333334 1.1333333333333333 5.333333333333333 5000004.4833
10.149443333333334 1.1 5.333333333333333 5000004.4833
10.149443333333334 1.1333333333333333 5.3 5000004.4833
10.149443333333334 1.1 5.3 5000004.4833
11.129943333333333 2.4 5.266666666666667 5000033.8983
10.151102999999999 1.1333333333333333 5.266666666666667 5000004.53309
10.151102999999999 1.1 5.266666666666667 5000004.53309
12.252253333333334 -0.43333333333333335 5.266666666666667 5000067.5676
11.129943333333333 2.4 5.233333333333333 5000033.8983
10.151102999999999 1.1333333333333333 5.233333333333333 5000004.53309
10.151102999999999 1.1 5.233333333333333 5000004.53309
11.129943333333333 2.4 5.2 5000033.8983
11.129943333333333 1.6333333333333333 5.2 5000033.8983
10.151102999999999 1.1333333333333333 5.2 5000004.53309
10.151102999999999 1.1 5.2 5000004.53309
10.151102999999999 1.1333333333333333 5.166666666666667 5000004.53309
10.151102999999999 1.1 5.166666666666667 5000004.53309
10.151102999999999 1.1333333333333333 5.133333333333334 5000004.53309
10.151102999999999 1.1 5.133333333333334 5000004.53309
11.129943333333333 2.4 5.1 5000033.8983
10.151102999999999 1.1333333333333333 5.1 5000004.53309
10.151102999999999 1.1 5.1 5000004.53309
10.151102999999999 1.1333333333333333 5.066666666666666 5000004.53309
10.151102999999999 1.1 5.066666666666666 5000004.53309
10.149443333333334 1.1333333333333333 5.033333333333333 5000004.4833
10.149443333333334 1.1 5.033333333333333 5000004.4833
10.149443333333334 1.1333333333333333 5.0 5000004.4833
10.149443333333334 1.1 5.0 5000004.4833
10.149443333333334 1.1 4.966666666666667 5000004.4833
10.149443333333334 1.1 4.933333333333334 5000004.4833
10.149443333333334 1.1 4.9 5000004.4833
10.149443333333334 1.1 4.833333333333333 5000004.4833
10.149443333333334 1.1 4.8 5000004.4833
10.149443333333334 1.1 4.766666666666667 5000004.4833
10.149443333333334 1.1 4.733333333333333 5000004.4833
10.149443333333334 1.1 4.7 5000004.4833
10.149443333333334 1.1 4.666666666666667 5000004.4833
10.149443333333334 1.1 4.633333333333334 5000004.4833
10.149443333333334 1.1 4.6 5000004.4833
10.149443333333334 1.1 4.566666666666666 5000004.4833
10.137372 2.3666666666666667 4.533333333333333 5000004.12116
10.149443333333334 1.1 4.533333333333333 5000004.4833
10.149443333333334 1.1 4.5 5000004.4833
10.149443333333334 1.1 4.466666666666667 5000004.4833
10.137372 2.3666666666666667 4.433333333333334 5000004.12116
10.149443333333334 1.1 4.433333333333334 5000004.4833
10.149443333333334 1.1 4.4 5000004.4833
10.137372 2.3666666666666667 4.366666666666666 5000004.12116
10.149443333333334 1.1 4.366666666666666 5000004.4833
10.149443333333334 1.1 4.333333333333333 5000004.4833
11.692046666666666 -3.6 4.333333333333333 5000050.7614
10.149443333333334 1.1 4.3 5000004.4833
10.149443333333334 1.1 4.266666666666667 5000004.4833
10.149443333333334 1.0666666666666667 4.266666666666667 5000004.4833
10.149443333333334 1.1 4.233333333333333 5000004.4833
10.149443333333334 1.1 4.2 5000004.4833
10.149443333333334 1.1 4.166666666666667 5000004.4833
10.149443333333334 1.1 4.133333333333334 5000004.4833
12.252253333333334 -0.5 4.066666666666666 5000067.5676
10.149443333333334 1.1 4.033333333333333 5000004.4833
12.252253333333334 -0.5 4.033333333333333 5000067.5676
10.141663 2.4 3.933333333333333 5000004.24989
10.149443333333334 1.1 3.9 5000004.4833
10.149443333333334 1.1 3.8666666666666667 5000004.4833
10.141663 2.4 3.8333333333333335 5000004.24989
10.149443333333334 1.1 3.8333333333333335 5000004.4833
10.149443333333334 1.0666666666666667 3.8333333333333335 5000004.4833
10.149443333333334 1.1 3.7666666666666666 5000004.4833
10.149443333333334 1.0666666666666667 3.7666666666666666 5000004.4833
10.149443333333334 1.1 3.7333333333333334 5000004.4833
10.149443333333334 1.0666666666666667 3.7333333333333334 5000004.4833
10.149443333333334 1.1 3.7 5000004.4833
10.149443333333334 1.0666666666666667 3.7 5000004.4833
10.149443333333334 1.1 3.6666666666666665 5000004.4833
10.149443333333334 1.1 3.566666666666667 5000004.4833
10.149443333333334 1.0666666666666667 3.566666666666667 5000004.4833
11.932366666666667 -4.966666666666667 3.566666666666667 5000057.971
10.149443333333334 1.1 3.533333333333333 5000004.4833
10.4529 -3.9 3.533333333333333 5000013.587
10.4529 -3.966666666666667 3.533333333333333 5000013.587
10.149443333333334 1.1 3.5 5000004.4833
10.149443333333334 1.0666666666666667 3.5 5000004.4833
10.149443333333334 1.1 3.466666666666667 5000004.4833
10.149443333333334 1.0666666666666667 3.466666666666667 5000004.4833
10.149443333333334 1.1 3.433333333333333 5000004.4833
10.149443333333334 1.0666666666666667 3.433333333333333 5000004.4833
10.33151 -4.266666666666667 3.433333333333333 5000009.9453
10.33151 -4.3 3.433333333333333 5000009.9453
10.149443333333334 1.1 3.4 5000004.4833
10.149443333333334 1.0666666666666667 3.4 5000004.4833
10.33151 -4.3 3.4 5000009.9453
10.149443333333334 1.1 3.3666666666666667 5000004.4833
10.149443333333334 1.0666666666666667 3.3666666666666667 5000004.4833
10.33151 -4.333333333333333 3.3666666666666667 5000009.9453
10.149443333333334 1.1 3.3333333333333335 5000004.4833
10.149443333333334 1.0666666666666667 3.3333333333333335 5000004.4833
10.33151 -4.333333333333333 3.3333333333333335 5000009.9453
10.149443333333334 1.1 3.3 5000004.4833
10.149443333333334 1.0666666666666667 3.3 5000004.4833
10.33151 -4.333333333333333 3.3 5000009.9453
10.149443333333334 1.1 3.2666666666666666 5000004.4833
10.149443333333334 1.0666666666666667 3.2666666666666666 5000004.4833
10.33151 -4.366666666666666 3.2666666666666666 5000009.9453
10.149443333333334 1.1 3.2333333333333334 5000004.4833
10.149443333333334 1.0666666666666667 3.2333333333333334 5000004.4833
10.33151 -4.366666666666666 3.2333333333333334 5000009.9453
10.141663 2.4 3.2 5000004.24989
10.149443333333334 1.1 3.2 5000004.4833
10.149443333333334 1.0666666666666667 3.2 5000004.4833
10.33151 -4.366666666666666 3.2 5000009.9453
10.141663 2.3666666666666667 3.1666666666666665 5000004.24989
10.149443333333334 1.1 3.1666666666666665 5000004.4833
10.149443333333334 1.0666666666666667 3.1666666666666665 5000004.4833
10.33151 -4.366666666666666 3.1666666666666665 5000009.9453
10.149443333333334 1.1 3.1333333333333333 5000004.4833
10.149443333333334 1.0666666666666667 3.1333333333333333 5000004.4833
10.33151 -4.366666666666666 3.1333333333333333 5000009.9453
13.367 2.7 3.1 5000101.01
10.149443333333334 1.1 3.1 5000004.4833
10.149443333333334 1.0666666666666667 3.1 5000004.4833
10.33151 -4.366666666666666 3.1 5000009.9453
13.367 3.033333333333333 3.066666666666667 5000101.01
11.129943333333333 2.8333333333333335 3.066666666666667 5000033.8983
11.129943333333333 2.8 3.066666666666667 5000033.8983
13.367 2.7333333333333334 3.066666666666667 5000101.01
13.367 2.7 3.066666666666667 5000101.01
13.367 2.6666666666666665 3.066666666666667 5000101.01
10.140203333333334 2.4 3.066666666666667 5000004.2061
10.140203333333334 2.3666666666666667 3.066666666666667 5000004.2061
10.149443333333334 1.1 3.066666666666667 5000004.4833
10.149443333333334 1.0666666666666667 3.066666666666667 5000004.4833
10.33151 -4.366666666666666 3.066666666666667 5000009.9453
13.367 3.033333333333333 3.033333333333333 5000101.01
11.129943333333333 2.8333333333333335 3.033333333333333 5000033.8983
11.129943333333333 2.8 3.033333333333333 5000033.8983
13.367 2.7333333333333334 3.033333333333333 5000101.01
13.367 2.7 3.033333333333333 5000101.01
13.367 2.6666666666666665 3.033333333333333 5000101.01
10.149443333333334 1.1 3.033333333333333 5000004.4833
10.149443333333334 1.0666666666666667 3.033333333333333 5000004.4833
14.474266666666667 3.033333333333333 3.0 5000134.228
13.367 2.7 3.0 5000101.01
13.367 2.6666666666666665 3.0 5000101.01
10.140203333333334 2.4 3.0 5000004.2061
10.140203333333334 2.3666666666666667 3.0 5000004.2061
10.149443333333334 1.1 3.0 5000004.4833
10.149443333333334 1.0666666666666667 3.0 5000004.4833
10.33151 -4.333333333333333 3.0 5000009.9453
10.149443333333334 1.1 2.966666666666667 5000004.4833
14.474266666666667 2.966666666666667 2.933333333333333 5000134.228
13.367 2.933333333333333 2.933333333333333 5000101.01
13.367 2.7666666666666666 2.933333333333333 5000101.01
10.149443333333334 1.1 2.933333333333333 5000004.4833
10.149443333333334 1.0666666666666667 2.933333333333333 5000004.4833
10.39968 -3.6333333333333333 2.933333333333333 5000011.9904
10.33151 -3.8 2.933333333333333 5000009.9453
13.367 2.966666666666667 2.9 5000101.01
13.367 2.933333333333333 2.9 5000101.01
10.149443333333334 1.1 2.9 5000004.4833
10.149443333333334 1.0666666666666667 2.9 5000004.4833
10.33151 -3.8 2.9 5000009.9453
10.4529 -3.966666666666667 2.9 5000013.587
10.33151 -4.266666666666667 2.9 5000009.9453
13.367 2.933333333333333 2.8666666666666667 5000101.01
10.149443333333334 1.1 2.8666666666666667 5000004.4833
10.33151 -3.8 2.8666666666666667 5000009.9453
10.4529 -4.0 2.8666666666666667 5000013.587
10.33151 -4.266666666666667 2.8666666666666667 5000009.9453
10.172132 2.2333333333333334 2.8333333333333335 5000005.16396
10.144676 1.9666666666666666 2.8333333333333335 5000004.34028
10.144676 1.9333333333333333 2.8333333333333335 5000004.34028
10.33151 -4.233333333333333 2.8333333333333335 5000009.9453
10.149443333333334 1.1 2.8 5000004.4833
10.149443333333334 1.0666666666666667 2.8 5000004.4833
10.149443333333334 1.1 2.7666666666666666 5000004.4833
10.149443333333334 1.0666666666666667 2.7666666666666666 5000004.4833
10.33151 -4.166666666666667 2.7666666666666666 5000009.9453
10.149443333333334 1.1 2.7333333333333334 5000004.4833
10.149443333333334 1.0666666666666667 2.7333333333333334 5000004.4833
10.149443333333334 1.1 2.7 5000004.4833
10.149443333333334 1.0666666666666667 2.7 5000004.4833
10.149443333333334 1.1 2.6333333333333333 5000004.4833
10.149443333333334 1.1 2.6 5000004.4833
10.149443333333334 1.0666666666666667 2.6 5000004.4833
10.277431 -3.0 2.6 5000008.32293
10.33151 -3.8666666666666667 2.6 5000009.9453
10.149443333333334 1.1 2.566666666666667 5000004.4833
10.149443333333334 1.0666666666666667 2.566666666666667 5000004.4833
10.277431 -3.0 2.566666666666667 5000008.32293
10.33151 -3.8666666666666667 2.566666666666667 5000009.9453
10.149443333333334 1.1 2.533333333333333 5000004.4833
10.149443333333334 1.0666666666666667 2.533333333333333 5000004.4833
11.232286666666667 -0.7666666666666667 2.533333333333333 5000036.9686
10.33151 -3.8666666666666667 2.533333333333333 5000009.9453
10.149443333333334 1.1 2.5 5000004.4833
10.149443333333334 1.0666666666666667 2.5 5000004.4833
11.232286666666667 -0.7666666666666667 2.5 5000036.9686
12.252253333333334 0.16666666666666666 2.3 5000067.5676
10.283206 -2.966666666666667 2.2 5000008.49618
10.33151 -3.8666666666666667 2.2 5000009.9453
11.932366666666667 0.06666666666666667 2.1666666666666665 5000057.971
11.932366666666667 -0.3333333333333333 2.1666666666666665 5000057.971
10.283206 -2.966666666666667 2.1666666666666665 5000008.49618
10.283206 -3.0 2.1666666666666665 5000008.49618
10.33151 -3.8666666666666667 2.1666666666666665 5000009.9453
11.232286666666667 -0.7666666666666667 2.1333333333333333 5000036.9686
10.283206 -2.966666666666667 2.1333333333333333 5000008.49618
10.33151 -3.8666666666666667 2.1333333333333333 5000009.9453
11.232286666666667 -0.7666666666666667 2.1 5000036.9686
10.283206 -2.966666666666667 2.1 5000008.49618
10.283206 -3.0 2.1 5000008.49618
10.33151 -3.8666666666666667 2.1 5000009.9453
11.232286666666667 -0.7666666666666667 2.066666666666667 5000036.9686
11.932366666666667 -1.6 2.066666666666667 5000057.971
10.283206 -2.966666666666667 2.066666666666667 5000008.49618
10.149443333333334 1.1 2.033333333333333 5000004.4833
11.932366666666667 -1.6 2.033333333333333 5000057.971
10.283206 -2.966666666666667 2.033333333333333 5000008.49618
10.33151 -3.8666666666666667 2.033333333333333 5000009.9453
10.283206 -2.966666666666667 2.0 5000008.49618
10.283206 -3.0 2.0 5000008.49618
10.289226333333334 -3.3333333333333335 2.0 5000008.67679
11.692046666666666 -3.6666666666666665 2.0 5000050.7614
10.33151 -3.8666666666666667 2.0 5000009.9453
10.283206 -3.0 1.9666666666666666 5000008.49618
11.692046666666666 -3.6666666666666665 1.9666666666666666 5000050.7614
10.33151 -3.8666666666666667 1.9666666666666666 5000009.9453
10.33151 -3.8666666666666667 1.9333333333333333 5000009.9453
11.692046666666666 -4.366666666666666 1.9333333333333333 5000050.7614
10.149443333333334 1.1 1.8 5000004.4833
10.149443333333334 1.0666666666666667 1.8 5000004.4833
10.147819666666667 1.0666666666666667 1.5666666666666667 5000004.43459
10.33979 -3.8666666666666667 1.5666666666666667 5000010.1937
10.147819666666667 1.0666666666666667 1.5333333333333334 5000004.43459
10.147819666666667 1.0666666666666667 1.5 5000004.43459
10.33151 -4.133333333333334 1.5 5000009.9453
10.33151 -4.133333333333334 1.4666666666666666 5000009.9453
10.33151 -4.133333333333334 1.4333333333333333 5000009.9453
10.1528 1.3333333333333333 1.4 5000004.584
10.144676 1.1666666666666667 1.4 5000004.34028
10.147819666666667 1.0333333333333334 1.4 5000004.43459
10.147819666666667 1.0 1.4 5000004.43459
10.33979 -3.7333333333333334 1.4 5000010.1937
10.33151 -4.133333333333334 1.4 5000009.9453
10.1528 1.3333333333333333 1.3666666666666667 5000004.584
10.144676 1.2333333333333334 1.3666666666666667 5000004.34028
10.144676 1.2 1.3666666666666667 5000004.34028
10.33979 -3.7333333333333334 1.3666666666666667 5000010.1937
10.154535666666666 1.1333333333333333 1.2666666666666666 5000004.63607
10.144676 0.9666666666666667 1.2333333333333334 5000004.34028
10.154535666666666 1.1 1.2 5000004.63607
10.503143333333334 -3.8666666666666667 1.1333333333333333 5000015.0943
10.3775 -4.0 1.1333333333333333 5000011.325
10.33151 -4.133333333333334 1.1 5000009.9453
10.33151 -4.166666666666667 1.1 5000009.9453
10.33979 -3.7333333333333334 1.0666666666666667 5000010.1937
10.4529 -3.8 1.0666666666666667 5000013.587
10.33151 -4.133333333333334 1.0666666666666667 5000009.9453
10.33151 -4.166666666666667 1.0666666666666667 5000009.9453
10.33979 -3.7333333333333334 1.0333333333333334 5000010.1937
10.33151 -4.133333333333334 1.0333333333333334 5000009.9453
10.33151 -4.133333333333334 1.0 5000009.9453
10.33979 -3.7333333333333334 0.9666666666666667 5000010.1937
10.33151 -4.133333333333334 0.9666666666666667 5000009.9453
10.33151 -4.166666666666667 0.9666666666666667 5000009.9453
10.33979 -3.7333333333333334 0.9333333333333333 5000010.1937
10.33151 -3.7333333333333334 0.8 5000009.9453
10.151102999999999 1.4333333333333333 0.7 5000004.53309
10.4529 -3.8666666666666667 0.7 5000013.587
10.438306666666668 -3.9 0.7 5000013.1492
10.42463 -3.933333333333333 0.7 5000012.7389
10.42463 -3.966666666666667 0.7 5000012.7389
10.39968 -4.0 0.7 5000011.9904
10.33151 -4.133333333333334 0.6666666666666666 5000009.9453
10.33151 -4.166666666666667 0.6666666666666666 5000009.9453
10.151102999999999 1.4333333333333333 0.6333333333333333 5000004.53309
10.503143333333334 -3.8 0.6333333333333333 5000015.0943
10.33151 -4.133333333333334 0.6333333333333333 5000009.9453
10.33151 -4.166666666666667 0.6333333333333333 5000009.9453
10.151102999999999 1.4333333333333333 0.6 5000004.53309
10.503143333333334 -3.7333333333333334 0.6 5000015.0943
10.503143333333334 -3.8 0.6 5000015.0943
10.33151 -4.133333333333334 0.6 5000009.9453
10.33151 -4.133333333333334 0.5666666666666667 5000009.9453
10.33151 -4.166666666666667 0.5666666666666667 5000009.9453
10.33151 -4.133333333333334 0.5333333333333333 5000009.9453
10.33151 -4.166666666666667 0.5333333333333333 5000009.9453
10.1528 0.9666666666666667 0.5 5000004.584
10.438306666666668 -5.966666666666667 0.4666666666666667 5000013.1492
10.438306666666668 -6.0 0.4666666666666667 5000013.1492
10.154535666666666 1.1666666666666667 0.4 5000004.63607
10.149443333333334 1.1 0.4 5000004.4833
10.147819666666667 1.0666666666666667 0.4 5000004.43459
10.147819666666667 1.0666666666666667 0.36666666666666664 5000004.43459
10.33151 -3.7333333333333334 0.36666666666666664 5000009.9453
10.33151 -3.7333333333333334 0.3333333333333333 5000009.9453
10.147819666666667 1.0666666666666667 0.3 5000004.43459
10.33151 -3.7333333333333334 0.3 5000009.9453
10.438306666666668 -3.9 0.26666666666666666 5000013.1492
10.144676 1.9666666666666666 0.23333333333333334 5000004.34028
10.144676 1.9333333333333333 0.23333333333333334 5000004.34028
10.147819666666667 1.0666666666666667 0.23333333333333334 5000004.43459
10.36731 -4.033333333333333 0.23333333333333334 5000011.0193
10.33979 -4.066666666666666 0.23333333333333334 5000010.1937
10.33151 -4.133333333333334 0.23333333333333334 5000009.9453
10.33151 -4.166666666666667 0.23333333333333334 5000009.9453
10.144676 1.9666666666666666 0.2 5000004.34028
10.33151 -4.133333333333334 0.2 5000009.9453
10.33151 -4.166666666666667 0.2 5000009.9453
10.33151 -4.133333333333334 0.16666666666666666 5000009.9453
10.33151 -4.166666666666667 0.16666666666666666 5000009.9453
10.308928 -3.966666666666667 0.13333333333333333 5000009.26784
10.33151 -4.166666666666667 0.13333333333333333 5000009.9453
10.308928 -3.9 0.1 5000009.26784
10.308928 -3.933333333333333 0.1 5000009.26784
10.308928 -3.966666666666667 0.1 5000009.26784
10.33151 -4.166666666666667 0.1 5000009.9453
10.308928 -3.933333333333333 0.06666666666666667 5000009.26784
10.289226333333334 -3.7666666666666666 -0.03333333333333333 5000008.67679
10.302069 -5.2 -0.13333333333333333 5000009.06207
10.289226333333334 -4.633333333333334 -0.2 5000008.67679
10.271887 -3.8 -0.23333333333333334 5000008.15661
10.295508333333334 -1.3666666666666667 -0.26666666666666666 5000008.86525
10.271887 -3.8 -0.26666666666666666 5000008.15661
10.283206 -4.966666666666667 -0.3333333333333333 5000008.49618
10.26656 -2.5 -0.36666666666666664 5000007.9968
10.26656 -2.533333333333333 -0.36666666666666664 5000007.9968
10.283206 -2.9 -0.36666666666666664 5000008.49618
10.261438 -3.0 -0.36666666666666664 5000007.84314
10.26656 -2.5 -0.4 5000007.9968
10.261438 -3.0 -0.4 5000007.84314
10.261438 -3.033333333333333 -0.4 5000007.84314
10.271887 -4.4 -0.4 5000008.15661
10.302069 -4.6 -0.4 5000009.06207
10.283206 -5.266666666666667 -0.4 5000008.49618
10.261438 -3.033333333333333 -0.43333333333333335 5000007.84314
10.283206 -5.033333333333333 -0.43333333333333335 5000008.49618
10.261438 -3.0 -0.5333333333333333 5000007.84314
10.261438 -0.9333333333333333 -0.5666666666666667 5000007.84314
10.256509 -2.8666666666666667 -0.5666666666666667 5000007.69527
10.261438 -0.9666666666666667 -0.6 5000007.84314
10.295508333333334 -1.6666666666666667 -0.6 5000008.86525
10.295508333333334 -1.7333333333333334 -0.6 5000008.86525
10.256509 -1.8333333333333333 -0.6 5000007.69527
10.256509 -2.9 -0.6 5000007.69527
10.261438 -3.066666666666667 -0.6 5000007.84314
10.302069 -3.3666666666666667 -0.6 5000009.06207
10.261438 -3.6333333333333333 -0.6 5000007.84314
10.256509 -1.8333333333333333 -0.6333333333333333 5000007.69527
10.256509 -2.3333333333333335 -0.6333333333333333 5000007.69527
10.261438 -3.6333333333333333 -0.6333333333333333 5000007.84314
10.242777333333333 -3.7333333333333334 -0.6333333333333333 5000007.28332
10.247188333333334 -2.4 -0.6666666666666666 5000007.41565
10.247188333333334 -4.166666666666667 -0.6666666666666666 5000007.41565
10.247188333333334 -2.2 -0.7 5000007.41565
10.247188333333334 -2.2333333333333334 -0.7 5000007.41565
10.247188333333334 -4.2 -0.7 5000007.41565
10.256509 -1.4 -0.7333333333333333 5000007.69527
10.247188333333334 -2.2333333333333334 -0.7333333333333333 5000007.41565
10.247188333333334 -2.2666666666666666 -0.7333333333333333 5000007.41565
10.247188333333334 -2.3333333333333335 -0.7333333333333333 5000007.41565
10.256509 -4.733333333333333 -0.7333333333333333 5000007.69527
10.256509 -4.766666666666667 -0.7333333333333333 5000007.69527
10.247188333333334 -2.2666666666666666 -0.7666666666666667 5000007.41565
10.247188333333334 -2.3 -0.7666666666666667 5000007.41565
10.242777333333333 -2.3333333333333335 -0.7666666666666667 5000007.28332
10.247188333333334 -4.4 -0.7666666666666667 5000007.41565
10.238521333333333 -2.433333333333333 -0.8 5000007.15564
10.238521333333333 -2.466666666666667 -0.8 5000007.15564
10.238521333333333 -2.8666666666666667 -0.8 5000007.15564
10.247188333333334 -0.16666666666666666 -0.8333333333333334 5000007.41565
10.234411666666666 -2.9 -0.8333333333333334 5000007.03235
10.283206 -4.066666666666666 -0.8333333333333334 5000008.49618
10.247188333333334 -4.233333333333333 -0.8333333333333334 5000007.41565
10.26656 -5.4 -0.8333333333333334 5000007.9968
10.230441333333333 -0.26666666666666666 -0.8666666666666667 5000006.91324
10.230441333333333 -1.1 -0.8666666666666667 5000006.91324
10.234411666666666 -1.1333333333333333 -0.8666666666666667 5000007.03235
10.234411666666666 -2.9 -0.8666666666666667 5000007.03235
10.234411666666666 -2.933333333333333 -0.8666666666666667 5000007.03235
10.238521333333333 -3.4 -0.8666666666666667 5000007.15564
10.26656 -4.166666666666667 -0.8666666666666667 5000007.9968
10.238521333333333 -4.3 -0.8666666666666667 5000007.15564
10.238521333333333 -4.333333333333333 -0.8666666666666667 5000007.15564
10.230441333333333 -0.26666666666666666 -0.9 5000006.91324
10.234411666666666 -0.7 -0.9 5000007.03235
10.230441333333333 -1.2 -0.9 5000006.91324
10.238521333333333 -2.8333333333333335 -0.9 5000007.15564
10.234411666666666 -2.933333333333333 -0.9 5000007.03235
10.234411666666666 -2.966666666666667 -0.9 5000007.03235
10.234411666666666 0.23333333333333334 -0.9333333333333333 5000007.03235
10.234411666666666 0.2 -0.9333333333333333 5000007.03235
10.251762333333334 -0.8666666666666667 -0.9333333333333333 5000007.55287
10.234411666666666 -0.9333333333333333 -0.9333333333333333 5000007.03235
10.226603333333333 -1.0 -0.9333333333333333 5000006.7981
10.226603333333333 -1.0333333333333334 -0.9333333333333333 5000006.7981
10.234411666666666 -3.466666666666667 -0.9333333333333333 5000007.03235
10.234411666666666 -3.5 -0.9333333333333333 5000007.03235
10.234411666666666 0.16666666666666666 -0.9666666666666667 5000007.03235
10.230441333333333 -0.5666666666666667 -0.9666666666666667 5000006.91324
10.230441333333333 -0.6 -0.9666666666666667 5000006.91324
10.230441333333333 -1.1666666666666667 -0.9666666666666667 5000006.91324
10.230441333333333 -1.6666666666666667 -0.9666666666666667 5000006.91324
10.234411666666666 -3.5 -0.9666666666666667 5000007.03235
10.234411666666666 -3.533333333333333 -0.9666666666666667 5000007.03235
10.230441333333333 -0.6 -1.0 5000006.91324
10.230441333333333 -0.6333333333333333 -1.0 5000006.91324
10.230441333333333 -1.1666666666666667 -1.0 5000006.91324
10.230441333333333 -1.2 -1.0 5000006.91324
10.226603333333333 -2.2333333333333334 -1.0 5000006.7981
10.242777333333333 -2.6666666666666665 -1.0 5000007.28332
10.226603333333333 -2.7666666666666666 -1.0 5000006.7981
10.226603333333333 -0.16666666666666666 -1.0333333333333334 5000006.7981
10.226603333333333 -2.2333333333333334 -1.0333333333333334 5000006.7981
10.226603333333333 -2.3 -1.0333333333333334 5000006.7981
10.230441333333333 -2.433333333333333 -1.0333333333333334 5000006.91324
10.230441333333333 -3.1666666666666665 -1.0333333333333334 5000006.91324
10.234411666666666 -3.966666666666667 -1.0333333333333334 5000007.03235
10.234411666666666 -4.0 -1.0333333333333334 5000007.03235
10.247188333333334 -14.366666666666667 -1.0333333333333334 5000007.41565
10.247188333333334 -14.4 -1.0333333333333334 5000007.41565
10.247188333333334 -14.433333333333334 -1.0333333333333334 5000007.41565
10.234411666666666 0.7 -1.0666666666666667 5000007.03235
10.234411666666666 0.6666666666666666 -1.0666666666666667 5000007.03235
10.226603333333333 0.36666666666666664 -1.0666666666666667 5000006.7981
10.242777333333333 -0.06666666666666667 -1.0666666666666667 5000007.28332
10.226603333333333 -0.16666666666666666 -1.0666666666666667 5000006.7981
10.234411666666666 -0.4666666666666667 -1.0666666666666667 5000007.03235
10.234411666666666 -0.5 -1.0666666666666667 5000007.03235
10.226603333333333 -1.5666666666666667 -1.0666666666666667 5000006.7981
10.226603333333333 -2.5 -1.0666666666666667 5000006.7981
10.226603333333333 -2.533333333333333 -1.0666666666666667 5000006.7981
10.230441333333333 -3.1666666666666665 -1.0666666666666667 5000006.91324
10.234411666666666 -4.0 -1.0666666666666667 5000007.03235
10.234411666666666 -4.033333333333333 -1.0666666666666667 5000007.03235
10.226603333333333 0.3333333333333333 -1.1 5000006.7981
10.226603333333333 0.3 -1.1 5000006.7981
10.242777333333333 -0.06666666666666667 -1.1 5000007.28332
10.242777333333333 -0.7333333333333333 -1.1 5000007.28332
10.226603333333333 -2.6333333333333333 -1.1 5000006.7981
10.222891 -3.0 -1.1 5000006.68673
10.226603333333333 -3.533333333333333 -1.1 5000006.7981
10.226603333333333 -3.6333333333333333 -1.1 5000006.7981
10.226603333333333 -0.8333333333333334 -1.1333333333333333 5000006.7981
10.222891 0.5 -1.1666666666666667 5000006.68673
10.219298333333333 -1.5333333333333334 -1.1666666666666667 5000006.57895
10.219298333333333 -2.4 -1.1666666666666667 5000006.57895
10.247188333333334 -3.2666666666666666 -1.1666666666666667 5000007.41565
10.222891 -3.4 -1.1666666666666667 5000006.68673
10.226603333333333 -3.566666666666667 -1.1666666666666667 5000006.7981
10.226603333333333 -3.6 -1.1666666666666667 5000006.7981
10.222891 0.5 -1.2 5000006.68673
10.222891 0.4666666666666667 -1.2 5000006.68673
10.222891 0.43333333333333335 -1.2 5000006.68673
10.234411666666666 -1.4666666666666666 -1.2 5000007.03235
10.219298333333333 -1.5666666666666667 -1.2 5000006.57895
10.219298333333333 -2.433333333333333 -1.2 5000006.57895
10.219298333333333 -2.466666666666667 -1.2 5000006.57895
10.219298333333333 -2.5 -1.2 5000006.57895
10.247188333333334 -3.2 -1.2 5000007.41565
10.222891 -3.3666666666666667 -1.2 5000006.68673
10.222891 -3.4 -1.2 5000006.68673
10.222891 -3.6666666666666665 -1.2 5000006.68673
10.226603333333333 -3.7 -1.2 5000006.7981
10.242777333333333 -5.433333333333334 -1.2 5000007.28332
10.222891 0.0 -1.2333333333333334 5000006.68673
10.219298333333333 -0.03333333333333333 -1.2333333333333334 5000006.57895
10.219298333333333 -1.5666666666666667 -1.2333333333333334 5000006.57895
10.219298333333333 -1.6 -1.2333333333333334 5000006.57895
10.226603333333333 -3.966666666666667 -1.2333333333333334 5000006.7981
10.226603333333333 -4.0 -1.2333333333333334 5000006.7981
10.219298333333333 -0.6333333333333333 -1.2666666666666666 5000006.57895
10.219298333333333 -1.5666666666666667 -1.2666666666666666 5000006.57895
10.219298333333333 -1.6 -1.2666666666666666 5000006.57895
10.219298333333333 -1.6333333333333333 -1.2666666666666666 5000006.57895
10.219298333333333 -2.6333333333333333 -1.2666666666666666 5000006.57895
10.219298333333333 -2.6666666666666665 -1.2666666666666666 5000006.57895
10.219298333333333 -2.7 -1.2666666666666666 5000006.57895
10.226603333333333 -4.0 -1.2666666666666666 5000006.7981
10.222891 0.4 -1.3 5000006.68673
10.219298333333333 -0.1 -1.3 5000006.57895
10.219298333333333 -0.13333333333333333 -1.3 5000006.57895
10.219298333333333 -3.1 -1.3 5000006.57895
10.222891 0.3333333333333333 -1.3333333333333333 5000006.68673
10.219298333333333 -0.1 -1.3333333333333333 5000006.57895
10.219298333333333 -0.13333333333333333 -1.3333333333333333 5000006.57895
10.215819666666667 -0.8666666666666667 -1.3333333333333333 5000006.47459
10.215819666666667 -0.9 -1.3333333333333333 5000006.47459
10.219298333333333 -2.2333333333333334 -1.3333333333333333 5000006.57895
10.219298333333333 -0.26666666666666666 -1.3666666666666667 5000006.57895
10.219298333333333 -0.3 -1.3666666666666667 5000006.57895
10.247188333333334 -0.7333333333333333 -1.3666666666666667 5000007.41565
10.215819666666667 -0.9 -1.3666666666666667 5000006.47459
10.215819666666667 -0.9333333333333333 -1.3666666666666667 5000006.47459
10.219298333333333 -2.1333333333333333 -1.3666666666666667 5000006.57895
10.219298333333333 -2.2333333333333334 -1.3666666666666667 5000006.57895
10.219298333333333 -2.2666666666666666 -1.3666666666666667 5000006.57895
10.219298333333333 -3.8333333333333335 -1.3666666666666667 5000006.57895
10.215819666666667 0.7 -1.4 5000006.47459
10.215819666666667 0.6666666666666666 -1.4 5000006.47459
10.215819666666667 0.2 -1.4 5000006.47459
10.215819666666667 -0.9333333333333333 -1.4 5000006.47459
10.215819666666667 -0.9666666666666667 -1.4 5000006.47459
10.219298333333333 -2.2666666666666666 -1.4 5000006.57895
10.215819666666667 -3.3 -1.4 5000006.47459
10.209183 -3.3333333333333335 -1.4 5000006.27549
10.209183 -3.3666666666666667 -1.4 5000006.27549
10.209183 -3.4 -1.4 5000006.27549
10.215819666666667 0.6666666666666666 -1.4333333333333333 5000006.47459
10.215819666666667 0.6333333333333333 -1.4333333333333333 5000006.47459
10.215819666666667 0.2 -1.4333333333333333 5000006.47459
10.215819666666667 0.16666666666666666 -1.4333333333333333 5000006.47459
10.215819666666667 -0.9333333333333333 -1.4333333333333333 5000006.47459
10.212449666666666 -1.3333333333333333 -1.4333333333333333 5000006.37349
10.256509 -1.8666666666666667 -1.4333333333333333 5000007.69527
10.215819666666667 -2.1 -1.4333333333333333 5000006.47459
10.215819666666667 -2.1333333333333333 -1.4333333333333333 5000006.47459
10.215819666666667 -2.6 -1.4333333333333333 5000006.47459
10.209183 -3.4 -1.4333333333333333 5000006.27549
10.215819666666667 0.16666666666666666 -1.4666666666666666 5000006.47459
10.215819666666667 0.1 -1.4666666666666666 5000006.47459
10.215819666666667 0.0 -1.4666666666666666 5000006.47459
10.215819666666667 -1.1 -1.4666666666666666 5000006.47459
10.212449666666666 -1.3333333333333333 -1.4666666666666666 5000006.37349
10.215819666666667 -1.5333333333333334 -1.4666666666666666 5000006.47459
10.256509 -1.8 -1.4666666666666666 5000007.69527
10.212449666666666 -2.1 -1.4666666666666666 5000006.37349
10.212449666666666 -2.1333333333333333 -1.4666666666666666 5000006.37349
10.212449666666666 -2.1666666666666665 -1.4666666666666666 5000006.37349
10.215819666666667 0.13333333333333333 -1.5 5000006.47459
10.215819666666667 0.1 -1.5 5000006.47459
10.212449666666666 -0.26666666666666666 -1.5 5000006.37349
10.212449666666666 -0.3 -1.5 5000006.37349
10.215819666666667 -0.6666666666666666 -1.5 5000006.47459
10.238521333333333 -0.9666666666666667 -1.5 5000007.15564
10.212449666666666 -1.2666666666666666 -1.5 5000006.37349
10.212449666666666 -1.5 -1.5 5000006.37349
10.212449666666666 -1.5333333333333334 -1.5 5000006.37349
10.212449666666666 -0.3333333333333333 -1.5333333333333334 5000006.37349
10.212449666666666 -1.2 -1.5333333333333334 5000006.37349
10.212449666666666 -1.5333333333333334 -1.5333333333333334 5000006.37349
10.212449666666666 0.3333333333333333 -1.5666666666666667 5000006.37349
10.212449666666666 -1.1 -1.5666666666666667 5000006.37349
10.212449666666666 -1.5333333333333334 -1.5666666666666667 5000006.37349
10.212449666666666 -1.5666666666666667 -1.5666666666666667 5000006.37349
10.209183 -0.8 -1.6 5000006.27549
10.212449666666666 -1.0666666666666667 -1.6 5000006.37349
10.212449666666666 -1.1 -1.6 5000006.37349
10.212449666666666 -1.7333333333333334 -1.6 5000006.37349
10.209183 -2.8666666666666667 -1.6 5000006.27549
10.209183 -2.9 -1.6 5000006.27549
10.209183 -2.933333333333333 -1.6 5000006.27549
10.215819666666667 -3.566666666666667 -1.6 5000006.47459
10.215819666666667 -3.6333333333333333 -1.6 5000006.47459
10.212449666666666 -3.8333333333333335 -1.6 5000006.37349
10.212449666666666 -3.8666666666666667 -1.6 5000006.37349
10.238521333333333 -13.266666666666667 -1.6 5000007.15564
10.219298333333333 -13.3 -1.6 5000006.57895
10.226603333333333 -13.466666666666667 -1.6 5000006.7981
10.226603333333333 -13.5 -1.6 5000006.7981
10.226603333333333 -13.533333333333333 -1.6 5000006.7981
10.212449666666666 -13.6 -1.6 5000006.37349
10.212449666666666 -13.633333333333333 -1.6 5000006.37349
10.212449666666666 -13.666666666666666 -1.6 5000006.37349
10.212449666666666 -0.16666666666666666 -1.6333333333333333 5000006.37349
10.209183 -0.7 -1.6333333333333333 5000006.27549
10.219298333333333 -13.3 -1.6333333333333333 5000006.57895
10.219298333333333 -13.333333333333334 -1.6333333333333333 5000006.57895
10.219298333333333 -13.366666666666667 -1.6333333333333333 5000006.57895
10.215819666666667 -13.4 -1.6333333333333333 5000006.47459
10.219298333333333 -13.433333333333334 -1.6333333333333333 5000006.57895
10.226603333333333 -13.533333333333333 -1.6333333333333333 5000006.7981
10.215819666666667 -13.566666666666666 -1.6333333333333333 5000006.47459
10.238521333333333 -0.5333333333333333 -1.6666666666666667 5000007.15564
10.238521333333333 -0.6 -1.6666666666666667 5000007.15564
10.209183 -0.7 -1.6666666666666667 5000006.27549
10.209183 -0.7333333333333333 -1.6666666666666667 5000006.27549
10.256509 -0.8666666666666667 -1.6666666666666667 5000007.69527
10.230441333333333 -2.6 -1.6666666666666667 5000006.91324
10.209183 -2.7333333333333334 -1.6666666666666667 5000006.27549
10.212449666666666 -3.3666666666666667 -1.6666666666666667 5000006.37349
10.209183 -3.466666666666667 -1.6666666666666667 5000006.27549
10.238521333333333 -0.5333333333333333 -1.7 5000007.15564
10.209183 -0.7 -1.7 5000006.27549
10.209183 -0.7333333333333333 -1.7 5000006.27549
10.209183 -1.7666666666666666 -1.7 5000006.27549
