VERSION .7
FIELDS x y z rgb
SIZE 4 4 4 4
TYPE F F F F
COUNT 1 1 1 1
WIDTH 976
HEIGHT 1
VIEWPOINT 0 0 0 1 0 0 0
POINTS 976
DATA ascii
7.965294 2.18 -2.84 5000006.27549
8.024094 2.02 -2.84 5000006.37349
8.347944 0.84 -2.84 5000006.91324
8.024094 4.62 -2.86 5000006.37349
8.024094 4.6 -2.86 5000006.37349
7.965294 4.3 -2.86 5000006.27549
8.147369999999999 4.04 -2.86 5000006.57895
7.908282 3.32 -2.86 5000006.18047
7.908282 2.76 -2.86 5000006.18047
7.908282 2.74 -2.86 5000006.18047
7.908282 2.72 -2.86 5000006.18047
7.965294 2.18 -2.86 5000006.27549
7.965294 2.16 -2.86 5000006.27549
8.024094 1.96 -2.86 5000006.37349
8.084754 1.78 -2.86 5000006.47459
7.965294 4.3 -2.88 5000006.27549
8.147369999999999 4.02 -2.88 5000006.57895
8.147369999999999 4.0 -2.88 5000006.57895
7.965294 3.98 -2.88 5000006.27549
7.965294 3.92 -2.88 5000006.27549
7.908282 3.32 -2.88 5000006.18047
7.908282 3.3 -2.88 5000006.18047
8.084754 1.78 -2.88 5000006.47459
8.084754 1.76 -2.88 5000006.47459
8.27886 4.08 -2.9 5000006.7981
7.908282 3.32 -2.9 5000006.18047
7.908282 3.3 -2.9 5000006.18047
7.908282 3.28 -2.9 5000006.18047
7.965294 2.62 -2.9 5000006.27549
7.965294 2.6 -2.9 5000006.27549
7.965294 2.36 -2.9 5000006.27549
8.084754 1.76 -2.9 5000006.47459
8.024094 4.78 -2.92 5000006.37349
7.908282 4.58 -2.92 5000006.18047
7.908282 4.56 -2.92 5000006.18047
7.908282 4.26 -2.92 5000006.18047
7.908282 4.24 -2.92 5000006.18047
7.908282 3.78 -2.92 5000006.18047
7.908282 3.28 -2.92 5000006.18047
7.965294 2.34 -2.92 5000006.27549
8.024094 4.74 -2.94 5000006.37349
7.908282 4.54 -2.94 5000006.18047
7.908282 4.26 -2.94 5000006.18047
7.908282 4.24 -2.94 5000006.18047
8.27886 4.12 -2.94 5000006.7981
8.27886 4.1 -2.94 5000006.7981
7.908282 3.74 -2.94 5000006.18047
7.8529680000000015 3.72 -2.94 5000006.08828
7.8529680000000015 3.64 -2.94 5000006.08828
7.908282 2.9 -2.94 5000006.18047
7.965294 4.74 -2.96 5000006.27549
8.27886 4.14 -2.96 5000006.7981
8.347944 3.86 -2.96 5000006.91324
7.8529680000000015 3.76 -2.96 5000006.08828
7.8529680000000015 3.74 -2.96 5000006.08828
7.8529680000000015 3.72 -2.96 5000006.08828
7.8529680000000015 3.64 -2.96 5000006.08828
8.147369999999999 2.96 -2.96 5000006.57895
7.908282 2.9 -2.96 5000006.18047
7.908282 2.88 -2.96 5000006.18047
7.965294 1.88 -2.96 5000006.27549
7.908282 4.76 -2.98 5000006.18047
7.908282 4.74 -2.98 5000006.18047
7.8529680000000015 4.46 -2.98 5000006.08828
7.8529680000000015 3.74 -2.98 5000006.08828
7.8529680000000015 3.72 -2.98 5000006.08828
7.8529680000000015 2.96 -2.98 5000006.08828
7.908282 2.88 -2.98 5000006.18047
7.8529680000000015 2.22 -2.98 5000006.08828
7.8529680000000015 2.2 -2.98 5000006.08828
7.8529680000000015 2.16 -2.98 5000006.08828
7.908282 4.76 -3.0 5000006.18047
7.908282 4.74 -3.0 5000006.18047
7.908282 4.72 -3.0 5000006.18047
7.8529680000000015 4.46 -3.0 5000006.08828
7.8529680000000015 4.44 -3.0 5000006.08828
7.8529680000000015 3.74 -3.0 5000006.08828
7.8529680000000015 3.72 -3.0 5000006.08828
7.8529680000000015 3.48 -3.0 5000006.08828
7.8529680000000015 2.98 -3.0 5000006.08828
7.908282 2.68 -3.0 5000006.18047
7.908282 2.66 -3.0 5000006.18047
7.8529680000000015 2.6 -3.0 5000006.08828
7.8529680000000015 2.2 -3.0 5000006.08828
7.8529680000000015 2.18 -3.0 5000006.08828
7.8529680000000015 2.16 -3.0 5000006.08828
7.7992799999999995 2.14 -3.0 5000005.9988
7.8529680000000015 4.44 -3.02 5000006.08828
7.8529680000000015 4.42 -3.02 5000006.08828
7.8529680000000015 3.62 -3.02 5000006.08828
7.8529680000000015 3.48 -3.02 5000006.08828
7.8529680000000015 3.18 -3.02 5000006.08828
8.419410000000001 3.12 -3.02 5000007.03235
7.8529680000000015 2.98 -3.02 5000006.08828
7.8529680000000015 2.96 -3.02 5000006.08828
7.8529680000000015 4.4 -3.04 5000006.08828
7.8529680000000015 4.32 -3.04 5000006.08828
7.8529680000000015 4.16 -3.04 5000006.08828
8.024094 3.62 -3.04 5000006.37349
7.965294 3.6 -3.04 5000006.27549
7.8529680000000015 3.54 -3.04 5000006.08828
7.8529680000000015 3.36 -3.04 5000006.08828
7.8529680000000015 3.34 -3.04 5000006.08828
7.7992799999999995 3.28 -3.04 5000005.9988
7.8529680000000015 2.98 -3.04 5000006.08828
7.8529680000000015 2.96 -3.04 5000006.08828
7.8529680000000015 2.94 -3.04 5000006.08828
7.965294 4.6 -3.06 5000006.27549
8.212038 4.5 -3.06 5000006.68673
7.8529680000000015 4.42 -3.06 5000006.08828
7.8529680000000015 4.4 -3.06 5000006.08828
7.8529680000000015 4.38 -3.06 5000006.08828
8.024094 4.18 -3.06 5000006.37349
7.8529680000000015 4.12 -3.06 5000006.08828
7.8529680000000015 3.9 -3.06 5000006.08828
7.8529680000000015 3.88 -3.06 5000006.08828
7.8529680000000015 3.74 -3.06 5000006.08828
7.8529680000000015 3.72 -3.06 5000006.08828
7.8529680000000015 3.56 -3.06 5000006.08828
7.8529680000000015 3.52 -3.06 5000006.08828
7.8529680000000015 3.36 -3.06 5000006.08828
8.212038 4.54 -3.08 5000006.68673
7.7992799999999995 3.62 -3.08 5000005.9988
7.8529680000000015 3.56 -3.08 5000006.08828
7.8529680000000015 3.36 -3.08 5000006.08828
7.8529680000000015 3.34 -3.08 5000006.08828
7.7992799999999995 3.24 -3.08 5000005.9988
8.569992 3.82 -3.1 5000007.28332
7.7992799999999995 3.64 -3.1 5000005.9988
7.7992799999999995 3.62 -3.1 5000005.9988
7.7992799999999995 3.64 -3.12 5000005.9988
7.7992799999999995 3.62 -3.12 5000005.9988
7.7992799999999995 2.92 -3.12 5000005.9988
7.7992799999999995 2.82 -3.12 5000005.9988
7.7992799999999995 2.8 -3.12 5000005.9988
7.7992799999999995 2.78 -3.12 5000005.9988
7.7992799999999995 2.76 -3.12 5000005.9988
7.747145999999999 2.5 -3.12 5000005.91191
7.747145999999999 2.48 -3.12 5000005.91191
7.747145999999999 2.3 -3.12 5000005.91191
7.8529680000000015 2.06 -3.12 5000006.08828
7.7992799999999995 2.02 -3.12 5000005.9988
7.7992799999999995 2.0 -3.12 5000005.9988
7.747145999999999 1.88 -3.12 5000005.91191
7.747145999999999 1.86 -3.12 5000005.91191
8.212038 -4.12 -3.12 5000006.68673
8.212038 -4.14 -3.12 5000006.68673
7.7992799999999995 -4.34 -3.12 5000005.9988
7.7992799999999995 -4.36 -3.12 5000005.9988
7.747145999999999 -4.38 -3.12 5000005.91191
8.024094 4.86 -3.14 5000006.37349
7.8529680000000015 4.82 -3.14 5000006.08828
7.8529680000000015 4.8 -3.14 5000006.08828
7.8529680000000015 4.78 -3.14 5000006.08828
7.8529680000000015 4.76 -3.14 5000006.08828
7.8529680000000015 4.64 -3.14 5000006.08828
7.8529680000000015 4.62 -3.14 5000006.08828
7.8529680000000015 4.6 -3.14 5000006.08828
7.7992799999999995 4.42 -3.14 5000005.9988
7.7992799999999995 4.4 -3.14 5000005.9988
7.7992799999999995 4.38 -3.14 5000005.9988
7.747145999999999 4.22 -3.14 5000005.91191
8.212038 3.96 -3.14 5000006.68673
7.747145999999999 3.9 -3.14 5000005.91191
7.747145999999999 3.88 -3.14 5000005.91191
7.747145999999999 3.86 -3.14 5000005.91191
7.338077999999999 3.7 -3.14 5000005.23013
7.747145999999999 2.14 -3.14 5000005.91191
7.747145999999999 2.12 -3.14 5000005.91191
7.965294 -4.16 -3.14 5000006.27549
7.908282 -4.18 -3.14 5000006.18047
7.908282 -4.2 -3.14 5000006.18047
7.908282 -4.22 -3.14 5000006.18047
7.8529680000000015 -4.24 -3.14 5000006.08828
7.7992799999999995 -4.26 -3.14 5000005.9988
7.7992799999999995 -4.28 -3.14 5000005.9988
7.7992799999999995 -4.3 -3.14 5000005.9988
7.747145999999999 -4.32 -3.14 5000005.91191
7.7992799999999995 -4.34 -3.14 5000005.9988
7.7992799999999995 -4.36 -3.14 5000005.9988
7.747145999999999 -4.38 -3.14 5000005.91191
7.696506 -4.4 -3.14 5000005.82751
8.212038 4.0 -3.16 5000006.68673
7.747145999999999 3.88 -3.16 5000005.91191
7.552889999999999 3.8 -3.16 5000005.58815
7.552889999999999 3.78 -3.16 5000005.58815
8.024094 2.7 -3.16 5000006.37349
8.024094 2.66 -3.16 5000006.37349
7.747145999999999 2.58 -3.16 5000005.91191
7.747145999999999 2.18 -3.16 5000005.91191
7.747145999999999 2.12 -3.16 5000005.91191
7.8529680000000015 4.06 -3.18 5000006.08828
8.212038 4.0 -3.18 5000006.68673
7.747145999999999 3.88 -3.18 5000005.91191
7.747145999999999 3.86 -3.18 5000005.91191
7.552889999999999 3.8 -3.18 5000005.58815
7.696506 3.22 -3.18 5000005.82751
7.696506 3.2 -3.18 5000005.82751
7.747145999999999 2.38 -3.18 5000005.91191
7.747145999999999 2.36 -3.18 5000005.91191
7.747145999999999 2.2 -3.18 5000005.91191
7.747145999999999 2.18 -3.18 5000005.91191
7.747145999999999 4.58 -3.2 5000005.91191
8.212038 4.0 -3.2 5000006.68673
7.747145999999999 3.88 -3.2 5000005.91191
7.747145999999999 3.86 -3.2 5000005.91191
7.747145999999999 3.56 -3.2 5000005.91191
7.747145999999999 3.54 -3.2 5000005.91191
7.696506 3.2 -3.2 5000005.82751
8.024094 2.96 -3.2 5000006.37349
7.965294 2.26 -3.2 5000006.27549
7.747145999999999 2.2 -3.2 5000005.91191
7.747145999999999 2.18 -3.2 5000005.91191
7.965294 4.32 -3.22 5000006.27549
8.212038 4.04 -3.22 5000006.68673
7.747145999999999 3.54 -3.22 5000005.91191
7.696506 3.26 -3.22 5000005.82751
7.696506 2.18 -3.22 5000005.82751
7.747145999999999 4.94 -3.24 5000005.91191
7.8529680000000015 4.76 -3.24 5000006.08828
7.8529680000000015 4.74 -3.24 5000006.08828
7.965294 4.34 -3.24 5000006.27549
7.747145999999999 4.26 -3.24 5000005.91191
7.747145999999999 4.24 -3.24 5000005.91191
7.696506 3.26 -3.24 5000005.82751
7.8529680000000015 3.0 -3.24 5000006.08828
8.024094 2.98 -3.24 5000006.37349
7.696506 2.9 -3.24 5000005.82751
7.696506 2.66 -3.24 5000005.82751
7.696506 2.42 -3.24 5000005.82751
7.696506 2.4 -3.24 5000005.82751
7.7992799999999995 1.72 -3.24 5000005.9988
7.7992799999999995 3.06 -3.26 5000005.9988
7.8529680000000015 3.04 -3.26 5000006.08828
7.8529680000000015 3.02 -3.26 5000006.08828
7.696506 2.9 -3.26 5000005.82751
7.696506 2.88 -3.26 5000005.82751
7.6472880000000005 3.4 -3.28 5000005.74548
7.696506 3.38 -3.28 5000005.82751
6.623754 5.18 -3.3 5000004.03959
6.623754 5.18 -3.32 5000004.03959
7.696506 3.46 -3.32 5000005.82751
7.696506 3.44 -3.32 5000005.82751
6.623754 5.18 -3.34 5000004.03959
6.623754 5.18 -3.36 5000004.03959
7.507607999999999 1.9 -3.46 5000005.51268
7.420614 4.34 -3.52 5000005.36769
7.599432 4.48 -3.54 5000005.66572
7.599432 4.46 -3.54 5000005.66572
7.463532 4.4 -3.54 5000005.43922
7.599432 4.5 -3.56 5000005.66572
7.599432 4.48 -3.56 5000005.66572
7.338077999999999 2.48 -3.58 5000005.23013
7.338077999999999 2.46 -3.58 5000005.23013
7.338077999999999 2.44 -3.58 5000005.23013
7.378806 2.5 -3.6 5000005.29801
7.338077999999999 2.48 -3.6 5000005.23013
7.378806 2.5 -3.62 5000005.29801
7.338077999999999 2.48 -3.62 5000005.23013
6.623754 5.52 -3.64 5000004.03959
6.647982 5.52 -3.7 5000004.07997
6.623754 5.52 -3.74 5000004.03959
6.623754 5.52 -3.76 5000004.03959
6.623754 5.52 -3.78 5000004.03959
6.623754 5.52 -3.8 5000004.03959
6.623754 5.52 -3.82 5000004.03959
6.623754 5.52 -3.84 5000004.03959
7.013598 3.76 -3.96 5000004.68933
7.013598 3.74 -3.96 5000004.68933
7.013598 3.68 -3.96 5000004.68933
7.013598 3.76 -3.98 5000004.68933
6.9504 4.02 -4.02 5000004.584
7.046298 4.08 -4.04 5000004.74383
6.9504 4.04 -4.06 5000004.584
6.9504 4.02 -4.06 5000004.584
6.9504 4.0 -4.06 5000004.584
6.832158 -0.38 -4.26 5000004.38693
6.69792 4.8 -4.3 5000004.1632
6.9504 4.4 -4.3 5000004.584
6.7499340000000005 4.08 -4.34 5000004.24989
6.7499340000000005 -3.82 -4.34 5000004.24989
6.7499340000000005 -3.8 -4.36 5000004.24989
6.776765999999999 2.68 -4.44 5000004.29461
6.69792 -1.96 -4.44 5000004.1632
6.69792 -1.98 -4.44 5000004.1632
6.69792 -2.0 -4.44 5000004.1632
6.69792 -2.56 -4.44 5000004.1632
6.72366 2.64 -4.46 5000004.2061
6.72366 2.62 -4.46 5000004.2061
6.72366 2.6 -4.46 5000004.2061
6.72366 2.56 -4.5 5000004.2061
6.72366 2.88 -4.52 5000004.2061
6.72366 2.86 -4.52 5000004.2061
6.72366 2.84 -4.52 5000004.2061
6.72366 2.58 -4.52 5000004.2061
6.72366 2.56 -4.52 5000004.2061
6.72366 2.54 -4.52 5000004.2061
6.69792 2.52 -4.52 5000004.1632
6.69792 2.5 -4.52 5000004.1632
6.672695999999999 2.48 -4.52 5000004.12116
6.672695999999999 2.48 -4.54 5000004.12116
6.672695999999999 2.46 -4.54 5000004.12116
6.832158 2.78 -4.58 5000004.38693
6.832158 2.76 -4.58 5000004.38693
6.647982 2.64 -4.58 5000004.07997
6.647982 2.62 -4.58 5000004.07997
6.647982 2.96 -4.6 5000004.07997
6.647982 2.94 -4.6 5000004.07997
6.647982 2.9 -4.6 5000004.07997
6.832158 2.74 -4.6 5000004.38693
6.832158 2.72 -4.6 5000004.38693
6.804168 2.7 -4.6 5000004.34028
6.647982 2.64 -4.6 5000004.07997
6.647982 2.62 -4.6 5000004.07997
6.647982 2.6 -4.6 5000004.07997
6.647982 2.58 -4.6 5000004.07997
6.623754 2.56 -4.6 5000004.03959
6.623754 2.54 -4.6 5000004.03959
6.623754 2.52 -4.6 5000004.03959
6.647982 2.96 -4.62 5000004.07997
6.647982 2.94 -4.62 5000004.07997
6.647982 2.92 -4.62 5000004.07997
6.623754 2.88 -4.62 5000004.03959
6.7499340000000005 2.86 -4.62 5000004.24989
6.69792 2.82 -4.62 5000004.1632
6.69792 2.8 -4.62 5000004.1632
6.69792 2.78 -4.62 5000004.1632
6.647982 2.6 -4.62 5000004.07997
6.647982 2.58 -4.62 5000004.07997
6.623754 2.56 -4.62 5000004.03959
6.623754 2.54 -4.62 5000004.03959
6.623754 5.2 -4.64 5000004.03959
6.647982 2.92 -4.64 5000004.07997
6.647982 2.9 -4.64 5000004.07997
6.623754 2.88 -4.64 5000004.03959
6.647982 2.8 -4.64 5000004.07997
6.623754 5.2 -4.66 5000004.03959
6.623754 1.74 -4.66 5000004.03959
6.623754 5.2 -4.68 5000004.03959
6.623754 3.68 -4.76 5000004.03959
6.623754 3.66 -4.76 5000004.03959
6.623754 3.62 -4.76 5000004.03959
6.647982 3.6 -4.76 5000004.07997
6.647982 3.52 -4.76 5000004.07997
6.647982 3.5 -4.76 5000004.07997
6.623754 3.48 -4.76 5000004.03959
6.623754 3.46 -4.76 5000004.03959
6.623754 3.44 -4.76 5000004.03959
6.623754 3.42 -4.76 5000004.03959
6.623754 3.4 -4.76 5000004.03959
6.623754 3.38 -4.76 5000004.03959
9999 4.02 -4.02 5000004.584
11.846297999999999 4.08 -4.04 5000004.74383
11.750399999999999 4.04 -4.06 5000004.584
11.750399999999999 4.02 -4.06 5000004.584
11.750399999999999 4.0 -4.06 5000004.584
11.632158 -0.38 -4.26 5000004.38693
11.49792 4.8 -4.3 5000004.1632
11.750399999999999 4.4 -4.3 5000004.584
11.549934 4.08 -4.34 5000004.24989
11.549934 -3.82 -4.34 5000004.24989
11.549934 -3.8 -4.36 5000004.24989
11.576766 2.68 -4.44 5000004.29461
11.49792 -1.96 -4.44 5000004.1632
11.49792 -1.98 -4.44 5000004.1632
11.49792 -2.0 -4.44 5000004.1632
11.49792 -2.56 -4.44 5000004.1632
11.52366 2.64 -4.46 5000004.2061
11.52366 2.62 -4.46 5000004.2061
11.52366 2.6 -4.46 5000004.2061
11.52366 2.56 -4.5 5000004.2061
11.52366 2.88 -4.52 5000004.2061
11.52366 2.86 -4.52 5000004.2061
11.52366 2.84 -4.52 5000004.2061
11.52366 2.58 -4.52 5000004.2061
11.52366 2.56 -4.52 5000004.2061
11.52366 2.54 -4.52 5000004.2061
11.49792 2.52 -4.52 5000004.1632
11.49792 2.5 -4.52 5000004.1632
11.472696000000001 2.48 -4.52 5000004.12116
11.472696000000001 2.48 -4.54 5000004.12116
11.472696000000001 2.46 -4.54 5000004.12116
11.632158 2.78 -4.58 5000004.38693
11.632158 2.76 -4.58 5000004.38693
11.447982 2.64 -4.58 5000004.07997
11.447982 2.62 -4.58 5000004.07997
11.447982 2.96 -4.6 5000004.07997
11.447982 2.94 -4.6 5000004.07997
11.447982 2.9 -4.6 5000004.07997
11.632158 2.74 -4.6 5000004.38693
11.632158 2.72 -4.6 5000004.38693
11.604168 2.7 -4.6 5000004.34028
11.447982 2.64 -4.6 5000004.07997
11.447982 2.62 -4.6 5000004.07997
11.447982 2.6 -4.6 5000004.07997
11.447982 2.58 -4.6 5000004.07997
11.423754 2.56 -4.6 5000004.03959
11.423754 2.54 -4.6 5000004.03959
11.423754 2.52 -4.6 5000004.03959
11.447982 2.96 -4.62 5000004.07997
11.447982 2.94 -4.62 5000004.07997
11.447982 2.92 -4.62 5000004.07997
11.423754 2.88 -4.62 5000004.03959
11.549934 2.86 -4.62 5000004.24989
11.49792 2.82 -4.62 5000004.1632
11.49792 2.8 -4.62 5000004.1632
11.49792 2.78 -4.62 5000004.1632
11.447982 2.6 -4.62 5000004.07997
11.447982 2.58 -4.62 5000004.07997
11.423754 2.56 -4.62 5000004.03959
11.423754 2.54 -4.62 5000004.03959
11.423754 5.2 -4.64 5000004.03959
11.447982 2.92 -4.64 5000004.07997
11.447982 2.9 -4.64 5000004.07997
11.423754 2.88 -4.64 5000004.03959
11.447982 2.8 -4.64 5000004.07997
11.423754 5.2 -4.66 5000004.03959
11.423754 1.74 -4.66 5000004.03959
11.423754 5.2 -4.68 5000004.03959
11.423754 3.68 -4.76 5000004.03959
11.423754 3.66 -4.76 5000004.03959
11.423754 3.62 -4.76 5000004.03959
11.447982 3.6 -4.76 5000004.07997
11.447982 3.52 -4.76 5000004.07997
11.447982 3.5 -4.76 5000004.07997
11.423754 3.48 -4.76 5000004.03959
11.423754 3.46 -4.76 5000004.03959
11.423754 3.44 -4.76 5000004.03959
11.423754 3.42 -4.76 5000004.03959
11.423754 3.4 -4.76 5000004.03959
11.423754 3.38 -4.76 5000004.03959
 5000004.07997
1.631988 1.58 -4.62 5000004.07997
1.6158359999999998 1.56 -4.62 5000004.03959
1.6158359999999998 1.54 -4.62 5000004.03959
1.6158359999999998 4.2 -4.64 5000004.03959
1.631988 1.92 -4.64 5000004.07997
1.631988 1.9 -4.64 5000004.07997
1.6158359999999998 1.88 -4.64 5000004.03959
1.631988 1.8 -4.64 5000004.07997
1.6158359999999998 4.2 -4.66 5000004.03959
1.6158359999999998 0.74 -4.66 5000004.03959
1.6158359999999998 4.2 -4.68 5000004.03959
1.6158359999999998 2.68 -4.76 5000004.03959
1.6158359999999998 2.66 -4.76 5000004.03959
1.6158359999999998 2.62 -4.76 5000004.03959
1.631988 2.6 -4.76 5000004.07997
1.631988 2.52 -4.76 5000004.07997
1.631988 2.5 -4.76 5000004.07997
1.6158359999999998 2.48 -4.76 5000004.03959
1.6158359999999998 2.46 -4.76 5000004.03959
1.6158359999999998 2.44 -4.76 5000004.03959
1.6158359999999998 2.42 -4.76 5000004.03959
1.6158359999999998 2.4 -4.76 5000004.03959
1.6158359999999998 2.38 -4.76 5000004.03959
-1.18 -4.62 5000004.1632
1.6652799999999999 -1.2 -4.62 5000004.1632
1.6652799999999999 -1.22 -4.62 5000004.1632
1.631988 -1.4 -4.62 5000004.07997
1.631988 -1.42 -4.62 5000004.07997
1.6158359999999998 -1.44 -4.62 5000004.03959
1.6158359999999998 -1.46 -4.62 5000004.03959
1.6158359999999998 1.2 -4.64 5000004.03959
1.631988 -1.08 -4.64 5000004.07997
1.631988 -1.1 -4.64 5000004.07997
1.6158359999999998 -1.12 -4.64 5000004.03959
1.631988 -1.2 -4.64 5000004.07997
1.6158359999999998 1.2 -4.66 5000004.03959
1.6158359999999998 -2.26 -4.66 5000004.03959
1.6158359999999998 1.2 -4.68 5000004.03959
1.6158359999999998 -0.32 -4.76 5000004.03959
1.6158359999999998 -0.34 -4.76 5000004.03959
1.6158359999999998 -0.38 -4.76 5000004.03959
1.631988 -0.4 -4.76 5000004.07997
1.631988 -0.48 -4.76 5000004.07997
1.631988 -0.5 -4.76 5000004.07997
1.6158359999999998 -0.52 -4.76 5000004.03959
1.6158359999999998 -0.54 -4.76 5000004.03959
1.6158359999999998 -0.56 -4.76 5000004.03959
1.6158359999999998 -0.58 -4.76 5000004.03959
1.6158359999999998 -0.6 -4.76 5000004.03959
1.6158359999999998 -0.62 -4.76 5000004.03959
00008.86525
10.26656 -2.8333333333333335 -0.26666666666666666 5000007.9968
10.26656 -2.8333333333333335 -0.3 5000007.9968
10.271887 -4.033333333333333 -0.3 5000008.15661
10.316105666666667 -4.3 -0.3 5000009.48317
10.277431 -4.433333333333334 -0.3 5000008.32293
10.271887 -4.033333333333333 -0.3333333333333333 5000008.15661
10.271887 -4.066666666666666 -0.3333333333333333 5000008.15661
10.283206 -1.0 -0.36666666666666664 5000008.49618
10.256509 -3.533333333333333 -0.36666666666666664 5000007.69527
10.256509 -3.566666666666667 -0.36666666666666664 5000007.69527
10.256509 -3.566666666666667 -0.4 5000007.69527
10.271887 -2.1 -0.43333333333333335 5000008.15661
10.271887 -2.1 -0.4666666666666667 5000008.15661
10.271887 -4.8 -0.4666666666666667 5000008.15661
10.256509 -2.1666666666666665 -0.5 5000007.69527
10.251762333333334 -2.2 -0.5 5000007.55287
10.251762333333334 -2.2333333333333334 -0.5 5000007.55287
10.251762333333334 -2.6 -0.5 5000007.55287
10.251762333333334 -2.7 -0.5 5000007.55287
10.26656 -4.133333333333334 -0.5 5000007.9968
10.26656 -4.466666666666667 -0.5 5000007.9968
10.271887 -4.8 -0.5 5000008.15661
10.271887 -5.066666666666666 -0.5 5000008.15661
10.271887 -5.1 -0.5 5000008.15661
10.251762333333334 -2.2 -0.5333333333333333 5000007.55287
10.251762333333334 -2.2333333333333334 -0.5333333333333333 5000007.55287
10.251762333333334 -2.7 -0.5333333333333333 5000007.55287
10.251762333333334 -2.7333333333333334 -0.5333333333333333 5000007.55287
10.26656 -4.166666666666667 -0.5333333333333333 5000007.9968
10.26656 -4.4 -0.5333333333333333 5000007.9968
10.26656 -4.5 -0.5333333333333333 5000007.9968
10.271887 -5.1 -0.5333333333333333 5000008.15661
10.251762333333334 -2.7 -0.5666666666666667 5000007.55287
10.251762333333334 -2.7333333333333334 -0.5666666666666667 5000007.55287
10.26656 -4.4 -0.5666666666666667 5000007.9968
10.26656 -4.833333333333333 -0.5666666666666667 5000007.9968
10.26656 -4.866666666666666 -0.5666666666666667 5000007.9968
10.271887 -1.6333333333333333 -0.6 5000008.15661
10.256509 -1.6666666666666667 -0.6 5000007.69527
10.256509 -1.7333333333333334 -0.6 5000007.69527
10.247188333333334 -2.7333333333333334 -0.6 5000007.41565
10.256509 -3.7333333333333334 -0.6 5000007.69527
10.256509 -0.8666666666666667 -0.6333333333333333 5000007.69527
10.256509 -1.7333333333333334 -0.6333333333333333 5000007.69527
10.251762333333334 -3.933333333333333 -0.6333333333333333 5000007.55287
10.256509 -0.8666666666666667 -0.6666666666666666 5000007.69527
10.247188333333334 -2.7 -0.6666666666666666 5000007.41565
10.247188333333334 -2.533333333333333 -0.7 5000007.41565
10.247188333333334 -2.8 -0.7 5000007.41565
10.247188333333334 -2.8333333333333335 -0.7 5000007.41565
10.251762333333334 -0.5333333333333333 -0.7333333333333333 5000007.55287
10.251762333333334 -0.5666666666666667 -0.7333333333333333 5000007.55287
10.247188333333334 -2.566666666666667 -0.7333333333333333 5000007.41565
10.251762333333334 -0.4 -0.7666666666666667 5000007.55287
10.261438 -1.3666666666666667 -0.7666666666666667 5000007.84314
10.242777333333333 -1.4666666666666666 -0.7666666666666667 5000007.28332
10.247188333333334 -2.566666666666667 -0.7666666666666667 5000007.41565
10.247188333333334 -2.7666666666666666 -0.7666666666666667 5000007.41565
10.238521333333333 -3.3333333333333335 -0.7666666666666667 5000007.15564
10.242777333333333 -1.4666666666666666 -0.8 5000007.28332
10.242777333333333 -2.0 -0.8 5000007.28332
10.238521333333333 -3.3333333333333335 -0.8 5000007.15564
10.230441333333333 -3.433333333333333 -0.8 5000006.91324
10.230441333333333 -3.466666666666667 -0.8 5000006.91324
10.247188333333334 -3.8333333333333335 -0.8 5000007.41565
10.238521333333333 -2.033333333333333 -0.8333333333333334 5000007.15564
10.242777333333333 -2.933333333333333 -0.8333333333333334 5000007.28332
10.242777333333333 -2.966666666666667 -0.8333333333333334 5000007.28332
10.238521333333333 -3.9 -0.8333333333333334 5000007.15564
10.238521333333333 -3.933333333333333 -0.8333333333333334 5000007.15564
10.234411666666666 0.26666666666666666 -0.8666666666666667 5000007.03235
10.238521333333333 -1.8333333333333333 -0.8666666666666667 5000007.15564
10.238521333333333 -1.8666666666666667 -0.8666666666666667 5000007.15564
10.238521333333333 -1.9 -0.8666666666666667 5000007.15564
10.247188333333334 -2.3666666666666667 -0.8666666666666667 5000007.41565
10.242777333333333 -2.966666666666667 -0.8666666666666667 5000007.28332
10.238521333333333 -3.933333333333333 -0.8666666666666667 5000007.15564
10.238521333333333 -3.966666666666667 -0.8666666666666667 5000007.15564
10.222891 0.6 -0.9 5000006.68673
10.234411666666666 -1.0 -0.9 5000007.03235
10.238521333333333 -1.8666666666666667 -0.9 5000007.15564
10.234411666666666 -1.9 -0.9 5000007.03235
10.238521333333333 -1.9666666666666666 -0.9 5000007.15564
10.247188333333334 -2.3333333333333335 -0.9 5000007.41565
10.234411666666666 -3.6 -0.9 5000007.03235
10.238521333333333 -4.133333333333334 -0.9 5000007.15564
10.242777333333333 -4.5 -0.9 5000007.28332
10.242777333333333 -4.533333333333333 -0.9 5000007.28332
10.242777333333333 -4.566666666666666 -0.9 5000007.28332
10.234411666666666 -1.9333333333333333 -0.9333333333333333 5000007.03235
10.234411666666666 -1.9666666666666666 -0.9333333333333333 5000007.03235
10.238521333333333 -4.166666666666667 -0.9333333333333333 5000007.15564
10.226603333333333 -0.36666666666666664 -0.9666666666666667 5000006.7981
10.230441333333333 -1.3666666666666667 -0.9666666666666667 5000006.91324
10.230441333333333 -1.4 -0.9666666666666667 5000006.91324
10.234411666666666 -1.9666666666666666 -0.9666666666666667 5000007.03235
10.230441333333333 -2.0 -0.9666666666666667 5000006.91324
10.222891 -2.1 -0.9666666666666667 5000006.68673
10.226603333333333 -2.533333333333333 -0.9666666666666667 5000006.7981
10.230441333333333 -2.7666666666666666 -0.9666666666666667 5000006.91324
10.251762333333334 -3.8666666666666667 -0.9666666666666667 5000007.55287
10.256509 -5.2 -0.9666666666666667 5000007.69527
10.222891 -2.1 -1.0 5000006.68673
10.247188333333334 -2.433333333333333 -1.0 5000007.41565
10.226603333333333 -2.566666666666667 -1.0 5000006.7981
10.251762333333334 -3.8 -1.0 5000007.55287
10.256509 -5.233333333333333 -1.0 5000007.69527
10.230441333333333 0.3 -1.0333333333333334 5000006.91324
10.230441333333333 0.23333333333333334 -1.0333333333333334 5000006.91324
10.226603333333333 -0.6333333333333333 -1.0333333333333334 5000006.7981
10.226603333333333 -0.6666666666666666 -1.0333333333333334 5000006.7981
10.222891 -2.566666666666667 -1.0333333333333334 5000006.68673
10.222891 -2.6 -1.0333333333333334 5000006.68673
10.226603333333333 -3.1 -1.0333333333333334 5000006.7981
10.251762333333334 -3.8 -1.0333333333333334 5000007.55287
10.234411666666666 -4.0 -1.0333333333333334 5000007.03235
10.234411666666666 -4.033333333333333 -1.0333333333333334 5000007.03235
10.234411666666666 -4.066666666666666 -1.0333333333333334 5000007.03235
10.230441333333333 0.3 -1.0666666666666667 5000006.91324
10.230441333333333 0.23333333333333334 -1.0666666666666667 5000006.91324
10.222891 -0.7 -1.0666666666666667 5000006.68673
10.222891 -0.7333333333333333 -1.0666666666666667 5000006.68673
10.222891 -0.7666666666666667 -1.0666666666666667 5000006.68673
10.222891 -2.6 -1.0666666666666667 5000006.68673
10.222891 -2.6333333333333333 -1.0666666666666667 5000006.68673
10.219298333333333 0.6 -1.1 5000006.57895
10.222891 -0.23333333333333334 -1.1 5000006.68673
10.234411666666666 -0.4 -1.1 5000007.03235
10.222891 -0.4666666666666667 -1.1 5000006.68673
10.222891 -0.7666666666666667 -1.1 5000006.68673
10.222891 -2.6 -1.1 5000006.68673
10.222891 -2.6333333333333333 -1.1 5000006.68673
10.222891 -3.1666666666666665 -1.1 5000006.68673
10.226603333333333 -3.3666666666666667 -1.1 5000006.7981
10.226603333333333 -3.4 -1.1 5000006.7981
10.234411666666666 0.8333333333333334 -1.1333333333333333 5000007.03235
10.219298333333333 0.7333333333333333 -1.1333333333333333 5000006.57895
10.219298333333333 0.7 -1.1333333333333333 5000006.57895
10.222891 -0.5 -1.1333333333333333 5000006.68673
10.215819666666667 -0.5666666666666667 -1.1333333333333333 5000006.47459
10.215819666666667 -0.6 -1.1333333333333333 5000006.47459
10.215819666666667 -2.1666666666666665 -1.1333333333333333 5000006.47459
10.222891 -3.2 -1.1333333333333333 5000006.68673
10.222891 -3.2333333333333334 -1.1333333333333333 5000006.68673
10.219298333333333 0.7 -1.1666666666666667 5000006.57895
10.219298333333333 0.5 -1.1666666666666667 5000006.57895
10.219298333333333 -0.1 -1.1666666666666667 5000006.57895
10.219298333333333 -0.13333333333333333 -1.1666666666666667 5000006.57895
10.215819666666667 -0.7333333333333333 -1.1666666666666667 5000006.47459
10.219298333333333 -1.2333333333333334 -1.1666666666666667 5000006.57895
10.219298333333333 -1.2666666666666666 -1.1666666666666667 5000006.57895
10.230441333333333 -2.3333333333333335 -1.1666666666666667 5000006.91324
10.222891 -3.2 -1.1666666666666667 5000006.68673
10.222891 -3.2333333333333334 -1.1666666666666667 5000006.68673
10.219298333333333 -0.1 -1.2 5000006.57895
10.219298333333333 -0.13333333333333333 -1.2 5000006.57895
10.219298333333333 -0.16666666666666666 -1.2 5000006.57895
10.215819666666667 -0.7333333333333333 -1.2 5000006.47459
10.215819666666667 -0.7666666666666667 -1.2 5000006.47459
10.212449666666666 -1.8333333333333333 -1.2 5000006.37349
10.212449666666666 -2.433333333333333 -1.2 5000006.37349
10.222891 -3.1666666666666665 -1.2 5000006.68673
10.219298333333333 1.2333333333333334 -1.2333333333333334 5000006.57895
10.215819666666667 0.36666666666666664 -1.2333333333333334 5000006.47459
10.215819666666667 0.3333333333333333 -1.2333333333333334 5000006.47459
10.215819666666667 -0.7333333333333333 -1.2333333333333334 5000006.47459
10.215819666666667 -1.8666666666666667 -1.2333333333333334 5000006.47459
10.212449666666666 -1.9333333333333333 -1.2333333333333334 5000006.37349
10.215819666666667 -2.066666666666667 -1.2333333333333334 5000006.47459
10.212449666666666 -2.433333333333333 -1.2333333333333334 5000006.37349
10.215819666666667 -2.8333333333333335 -1.2333333333333334 5000006.47459
10.219298333333333 -3.7 -1.2333333333333334 5000006.57895
10.219298333333333 -3.7333333333333334 -1.2333333333333334 5000006.57895
10.238521333333333 -14.633333333333333 -1.2333333333333334 5000007.15564
10.238521333333333 -14.666666666666666 -1.2333333333333334 5000007.15564
10.234411666666666 -14.7 -1.2333333333333334 5000007.03235
10.230441333333333 -14.733333333333333 -1.2333333333333334 5000006.91324
10.226603333333333 -14.766666666666667 -1.2333333333333334 5000006.7981
10.226603333333333 -14.8 -1.2333333333333334 5000006.7981
10.226603333333333 -14.833333333333334 -1.2333333333333334 5000006.7981
10.219298333333333 1.2333333333333334 -1.2666666666666666 5000006.57895
10.212449666666666 0.9 -1.2666666666666666 5000006.37349
10.238521333333333 0.6333333333333333 -1.2666666666666666 5000007.15564
10.215819666666667 0.43333333333333335 -1.2666666666666666 5000006.47459
10.215819666666667 0.3333333333333333 -1.2666666666666666 5000006.47459
10.222891 0.03333333333333333 -1.2666666666666666 5000006.68673
10.222891 0.0 -1.2666666666666666 5000006.68673
10.212449666666666 -1.1333333333333333 -1.2666666666666666 5000006.37349
10.238521333333333 -1.6666666666666667 -1.2666666666666666 5000007.15564
10.215819666666667 -1.8666666666666667 -1.2666666666666666 5000006.47459
10.215819666666667 -2.1 -1.2666666666666666 5000006.47459
10.215819666666667 -2.1333333333333333 -1.2666666666666666 5000006.47459
10.215819666666667 -2.1666666666666665 -1.2666666666666666 5000006.47459
10.215819666666667 -2.8333333333333335 -1.2666666666666666 5000006.47459
10.215819666666667 -2.8666666666666667 -1.2666666666666666 5000006.47459
10.219298333333333 -3.7333333333333334 -1.2666666666666666 5000006.57895
10.219298333333333 -3.7666666666666666 -1.2666666666666666 5000006.57895
10.215819666666667 1.5 -1.3 5000006.47459
10.212449666666666 0.8666666666666667 -1.3 5000006.37349
10.230441333333333 0.4666666666666667 -1.3 5000006.91324
10.226603333333333 -0.26666666666666666 -1.3 5000006.7981
10.212449666666666 -2.6333333333333333 -1.3 5000006.37349
10.212449666666666 -2.6666666666666665 -1.3 5000006.37349
10.215819666666667 -3.2333333333333334 -1.3 5000006.47459
10.212449666666666 -3.3 -1.3 5000006.37349
10.212449666666666 -3.3333333333333335 -1.3 5000006.37349
10.212449666666666 0.8666666666666667 -1.3333333333333333 5000006.37349
10.212449666666666 0.8333333333333334 -1.3333333333333333 5000006.37349
10.212449666666666 -0.3333333333333333 -1.3333333333333333 5000006.37349
10.212449666666666 -0.36666666666666664 -1.3333333333333333 5000006.37349
10.212449666666666 -2.2666666666666666 -1.3333333333333333 5000006.37349
10.215819666666667 -3.2333333333333334 -1.3333333333333333 5000006.47459
10.212449666666666 -3.2666666666666666 -1.3333333333333333 5000006.37349
10.212449666666666 -3.3333333333333335 -1.3333333333333333 5000006.37349
10.212449666666666 1.0333333333333334 -1.3666666666666667 5000006.37349
10.212449666666666 -0.36666666666666664 -1.3666666666666667 5000006.37349
10.212449666666666 -0.4 -1.3666666666666667 5000006.37349
10.209183 -1.7333333333333334 -1.3666666666666667 5000006.27549
10.212449666666666 -2.3333333333333335 -1.3666666666666667 5000006.37349
10.212449666666666 -2.566666666666667 -1.3666666666666667 5000006.37349
10.212449666666666 -2.933333333333333 -1.3666666666666667 5000006.37349
10.212449666666666 -3.2666666666666666 -1.3666666666666667 5000006.37349
10.212449666666666 1.0666666666666667 -1.4 5000006.37349
10.212449666666666 1.0333333333333334 -1.4 5000006.37349
10.212449666666666 0.8 -1.4 5000006.37349
10.219298333333333 -1.0333333333333334 -1.4 5000006.57895
10.206015666666667 -1.1 -1.4 5000006.18047
10.209183 -2.033333333333333 -1.4 5000006.27549
10.206015666666667 -2.066666666666667 -1.4 5000006.18047
10.212449666666666 -2.9 -1.4 5000006.37349
10.212449666666666 -2.933333333333333 -1.4 5000006.37349
10.209183 -3.033333333333333 -1.4 5000006.27549
10.212449666666666 -3.3 -1.4 5000006.37349
10.230441333333333 -5.266666666666667 -1.4 5000006.91324
10.212449666666666 1.0333333333333334 -1.4333333333333333 5000006.37349
10.212449666666666 1.0 -1.4333333333333333 5000006.37349
10.209183 0.5 -1.4333333333333333 5000006.27549
10.219298333333333 0.06666666666666667 -1.4333333333333333 5000006.57895
10.206015666666667 -1.1333333333333333 -1.4333333333333333 5000006.18047
10.206015666666667 -2.066666666666667 -1.4333333333333333 5000006.18047
10.206015666666667 -2.1 -1.4333333333333333 5000006.18047
10.206015666666667 -2.1333333333333333 -1.4333333333333333 5000006.18047
10.209183 -3.033333333333333 -1.4333333333333333 5000006.27549
10.209183 -3.066666666666667 -1.4333333333333333 5000006.27549
10.212449666666666 -3.4 -1.4333333333333333 5000006.37349
10.215819666666667 -3.7 -1.4333333333333333 5000006.47459
10.209183 0.5 -1.4666666666666666 5000006.27549
10.219298333333333 0.03333333333333333 -1.4666666666666666 5000006.57895
10.219298333333333 0.0 -1.4666666666666666 5000006.57895
10.209183 -0.03333333333333333 -1.4666666666666666 5000006.27549
10.209183 -0.13333333333333333 -1.4666666666666666 5000006.27549
10.206015666666667 -1.1333333333333333 -1.4666666666666666 5000006.18047
10.206015666666667 -1.1666666666666667 -1.4666666666666666 5000006.18047
10.215819666666667 -3.7 -1.4666666666666666 5000006.47459
10.215819666666667 -3.7333333333333334 -1.4666666666666666 5000006.47459
10.226603333333333 0.13333333333333333 -1.5 5000006.7981
10.206015666666667 -1.1333333333333333 -1.5 5000006.18047
10.206015666666667 -1.1666666666666667 -1.5 5000006.18047
10.206015666666667 -1.2 -1.5 5000006.18047
10.209183 -2.3 -1.5 5000006.27549
10.209183 -2.3333333333333335 -1.5 5000006.27549
10.209183 -2.7333333333333334 -1.5 5000006.27549
10.215819666666667 -3.7333333333333334 -1.5 5000006.47459
10.212449666666666 1.3 -1.5333333333333334 5000006.37349
10.206015666666667 0.9666666666666667 -1.5333333333333334 5000006.18047
10.206015666666667 0.9333333333333333 -1.5333333333333334 5000006.18047
10.206015666666667 0.43333333333333335 -1.5333333333333334 5000006.18047
10.206015666666667 0.4 -1.5333333333333334 5000006.18047
10.206015666666667 -0.36666666666666664 -1.5333333333333334 5000006.18047
10.206015666666667 -1.2 -1.5333333333333334 5000006.18047
10.209183 -2.7666666666666666 -1.5333333333333334 5000006.27549
10.212449666666666 1.2333333333333334 -1.5666666666666667 5000006.37349
10.206015666666667 0.9 -1.5666666666666667 5000006.18047
10.206015666666667 0.43333333333333335 -1.5666666666666667 5000006.18047
10.206015666666667 0.4 -1.5666666666666667 5000006.18047
10.226603333333333 0.2 -1.5666666666666667 5000006.7981
10.226603333333333 0.16666666666666666 -1.5666666666666667 5000006.7981
10.206015666666667 -0.43333333333333335 -1.5666666666666667 5000006.18047
10.202942666666667 -0.4666666666666667 -1.5666666666666667 5000006.08828
10.202942666666667 -0.6 -1.5666666666666667 5000006.08828
10.206015666666667 -1.8333333333333333 -1.5666666666666667 5000006.18047
10.209183 1.2333333333333334 -1.6 5000006.27549
10.226603333333333 0.23333333333333334 -1.6 5000006.7981
10.230441333333333 -0.23333333333333334 -1.6 5000006.91324
10.202942666666667 -0.4 -1.6 5000006.08828
10.202942666666667 -0.43333333333333335 -1.6 5000006.08828
10.202942666666667 -0.4666666666666667 -1.6 5000006.08828
10.202942666666667 -0.6 -1.6 5000006.08828
10.219298333333333 -1.7333333333333334 -1.6 5000006.57895
10.206015666666667 -1.8333333333333333 -1.6 5000006.18047
10.206015666666667 -1.8666666666666667 -1.6 5000006.18047
10.209183 -3.533333333333333 -1.6 5000006.27549
10.206015666666667 1.2666666666666666 -1.6333333333333333 5000006.18047
10.206015666666667 1.2333333333333334 -1.6333333333333333 5000006.18047
10.202942666666667 0.7666666666666667 -1.6333333333333333 5000006.08828
10.202942666666667 -0.43333333333333335 -1.6333333333333333 5000006.08828
10.202942666666667 -0.4666666666666667 -1.6333333333333333 5000006.08828
10.202942666666667 -1.7333333333333334 -1.6333333333333333 5000006.08828
10.206015666666667 -1.8666666666666667 -1.6333333333333333 5000006.18047
10.202942666666667 -2.966666666666667 -1.6333333333333333 5000006.08828
10.202942666666667 -3.0 -1.6333333333333333 5000006.08828
10.202942666666667 -3.066666666666667 -1.6333333333333333 5000006.08828
10.206015666666667 1.2666666666666666 -1.6666666666666667 5000006.18047
10.206015666666667 1.2333333333333334 -1.6666666666666667 5000006.18047
10.206015666666667 1.2 -1.6666666666666667 5000006.18047
10.202942666666667 0.7666666666666667 -1.6666666666666667 5000006.08828
10.202942666666667 0.7333333333333333 -1.6666666666666667 5000006.08828
10.202942666666667 -0.43333333333333335 -1.6666666666666667 5000006.08828
10.202942666666667 -0.4666666666666667 -1.6666666666666667 5000006.08828
10.202942666666667 -0.8666666666666667 -1.6666666666666667 5000006.08828
10.202942666666667 -1.7 -1.6666666666666667 5000006.08828
10.206015666666667 -2.2 -1.6666666666666667 5000006.18047
10.206015666666667 -2.2333333333333334 -1.6666666666666667 5000006.18047
10.202942666666667 -2.3333333333333335 -1.6666666666666667 5000006.08828
10.202942666666667 -3.0 -1.6666666666666667 5000006.08828
10.202942666666667 -3.033333333333333 -1.6666666666666667 5000006.08828
10.202942666666667 -3.066666666666667 -1.6666666666666667 5000006.08828
10.19996 -3.1 -1.6666666666666667 5000005.9988
10.202942666666667 0.7333333333333333 -1.7 5000006.08828
10.202942666666667 0.7 -1.7 5000006.08828
10.202942666666667 -0.6333333333333333 -1.7 5000006.08828
10.202942666666667 -0.8666666666666667 -1.7 5000006.08828
10.202942666666667 -1.3666666666666667 -1.7 5000006.08828
10.234411666666666 -1.4666666666666666 -1.7 5000007.03235
10.202942666666667 -1.7 -1.7 5000006.08828
10.202942666666667 -1.7333333333333334 -1.7 5000006.08828
10.202942666666667 0.6666666666666666 -1.7333333333333334 5000006.08828
10.202942666666667 0.5333333333333333 -1.7333333333333334 5000006.08828
10.202942666666667 0.26666666666666666 -1.7333333333333334 5000006.08828
10.212449666666666 -0.6333333333333333 -1.7333333333333334 5000006.37349
10.209183 -0.6666666666666666 -1.7333333333333334 5000006.27549
10.202942666666667 -0.7666666666666667 -1.7333333333333334 5000006.08828
10.202942666666667 -1.0666666666666667 -1.7333333333333334 5000006.08828
10.202942666666667 -1.1 -1.7333333333333334 5000006.08828
10.19996 -1.2 -1.7333333333333334 5000005.9988
10.202942666666667 -1.7 -1.7333333333333334 5000006.08828
10.202942666666667 -1.7333333333333334 -1.7333333333333334 5000006.08828
10.202942666666667 -1.7666666666666666 -1.7333333333333334 5000006.08828
10.209183 1.0 -1.7666666666666666 5000006.27549
10.222891 0.8333333333333334 -1.7666666666666666 5000006.68673
10.202942666666667 0.7 -1.7666666666666666 5000006.08828
10.202942666666667 0.6666666666666666 -1.7666666666666666 5000006.08828
10.202942666666667 0.6333333333333333 -1.7666666666666666 5000006.08828
10.212449666666666 0.3 -1.7666666666666666 5000006.37349
10.202942666666667 0.2 -1.7666666666666666 5000006.08828
10.202942666666667 -0.16666666666666666 -1.7666666666666666 5000006.08828
10.202942666666667 -0.2 -1.7666666666666666 5000006.08828
10.202942666666667 -0.43333333333333335 -1.7666666666666666 5000006.08828
10.202942666666667 -0.4666666666666667 -1.7666666666666666 5000006.08828
10.202942666666667 -0.7333333333333333 -1.7666666666666666 5000006.08828
10.202942666666667 -0.8 -1.7666666666666666 5000006.08828
10.202942666666667 -1.0666666666666667 -1.7666666666666666 5000006.08828
10.222891 0.9 -1.8 5000006.68673
10.19996 -0.6333333333333333 -1.8 5000005.9988
10.202942666666667 -0.7333333333333333 -1.8 5000006.08828
10.202942666666667 -1.0666666666666667 -1.8 5000006.08828
10.202942666666667 -1.1 -1.8 5000006.08828
10.19996 -1.2666666666666666 -1.8 5000005.9988
10.242777333333333 -0.3 -1.8333333333333333 5000007.28332
10.19996 -0.6 -1.8333333333333333 5000005.9988
10.19996 -0.6333333333333333 -1.8333333333333333 5000005.9988
10.19996 -0.6 -1.8666666666666667 5000005.9988
10.19996 -0.6333333333333333 -1.8666666666666667 5000005.9988
10.19996 -1.8 -1.8666666666666667 5000005.9988
10.19996 -1.9666666666666666 -1.8666666666666667 5000005.9988
10.19996 -2.0 -1.8666666666666667 5000005.9988
10.19996 -2.033333333333333 -1.8666666666666667 5000005.9988
10.19996 -2.066666666666667 -1.8666666666666667 5000005.9988
10.197063666666667 -2.5 -1.8666666666666667 5000005.91191
10.197063666666667 -2.533333333333333 -1.8666666666666667 5000005.91191
10.197063666666667 -2.8333333333333335 -1.8666666666666667 5000005.91191
10.202942666666667 -3.2333333333333334 -1.8666666666666667 5000006.08828
10.19996 -3.3 -1.8666666666666667 5000005.9988
10.19996 -3.3333333333333335 -1.8666666666666667 5000005.9988
10.197063666666667 -3.533333333333333 -1.8666666666666667 5000005.91191
10.197063666666667 -3.566666666666667 -1.8666666666666667 5000005.91191
10.222891 -13.533333333333333 -1.8666666666666667 5000006.68673
10.222891 -13.566666666666666 -1.8666666666666667 5000006.68673
10.19996 -13.9 -1.8666666666666667 5000005.9988
10.19996 -13.933333333333334 -1.8666666666666667 5000005.9988
10.197063666666667 -13.966666666666667 -1.8666666666666667 5000005.91191
10.212449666666666 1.4333333333333333 -1.9 5000006.37349
10.202942666666667 1.3666666666666667 -1.9 5000006.08828
10.202942666666667 1.3333333333333333 -1.9 5000006.08828
10.202942666666667 1.3 -1.9 5000006.08828
10.202942666666667 1.2666666666666666 -1.9 5000006.08828
10.202942666666667 1.0666666666666667 -1.9 5000006.08828
10.202942666666667 1.0333333333333334 -1.9 5000006.08828
10.202942666666667 1.0 -1.9 5000006.08828
10.19996 0.7 -1.9 5000005.9988
10.19996 0.6666666666666666 -1.9 5000005.9988
10.19996 0.6333333333333333 -1.9 5000005.9988
10.197063666666667 0.36666666666666664 -1.9 5000005.91191
10.222891 -0.06666666666666667 -1.9 5000006.68673
10.197063666666667 -0.16666666666666666 -1.9 5000005.91191
10.197063666666667 -0.2 -1.9 5000005.91191
10.197063666666667 -0.23333333333333334 -1.9 5000005.91191
10.174337666666666 -0.5 -1.9 5000005.23013
10.197063666666667 -3.1 -1.9 5000005.91191
10.197063666666667 -3.1333333333333333 -1.9 5000005.91191
10.209183 -13.6 -1.9 5000006.27549
10.206015666666667 -13.633333333333333 -1.9 5000006.18047
10.206015666666667 -13.666666666666666 -1.9 5000006.18047
10.206015666666667 -13.7 -1.9 5000006.18047
10.202942666666667 -13.733333333333333 -1.9 5000006.08828
10.19996 -13.766666666666667 -1.9 5000005.9988
10.19996 -13.8 -1.9 5000005.9988
10.19996 -13.833333333333334 -1.9 5000005.9988
10.197063666666667 -13.866666666666667 -1.9 5000005.91191
10.19996 -13.9 -1.9 5000005.9988
10.19996 -13.933333333333334 -1.9 5000005.9988
10.197063666666667 -13.966666666666667 -1.9 5000005.91191
10.194250333333333 -14.0 -1.9 5000005.82751
10.222891 0.0 -1.9333333333333333 5000006.68673
10.197063666666667 -0.2 -1.9333333333333333 5000005.91191
10.186271666666666 -0.3333333333333333 -1.9333333333333333 5000005.58815
10.186271666666666 -0.36666666666666664 -1.9333333333333333 5000005.58815
10.212449666666666 -2.1666666666666665 -1.9333333333333333 5000006.37349
10.212449666666666 -2.2333333333333334 -1.9333333333333333 5000006.37349
10.197063666666667 -2.3666666666666667 -1.9333333333333333 5000005.91191
10.197063666666667 -3.033333333333333 -1.9333333333333333 5000005.91191
10.197063666666667 -3.1333333333333333 -1.9333333333333333 5000005.91191
10.202942666666667 0.1 -1.9666666666666666 5000006.08828
10.222891 0.0 -1.9666666666666666 5000006.68673
10.197063666666667 -0.2 -1.9666666666666666 5000005.91191
10.197063666666667 -0.23333333333333334 -1.9666666666666666 5000005.91191
10.186271666666666 -0.3333333333333333 -1.9666666666666666 5000005.58815
10.194250333333333 -1.3 -1.9666666666666666 5000005.82751
10.194250333333333 -1.3333333333333333 -1.9666666666666666 5000005.82751
10.197063666666667 -2.7 -1.9666666666666666 5000005.91191
10.197063666666667 -2.7333333333333334 -1.9666666666666666 5000005.91191
10.197063666666667 -3.0 -1.9666666666666666 5000005.91191
10.197063666666667 -3.033333333333333 -1.9666666666666666 5000005.91191
10.197063666666667 0.9666666666666667 -2.0 5000005.91191
10.222891 0.0 -2.0 5000006.68673
10.197063666666667 -0.2 -2.0 5000005.91191
10.197063666666667 -0.23333333333333334 -2.0 5000005.91191
10.197063666666667 -0.7333333333333333 -2.0 5000005.91191
10.197063666666667 -0.7666666666666667 -2.0 5000005.91191
10.194250333333333 -1.3333333333333333 -2.0 5000005.82751
10.212449666666666 -1.7333333333333334 -2.0 5000006.37349
10.209183 -2.9 -2.0 5000006.27549
10.197063666666667 -3.0 -2.0 5000005.91191
10.197063666666667 -3.033333333333333 -2.0 5000005.91191
10.209183 0.5333333333333333 -2.033333333333333 5000006.27549
10.222891 0.06666666666666667 -2.033333333333333 5000006.68673
10.197063666666667 -0.7666666666666667 -2.033333333333333 5000005.91191
10.194250333333333 -1.2333333333333334 -2.033333333333333 5000005.82751
10.194250333333333 -3.033333333333333 -2.033333333333333 5000005.82751
10.197063666666667 1.5666666666666667 -2.066666666666667 5000005.91191
10.202942666666667 1.2666666666666666 -2.066666666666667 5000006.08828
10.202942666666667 1.2333333333333334 -2.066666666666667 5000006.08828
10.209183 0.5666666666666667 -2.066666666666667 5000006.27549
10.197063666666667 0.43333333333333335 -2.066666666666667 5000005.91191
10.197063666666667 0.4 -2.066666666666667 5000005.91191
10.194250333333333 -1.2333333333333334 -2.066666666666667 5000005.82751
10.202942666666667 -1.6666666666666667 -2.066666666666667 5000006.08828
10.212449666666666 -1.7 -2.066666666666667 5000006.37349
10.194250333333333 -1.8333333333333333 -2.066666666666667 5000005.82751
10.194250333333333 -2.2333333333333334 -2.066666666666667 5000005.82751
10.194250333333333 -2.6333333333333333 -2.066666666666667 5000005.82751
10.194250333333333 -2.6666666666666665 -2.066666666666667 5000005.82751
10.19996 -3.8 -2.066666666666667 5000005.9988
10.19996 -1.5666666666666667 -2.1 5000005.9988
10.202942666666667 -1.6 -2.1 5000006.08828
10.202942666666667 -1.6333333333333333 -2.1 5000006.08828
10.194250333333333 -1.8333333333333333 -2.1 5000005.82751
10.194250333333333 -1.8666666666666667 -2.1 5000005.82751
10.191516 -1.0 -2.1333333333333333 5000005.74548
10.194250333333333 -1.0333333333333334 -2.1333333333333333 5000005.82751
10.134653 1.9666666666666666 -2.1666666666666665 5000004.03959
10.134653 1.9666666666666666 -2.2 5000004.03959
10.194250333333333 -0.9 -2.2 5000005.82751
10.194250333333333 -0.9333333333333333 -2.2 5000005.82751
10.134653 1.9666666666666666 -2.2333333333333334 5000004.03959
10.134653 1.9666666666666666 -2.2666666666666666 5000004.03959
10.183756 -3.5 -2.433333333333333 5000005.51268
10.178923 0.5666666666666667 -2.533333333333333 5000005.36769
10.188857333333333 0.8 -2.566666666666667 5000005.66572
10.188857333333333 0.7666666666666667 -2.566666666666667 5000005.66572
10.181307333333333 0.6666666666666666 -2.566666666666667 5000005.43922
10.188857333333333 0.8333333333333334 -2.6 5000005.66572
10.188857333333333 0.8 -2.6 5000005.66572
10.174337666666666 -2.533333333333333 -2.6333333333333333 5000005.23013
10.174337666666666 -2.566666666666667 -2.6333333333333333 5000005.23013
10.174337666666666 -2.6 -2.6333333333333333 5000005.23013
10.176600333333333 -2.5 -2.6666666666666665 5000005.29801
10.174337666666666 -2.533333333333333 -2.6666666666666665 5000005.23013
10.176600333333333 -2.5 -2.7 5000005.29801
10.174337666666666 -2.533333333333333 -2.7 5000005.23013
10.134653 2.533333333333333 -2.7333333333333334 5000004.03959
10.135999 2.533333333333333 -2.8333333333333335 5000004.07997
10.134653 2.533333333333333 -2.9 5000004.03959
