VERSION .7
FIELDS x y z rgb
SIZE 4 4 4 4
TYPE F F F F
COUNT 1 1 1 1
WIDTH 930
HEIGHT 1
VIEWPOINT 0 0 0 1 0 0 0
POINTS 930
DATA ascii
7.298376 2.84 -3.84 5000005.16396
7.114037999999999 2.7 -3.84 5000004.85673
7.079772 2.68 -3.84 5000004.79962
7.079772 2.66 -3.84 5000004.79962
7.046298 2.64 -3.84 5000004.74383
7.013598 2.58 -3.84 5000004.68933
7.185072 2.24 -3.84 5000004.97512
7.185072 2.22 -3.84 5000004.97512
7.378806 -4.86 -3.84 5000005.29801
7.378806 -4.88 -3.84 5000005.29801
7.378806 -4.9 -3.84 5000005.29801
7.298376 -4.92 -3.84 5000005.16396
7.338077999999999 -5.02 -3.84 5000005.23013
7.298376 -5.04 -3.84 5000005.16396
7.298376 -5.06 -3.84 5000005.16396
7.259664000000001 -5.08 -3.84 5000005.09944
7.221906000000001 -5.1 -3.84 5000005.03651
7.185072 -5.12 -3.84 5000004.97512
7.149126 -5.14 -3.84 5000004.91521
7.149126 -5.16 -3.84 5000004.91521
7.114037999999999 -5.18 -3.84 5000004.85673
7.079772 -5.2 -3.84 5000004.79962
7.298376 5.28 -3.86 5000005.16396
7.185072 5.16 -3.86 5000004.97512
6.623754 4.66 -3.86 5000004.03959
7.298376 -4.92 -3.86 5000005.16396
7.298376 -4.94 -3.86 5000005.16396
7.259664000000001 -4.96 -3.86 5000005.09944
7.221906000000001 -4.98 -3.86 5000005.03651
7.338077999999999 -5.02 -3.86 5000005.23013
7.185072 -5.12 -3.86 5000004.97512
7.149126 -5.14 -3.86 5000004.91521
7.149126 -5.16 -3.86 5000004.91521
7.114037999999999 -5.18 -3.86 5000004.85673
7.079772 -5.2 -3.86 5000004.79962
7.079772 -5.22 -3.86 5000004.79962
7.298376 5.3 -3.88 5000005.16396
7.298376 5.28 -3.88 5000005.16396
7.298376 5.26 -3.88 5000005.16396
7.221906000000001 5.24 -3.88 5000005.03651
7.013598 5.16 -3.88 5000004.68933
7.185072 5.14 -3.88 5000004.97512
7.013598 4.9 -3.88 5000004.68933
7.149126 3.68 -3.88 5000004.91521
7.114037999999999 3.6 -3.88 5000004.85673
7.114037999999999 3.56 -3.88 5000004.85673
6.981642 2.98 -3.88 5000004.63607
7.259664000000001 -4.94 -3.88 5000005.09944
7.298376 5.3 -3.9 5000005.16396
6.981642 5.2 -3.9 5000004.63607
6.981642 5.18 -3.9 5000004.63607
7.013598 5.08 -3.9 5000004.68933
7.298376 4.78 -3.9 5000005.16396
7.259664000000001 4.5 -3.9 5000005.09944
7.079772 4.44 -3.9 5000004.79962
7.149126 3.66 -3.9 5000004.91521
7.079772 3.6 -3.9 5000004.79962
7.079772 3.56 -3.9 5000004.79962
7.013598 3.04 -3.9 5000004.68933
6.981642 2.96 -3.9 5000004.63607
7.079772 5.42 -3.92 5000004.79962
7.259664000000001 5.26 -3.92 5000005.09944
6.981642 5.2 -3.92 5000004.63607
6.981642 5.18 -3.92 5000004.63607
7.013598 3.32 -3.92 5000004.68933
7.013598 3.3 -3.92 5000004.68933
7.185072 3.12 -3.92 5000004.97512
6.981642 3.06 -3.92 5000004.63607
6.981642 2.98 -3.92 5000004.63607
7.079772 5.42 -3.94 5000004.79962
6.9504 5.2 -3.94 5000004.584
6.9504 5.18 -3.94 5000004.584
7.013598 4.84 -3.94 5000004.68933
7.046298 4.6 -3.94 5000004.74383
7.046298 4.56 -3.94 5000004.74383
6.981642 4.36 -3.94 5000004.63607
6.981642 4.34 -3.94 5000004.63607
7.013598 4.04 -3.94 5000004.68933
7.013598 3.6 -3.94 5000004.68933
7.013598 3.3 -3.94 5000004.68933
7.013598 3.28 -3.94 5000004.68933
6.981642 3.26 -3.94 5000004.63607
7.259664000000001 3.18 -3.94 5000005.09944
7.185072 3.16 -3.94 5000004.97512
7.185072 3.12 -3.94 5000004.97512
6.981642 3.06 -3.94 5000004.63607
6.981642 3.04 -3.94 5000004.63607
7.079772 5.4 -3.96 5000004.79962
6.9504 5.22 -3.96 5000004.584
6.9504 5.2 -3.96 5000004.584
6.9504 5.18 -3.96 5000004.584
7.013598 4.84 -3.96 5000004.68933
7.013598 4.82 -3.96 5000004.68933
7.046298 4.56 -3.96 5000004.74383
6.981642 4.4 -3.96 5000004.63607
6.981642 4.36 -3.96 5000004.63607
7.079772 3.62 -3.96 5000004.79962
7.079772 3.6 -3.96 5000004.79962
6.981642 3.26 -3.96 5000004.63607
7.185072 3.14 -3.96 5000004.97512
6.981642 3.06 -3.96 5000004.63607
6.981642 3.04 -3.96 5000004.63607
6.981642 2.9 -3.96 5000004.63607
6.9504 5.2 -3.98 5000004.584
7.013598 4.82 -3.98 5000004.68933
6.9504 4.76 -3.98 5000004.584
6.981642 3.92 -3.98 5000004.63607
6.9504 3.82 -3.98 5000004.584
6.981642 3.04 -3.98 5000004.63607
7.298376 2.82 -3.98 5000005.16396
7.079772 4.42 -4.0 5000004.79962
7.013598 4.1 -4.0 5000004.68933
7.259664000000001 4.08 -4.0 5000005.09944
7.259664000000001 4.06 -4.0 5000005.09944
7.259664000000001 4.02 -4.0 5000005.09944
6.9504 3.96 -4.0 5000004.584
6.9504 3.94 -4.0 5000004.584
7.114037999999999 3.66 -4.0 5000004.85673
7.114037999999999 3.64 -4.0 5000004.85673
6.981642 2.86 -4.0 5000004.63607
7.149126 2.76 -4.0 5000004.91521
7.114037999999999 2.7 -4.0 5000004.85673
7.114037999999999 2.66 -4.0 5000004.85673
7.079772 2.5 -4.0 5000004.79962
7.079772 2.48 -4.0 5000004.79962
7.079772 2.46 -4.0 5000004.79962
7.013598 5.82 -4.02 5000004.68933
7.221906000000001 4.24 -4.02 5000005.03651
7.013598 4.18 -4.02 5000004.68933
6.981642 4.16 -4.02 5000004.63607
6.981642 4.14 -4.02 5000004.63607
6.9504 3.96 -4.02 5000004.584
6.9504 3.94 -4.02 5000004.584
6.9504 3.72 -4.02 5000004.584
7.114037999999999 3.64 -4.02 5000004.85673
6.981642 3.58 -4.02 5000004.63607
7.114037999999999 3.42 -4.02 5000004.85673
7.114037999999999 3.4 -4.02 5000004.85673
6.981642 3.36 -4.02 5000004.63607
6.9504 3.34 -4.02 5000004.584
6.9504 3.32 -4.02 5000004.584
6.776765999999999 3.26 -4.02 5000004.29461
7.259664000000001 -3.8 -4.02 5000005.09944
7.221906000000001 4.28 -4.04 5000005.03651
7.221906000000001 4.26 -4.04 5000005.03651
7.013598 4.18 -4.04 5000004.68933
6.981642 4.16 -4.04 5000004.63607
6.981642 4.14 -4.04 5000004.63607
6.9504 4.12 -4.04 5000004.584
6.9504 4.1 -4.04 5000004.584
6.9504 3.96 -4.04 5000004.584
6.9504 3.94 -4.04 5000004.584
6.9504 3.74 -4.04 5000004.584
6.9504 3.72 -4.04 5000004.584
6.9504 3.7 -4.04 5000004.584
6.9504 3.68 -4.04 5000004.584
6.981642 3.36 -4.04 5000004.63607
6.9504 3.34 -4.04 5000004.584
6.623754 3.16 -4.04 5000004.03959
7.185072 -0.36 -4.04 5000004.97512
7.185072 -0.38 -4.04 5000004.97512
7.185072 -0.7 -4.04 5000004.97512
7.114037999999999 -1.44 -4.04 5000004.85673
7.114037999999999 -1.46 -4.04 5000004.85673
7.114037999999999 -1.48 -4.04 5000004.85673
7.079772 -1.5 -4.04 5000004.79962
7.046298 -2.84 -4.04 5000004.74383
7.046298 -3.88 -4.04 5000004.74383
7.046298 -3.9 -4.04 5000004.74383
7.013598 -3.92 -4.04 5000004.68933
7.013598 -3.94 -4.04 5000004.68933
7.013598 -3.96 -4.04 5000004.68933
6.981642 -6.44 -4.04 5000004.63607
6.981642 -6.46 -4.04 5000004.63607
6.919854 4.62 -4.06 5000004.53309
7.046298 4.54 -4.06 5000004.74383
6.981642 4.16 -4.06 5000004.63607
6.9504 4.14 -4.06 5000004.584
6.9504 4.12 -4.06 5000004.584
7.114037999999999 3.78 -4.06 5000004.85673
6.9504 3.72 -4.06 5000004.584
6.9504 3.7 -4.06 5000004.584
6.9504 2.46 -4.06 5000004.584
7.114037999999999 1.62 -4.06 5000004.85673
7.185072 -0.38 -4.06 5000004.97512
7.079772 4.7 -4.08 5000004.79962
6.919854 4.64 -4.08 5000004.53309
6.919854 4.62 -4.08 5000004.53309
7.079772 4.36 -4.08 5000004.79962
6.9504 2.48 -4.08 5000004.584
6.9504 2.46 -4.08 5000004.584
6.919854 4.64 -4.1 5000004.53309
6.919854 4.62 -4.1 5000004.53309
6.919854 4.6 -4.1 5000004.53309
7.079772 4.38 -4.12 5000004.79962
6.776765999999999 2.74 -4.34 5000004.29461
6.776765999999999 2.72 -4.34 5000004.29461
6.776765999999999 2.74 -4.36 5000004.29461
6.623754 3.52 -4.54 5000004.03959
6.623754 3.52 -4.56 5000004.03959
6.623754 3.5 -4.56 5000004.03959
6.623754 3.56 -4.58 5000004.03959
6.623754 3.54 -4.58 5000004.03959
6.623754 3.52 -4.58 5000004.03959
6.623754 3.58 -4.6 5000004.03959
6.623754 3.56 -4.6 5000004.03959
6.623754 3.6 -4.62 5000004.03959
6.623754 3.58 -4.62 5000004.03959
6.623754 3.56 -4.62 5000004.03959
6.623754 3.58 -4.64 5000004.03959
6.647982 -2.54 -4.64 5000004.07997
6.647982 -2.56 -4.64 5000004.07997
.48 -4.0 5000004.79962
5.919848000000001 2.46 -4.0 5000004.79962
5.875732 5.82 -4.02 5000004.68933
6.014604 4.24 -4.02 5000005.03651
5.875732 4.18 -4.02 5000004.68933
5.854428 4.16 -4.02 5000004.63607
5.854428 4.14 -4.02 5000004.63607
5.8336 3.96 -4.02 5000004.584
5.8336 3.94 -4.02 5000004.584
5.8336 3.72 -4.02 5000004.584
5.942691999999999 3.64 -4.02 5000004.85673
5.854428 3.58 -4.02 5000004.63607
5.942691999999999 3.42 -4.02 5000004.85673
5.942691999999999 3.4 -4.02 5000004.85673
5.854428 3.36 -4.02 5000004.63607
5.8336 3.34 -4.02 5000004.584
5.8336 3.32 -4.02 5000004.584
5.7178439999999995 3.26 -4.02 5000004.29461
6.039776 -3.8 -4.02 5000005.09944
6.014604 4.28 -4.04 5000005.03651
6.014604 4.26 -4.04 5000005.03651
5.875732 4.18 -4.04 5000004.68933
5.854428 4.16 -4.04 5000004.63607
5.854428 4.14 -4.04 5000004.63607
5.8336 4.12 -4.04 5000004.584
5.8336 4.1 -4.04 5000004.584
5.8336 3.96 -4.04 5000004.584
5.8336 3.94 -4.04 5000004.584
5.8336 3.74 -4.04 5000004.584
5.8336 3.72 -4.04 5000004.584
5.8336 3.7 -4.04 5000004.584
5.8336 3.68 -4.04 5000004.584
5.854428 3.36 -4.04 5000004.63607
5.8336 3.34 -4.04 5000004.584
5.615836000000001 3.16 -4.04 5000004.03959
5.990048 -0.36 -4.04 5000004.97512
5.990048 -0.38 -4.04 5000004.97512
5.990048 -0.7 -4.04 5000004.97512
5.942691999999999 -1.44 -4.04 5000004.85673
5.942691999999999 -1.46 -4.04 5000004.85673
5.942691999999999 -1.48 -4.04 5000004.85673
5.919848000000001 -1.5 -4.04 5000004.79962
5.897532 -2.84 -4.04 5000004.74383
5.897532 -3.88 -4.04 5000004.74383
5.897532 -3.9 -4.04 5000004.74383
5.875732 -3.92 -4.04 5000004.68933
5.875732 -3.94 -4.04 5000004.68933
5.875732 -3.96 -4.04 5000004.68933
5.854428 -6.44 -4.04 5000004.63607
5.854428 -6.46 -4.04 5000004.63607
5.813236 4.62 -4.06 5000004.53309
5.897532 4.54 -4.06 5000004.74383
5.854428 4.16 -4.06 5000004.63607
5.8336 4.14 -4.06 5000004.584
5.8336 4.12 -4.06 5000004.584
5.942691999999999 3.78 -4.06 5000004.85673
5.8336 3.72 -4.06 5000004.584
5.8336 3.7 -4.06 5000004.584
5.8336 2.46 -4.06 5000004.584
5.942691999999999 1.62 -4.06 5000004.85673
5.990048 -0.38 -4.06 5000004.97512
5.919848000000001 4.7 -4.08 5000004.79962
5.813236 4.64 -4.08 5000004.53309
5.813236 4.62 -4.08 5000004.53309
5.919848000000001 4.36 -4.08 5000004.79962
5.8336 2.48 -4.08 5000004.584
5.8336 2.46 -4.08 5000004.584
5.813236 4.64 -4.1 5000004.53309
5.813236 4.62 -4.1 5000004.53309
5.813236 4.6 -4.1 5000004.53309
5.919848000000001 4.38 -4.12 5000004.79962
5.7178439999999995 2.74 -4.34 5000004.29461
5.7178439999999995 2.72 -4.34 5000004.29461
5.7178439999999995 2.74 -4.36 5000004.29461
5.615836000000001 3.52 -4.54 5000004.03959
5.615836000000001 3.52 -4.56 5000004.03959
5.615836000000001 3.5 -4.56 5000004.03959
5.615836000000001 3.56 -4.58 5000004.03959
5.615836000000001 3.54 -4.58 5000004.03959
5.615836000000001 3.52 -4.58 5000004.03959
5.615836000000001 3.58 -4.6 5000004.03959
5.615836000000001 3.56 -4.6 5000004.03959
5.615836000000001 3.6 -4.62 5000004.03959
5.615836000000001 3.58 -4.62 5000004.03959
5.615836000000001 3.56 -4.62 5000004.03959
5.615836000000001 3.58 -4.64 5000004.03959
5.631988 -2.54 -4.64 5000004.07997
5.631988 -2.56 -4.64 5000004.07997
4.584
1.8336 -0.3 -4.06 5000004.584
1.8336 -1.54 -4.06 5000004.584
1.942692 -2.38 -4.06 5000004.85673
1.990048 -4.38 -4.06 5000004.97512
1.919848 0.7 -4.08 5000004.79962
1.8132359999999998 0.64 -4.08 5000004.53309
1.8132359999999998 0.62 -4.08 5000004.53309
1.919848 0.36 -4.08 5000004.79962
1.8336 -1.52 -4.08 5000004.584
1.8336 -1.54 -4.08 5000004.584
1.8132359999999998 0.64 -4.1 5000004.53309
1.8132359999999998 0.62 -4.1 5000004.53309
1.8132359999999998 0.6 -4.1 5000004.53309
1.919848 0.38 -4.12 5000004.79962
1.7178439999999997 -1.26 -4.34 5000004.29461
1.7178439999999997 -1.28 -4.34 5000004.29461
1.7178439999999997 -1.26 -4.36 5000004.29461
1.6158359999999998 -0.48 -4.54 5000004.03959
1.6158359999999998 -0.48 -4.56 5000004.03959
1.6158359999999998 -0.5 -4.56 5000004.03959
1.6158359999999998 -0.44 -4.58 5000004.03959
1.6158359999999998 -0.46 -4.58 5000004.03959
1.6158359999999998 -0.48 -4.58 5000004.03959
1.6158359999999998 -0.42 -4.6 5000004.03959
1.6158359999999998 -0.44 -4.6 5000004.03959
1.6158359999999998 -0.4 -4.62 5000004.03959
1.6158359999999998 -0.42 -4.62 5000004.03959
1.6158359999999998 -0.44 -4.62 5000004.03959
1.6158359999999998 -0.42 -4.64 5000004.03959
1.631988 -6.54 -4.64 5000004.07997
1.631988 -6.56 -4.64 5000004.07997
 -1.8333333333333333 5000005.9988
10.183756 -1.2 -1.8333333333333333 5000005.51268
10.183756 -1.2333333333333334 -1.8333333333333333 5000005.51268
10.191516 -2.4 -1.8333333333333333 5000005.74548
10.206015666666667 -2.6333333333333333 -1.8333333333333333 5000006.18047
10.206015666666667 -2.6666666666666665 -1.8333333333333333 5000006.18047
10.191516 -2.7333333333333334 -1.8333333333333333 5000005.74548
10.191516 -2.7666666666666666 -1.8333333333333333 5000005.74548
10.19996 -3.0 -1.8333333333333333 5000005.9988
10.19996 -3.033333333333333 -1.8333333333333333 5000005.9988
10.19996 -3.066666666666667 -1.8333333333333333 5000005.9988
10.191516 2.3666666666666667 -1.8666666666666667 5000005.74548
10.186271666666666 1.5333333333333334 -1.8666666666666667 5000005.58815
10.188857333333333 1.1333333333333333 -1.8666666666666667 5000005.66572
10.19996 -1.1 -1.8666666666666667 5000005.9988
10.183756 -1.2 -1.8666666666666667 5000005.51268
10.183756 -1.2333333333333334 -1.8666666666666667 5000005.51268
10.191516 -2.433333333333333 -1.8666666666666667 5000005.74548
10.206015666666667 -2.566666666666667 -1.8666666666666667 5000006.18047
10.19996 -3.033333333333333 -1.8666666666666667 5000005.9988
10.188857333333333 1.5333333333333334 -1.9 5000005.66572
10.188857333333333 1.1666666666666667 -1.9 5000005.66572
10.188857333333333 1.1333333333333333 -1.9 5000005.66572
10.183756 1.1 -1.9 5000005.51268
10.181307333333333 -1.2 -1.9 5000005.43922
10.181307333333333 -1.2333333333333334 -1.9 5000005.43922
10.181307333333333 -1.2666666666666666 -1.9 5000005.43922
10.19996 -1.8 -1.9 5000005.9988
10.19996 -1.9 -1.9 5000005.9988
10.186271666666666 -1.9333333333333333 -1.9 5000005.58815
10.191516 2.3333333333333335 -1.9333333333333333 5000005.74548
10.197063666666667 1.2666666666666666 -1.9333333333333333 5000005.91191
10.181307333333333 1.0666666666666667 -1.9333333333333333 5000005.43922
10.181307333333333 1.0333333333333334 -1.9333333333333333 5000005.43922
10.181307333333333 -1.2333333333333334 -1.9333333333333333 5000005.43922
10.181307333333333 -1.2666666666666666 -1.9333333333333333 5000005.43922
10.197063666666667 -1.8333333333333333 -1.9333333333333333 5000005.91191
10.183756 -2.033333333333333 -1.9333333333333333 5000005.51268
10.181307333333333 1.7666666666666666 -1.9666666666666666 5000005.43922
10.188857333333333 1.6 -1.9666666666666666 5000005.66572
10.186271666666666 1.4666666666666666 -1.9666666666666666 5000005.58815
10.181307333333333 1.0666666666666667 -1.9666666666666666 5000005.43922
10.181307333333333 1.0333333333333334 -1.9666666666666666 5000005.43922
10.186271666666666 -0.03333333333333333 -1.9666666666666666 5000005.58815
10.186271666666666 -0.1 -1.9666666666666666 5000005.58815
10.183756 -1.1333333333333333 -1.9666666666666666 5000005.51268
10.181307333333333 -1.2666666666666666 -1.9666666666666666 5000005.43922
10.247188333333334 -1.5 -1.9666666666666666 5000007.41565
10.247188333333334 -1.5333333333333334 -1.9666666666666666 5000007.41565
10.219298333333333 -1.7 -1.9666666666666666 5000006.57895
10.212449666666666 -1.7333333333333334 -1.9666666666666666 5000006.37349
10.183756 -1.9666666666666666 -1.9666666666666666 5000005.51268
10.181307333333333 -2.0 -1.9666666666666666 5000005.43922
10.186271666666666 -2.2333333333333334 -1.9666666666666666 5000005.58815
10.186271666666666 -2.2666666666666666 -1.9666666666666666 5000005.58815
10.202942666666667 -2.7333333333333334 -1.9666666666666666 5000006.08828
10.202942666666667 -2.7666666666666666 -1.9666666666666666 5000006.08828
10.181307333333333 1.8666666666666667 -2.0 5000005.43922
10.188857333333333 1.4666666666666666 -2.0 5000005.66572
10.186271666666666 1.4333333333333333 -2.0 5000005.58815
10.186271666666666 1.4 -2.0 5000005.58815
10.186271666666666 1.3666666666666667 -2.0 5000005.58815
10.181307333333333 1.3333333333333333 -2.0 5000005.43922
10.191516 1.2333333333333334 -2.0 5000005.74548
10.191516 1.2 -2.0 5000005.74548
10.178923 1.0666666666666667 -2.0 5000005.36769
10.178923 1.0333333333333334 -2.0 5000005.36769
10.163840333333333 0.9 -2.0 5000004.91521
10.191516 -1.1 -2.0 5000005.74548
10.181307333333333 -1.9666666666666666 -2.0 5000005.43922
10.181307333333333 -2.0 -2.0 5000005.43922
10.181307333333333 -2.033333333333333 -2.0 5000005.43922
10.181307333333333 2.8666666666666667 -2.033333333333333 5000005.43922
10.181307333333333 1.8333333333333333 -2.033333333333333 5000005.43922
10.181307333333333 1.8 -2.033333333333333 5000005.43922
10.181307333333333 1.3333333333333333 -2.033333333333333 5000005.43922
10.186271666666666 1.3 -2.033333333333333 5000005.58815
10.191516 1.2 -2.033333333333333 5000005.74548
10.188857333333333 1.1666666666666667 -2.033333333333333 5000005.66572
10.178923 1.0666666666666667 -2.033333333333333 5000005.36769
10.178923 -0.3333333333333333 -2.033333333333333 5000005.36769
10.186271666666666 -0.6666666666666666 -2.033333333333333 5000005.58815
10.183756 -0.7 -2.033333333333333 5000005.51268
10.183756 -0.7666666666666667 -2.033333333333333 5000005.51268
10.183756 -1.0333333333333334 -2.033333333333333 5000005.51268
10.194250333333333 -1.8666666666666667 -2.033333333333333 5000005.82751
10.191516 -1.9 -2.033333333333333 5000005.74548
10.181307333333333 -2.0 -2.033333333333333 5000005.43922
10.181307333333333 -2.033333333333333 -2.033333333333333 5000005.43922
10.188857333333333 1.2666666666666666 -2.066666666666667 5000005.66572
10.178923 1.1 -2.066666666666667 5000005.36769
10.176600333333333 1.0666666666666667 -2.066666666666667 5000005.29801
10.183756 0.7666666666666667 -2.066666666666667 5000005.51268
10.176600333333333 0.4666666666666667 -2.066666666666667 5000005.29801
10.183756 -0.7 -2.066666666666667 5000005.51268
10.183756 -0.7666666666666667 -2.066666666666667 5000005.51268
10.186271666666666 -1.3333333333333333 -2.066666666666667 5000005.58815
10.186271666666666 -1.4 -2.066666666666667 5000005.58815
10.194250333333333 -1.9 -2.066666666666667 5000005.82751
10.181307333333333 -2.0 -2.066666666666667 5000005.43922
10.209183 -15.866666666666667 -2.066666666666667 5000006.27549
10.19996 -15.9 -2.066666666666667 5000005.9988
10.181307333333333 1.8 -2.1 5000005.43922
10.188857333333333 1.2 -2.1 5000005.66572
10.178923 1.1 -2.1 5000005.36769
10.176600333333333 1.0666666666666667 -2.1 5000005.29801
10.183756 0.7333333333333333 -2.1 5000005.51268
10.176600333333333 0.4666666666666667 -2.1 5000005.29801
10.176600333333333 0.43333333333333335 -2.1 5000005.29801
10.186271666666666 -0.6 -2.1 5000005.58815
10.172132 -0.9666666666666667 -2.1 5000005.16396
10.181307333333333 -2.0 -2.1 5000005.43922
10.181307333333333 -2.6666666666666665 -2.1 5000005.43922
10.183756 -2.8333333333333335 -2.1 5000005.51268
10.19996 -15.9 -2.1 5000005.9988
10.19996 -15.933333333333334 -2.1 5000005.9988
10.197063666666667 -15.966666666666667 -2.1 5000005.91191
10.191516 -16.0 -2.1 5000005.74548
10.188857333333333 -16.033333333333335 -2.1 5000005.66572
10.188857333333333 -16.066666666666666 -2.1 5000005.66572
10.188857333333333 -16.1 -2.1 5000005.66572
10.188857333333333 1.2 -2.1333333333333333 5000005.66572
10.176600333333333 1.1 -2.1333333333333333 5000005.29801
10.176600333333333 1.0666666666666667 -2.1333333333333333 5000005.29801
10.191516 -0.1 -2.1333333333333333 5000005.74548
10.183756 -0.13333333333333333 -2.1333333333333333 5000005.51268
10.186271666666666 -0.8333333333333334 -2.1333333333333333 5000005.58815
10.172132 -0.9666666666666667 -2.1333333333333333 5000005.16396
10.172132 -1.0 -2.1333333333333333 5000005.16396
10.194250333333333 -1.7 -2.1333333333333333 5000005.82751
10.181307333333333 -2.566666666666667 -2.1333333333333333 5000005.43922
10.181307333333333 -2.6 -2.1333333333333333 5000005.43922
10.169981333333334 -0.23333333333333334 -2.1666666666666665 5000005.09944
10.186271666666666 -0.8 -2.1666666666666665 5000005.58815
10.186271666666666 -0.8333333333333334 -2.1666666666666665 5000005.58815
10.172132 -0.9666666666666667 -2.1666666666666665 5000005.16396
10.172132 -1.0 -2.1666666666666665 5000005.16396
10.174337666666666 -1.5 -2.1666666666666665 5000005.23013
10.202942666666667 -1.6 -2.1666666666666665 5000006.08828
10.194250333333333 -1.7 -2.1666666666666665 5000005.82751
10.181307333333333 -1.8666666666666667 -2.1666666666666665 5000005.43922
10.181307333333333 -1.9 -2.1666666666666665 5000005.43922
10.181307333333333 -2.6 -2.1666666666666665 5000005.43922
10.181307333333333 -2.6333333333333333 -2.1666666666666665 5000005.43922
10.181307333333333 -2.6666666666666665 -2.1666666666666665 5000005.43922
10.183756 -2.966666666666667 -2.1666666666666665 5000005.51268
10.183756 -3.0 -2.1666666666666665 5000005.51268
10.183756 1.9666666666666666 -2.2 5000005.51268
10.188857333333333 -0.03333333333333333 -2.2 5000005.66572
10.188857333333333 -0.06666666666666667 -2.2 5000005.66572
10.169981333333334 -0.23333333333333334 -2.2 5000005.09944
10.186271666666666 -0.3333333333333333 -2.2 5000005.58815
10.188857333333333 -0.36666666666666664 -2.2 5000005.66572
10.188857333333333 -0.4 -2.2 5000005.66572
10.176600333333333 -0.5 -2.2 5000005.29801
10.174337666666666 -0.5333333333333333 -2.2 5000005.23013
10.174337666666666 -0.5666666666666667 -2.2 5000005.23013
10.172132 -0.6666666666666666 -2.2 5000005.16396
10.174337666666666 -1.5 -2.2 5000005.23013
10.176600333333333 -1.8333333333333333 -2.2 5000005.29801
10.181307333333333 -1.9 -2.2 5000005.43922
10.186271666666666 -1.9333333333333333 -2.2 5000005.58815
10.183756 1.9666666666666666 -2.2333333333333334 5000005.51268
10.183756 1.9333333333333333 -2.2333333333333334 5000005.51268
10.191516 0.0 -2.2333333333333334 5000005.74548
10.191516 -0.03333333333333333 -2.2333333333333334 5000005.74548
10.172132 -0.2 -2.2333333333333334 5000005.16396
10.172132 -0.23333333333333334 -2.2333333333333334 5000005.16396
10.172132 -0.26666666666666666 -2.2333333333333334 5000005.16396
10.174337666666666 -0.5666666666666667 -2.2333333333333334 5000005.23013
10.174337666666666 -0.6 -2.2333333333333334 5000005.23013
10.174337666666666 -0.6333333333333333 -2.2333333333333334 5000005.23013
10.172132 -0.6666666666666666 -2.2333333333333334 5000005.16396
10.174337666666666 -1.5 -2.2333333333333334 5000005.23013
10.181307333333333 -1.9 -2.2333333333333334 5000005.43922
10.176600333333333 -2.033333333333333 -2.2333333333333334 5000005.29801
10.176600333333333 -2.066666666666667 -2.2333333333333334 5000005.29801
10.188857333333333 2.1 -2.2666666666666666 5000005.66572
10.183756 1.9333333333333333 -2.2666666666666666 5000005.51268
10.183756 1.7333333333333334 -2.2666666666666666 5000005.51268
10.188857333333333 1.7 -2.2666666666666666 5000005.66572
10.172132 1.6 -2.2666666666666666 5000005.16396
10.169981333333334 0.6333333333333333 -2.2666666666666666 5000005.09944
10.169981333333334 -0.23333333333333334 -2.2666666666666666 5000005.09944
10.169981333333334 -0.26666666666666666 -2.2666666666666666 5000005.09944
10.174337666666666 -0.6333333333333333 -2.2666666666666666 5000005.23013
10.181307333333333 -1.8333333333333333 -2.2666666666666666 5000005.43922
10.186271666666666 -1.9666666666666666 -2.2666666666666666 5000005.58815
10.186271666666666 -2.0 -2.2666666666666666 5000005.58815
10.176600333333333 -2.066666666666667 -2.2666666666666666 5000005.29801
10.174337666666666 -2.1 -2.2666666666666666 5000005.23013
10.174337666666666 -2.1333333333333333 -2.2666666666666666 5000005.23013
10.188857333333333 1.8 -2.3 5000005.66572
10.172132 1.6 -2.3 5000005.16396
10.174337666666666 0.9333333333333333 -2.3 5000005.23013
10.167883666666667 0.8333333333333334 -2.3 5000005.03651
10.176600333333333 -0.16666666666666666 -2.3 5000005.29801
10.181307333333333 -0.8 -2.3 5000005.43922
10.181307333333333 -0.8333333333333334 -2.3 5000005.43922
10.183756 -0.9666666666666667 -2.3 5000005.51268
10.181307333333333 -1.1333333333333333 -2.3 5000005.43922
10.169981333333334 -1.2333333333333334 -2.3 5000005.09944
10.176600333333333 -2.0 -2.3 5000005.29801
10.174337666666666 -2.1 -2.3 5000005.23013
10.174337666666666 -2.1333333333333333 -2.3 5000005.23013
10.188857333333333 -4.533333333333333 -2.3 5000005.66572
10.188857333333333 -4.566666666666666 -2.3 5000005.66572
10.172132 1.6 -2.3333333333333335 5000005.16396
10.172132 1.5666666666666667 -2.3333333333333335 5000005.16396
10.178923 1.0666666666666667 -2.3333333333333335 5000005.36769
10.167883666666667 0.8333333333333334 -2.3333333333333335 5000005.03651
10.167883666666667 0.8 -2.3333333333333335 5000005.03651
10.178923 0.1 -2.3333333333333335 5000005.36769
10.174337666666666 -1.9666666666666666 -2.3333333333333335 5000005.23013
10.188857333333333 -4.533333333333333 -2.3333333333333335 5000005.66572
10.188857333333333 -4.566666666666666 -2.3333333333333335 5000005.66572
10.169981333333334 2.1 -2.3666666666666667 5000005.09944
10.169981333333334 2.066666666666667 -2.3666666666666667 5000005.09944
10.172132 1.5666666666666667 -2.3666666666666667 5000005.16396
10.174337666666666 1.3333333333333333 -2.3666666666666667 5000005.23013
10.174337666666666 1.2 -2.3666666666666667 5000005.23013
10.167883666666667 0.8333333333333334 -2.3666666666666667 5000005.03651
10.167883666666667 0.8 -2.3666666666666667 5000005.03651
10.167883666666667 -0.4 -2.3666666666666667 5000005.03651
10.181307333333333 -1.1333333333333333 -2.3666666666666667 5000005.43922
10.169981333333334 -1.5666666666666667 -2.3666666666666667 5000005.09944
10.194250333333333 -1.7666666666666666 -2.3666666666666667 5000005.82751
10.194250333333333 -1.8 -2.3666666666666667 5000005.82751
10.172132 -2.0 -2.3666666666666667 5000005.16396
10.172132 1.3 -2.4 5000005.16396
10.174337666666666 1.1666666666666667 -2.4 5000005.23013
10.174337666666666 1.1 -2.4 5000005.23013
10.167883666666667 -0.43333333333333335 -2.4 5000005.03651
10.167883666666667 -0.4666666666666667 -2.4 5000005.03651
10.169981333333334 -1.5666666666666667 -2.4 5000005.09944
10.169981333333334 -1.6 -2.4 5000005.09944
10.172132 -2.0 -2.4 5000005.16396
10.172132 -2.033333333333333 -2.4 5000005.16396
10.174337666666666 1.2666666666666666 -2.433333333333333 5000005.23013
10.165837333333334 0.7333333333333333 -2.433333333333333 5000004.97512
10.169981333333334 -0.36666666666666664 -2.433333333333333 5000005.09944
10.167883666666667 -0.43333333333333335 -2.433333333333333 5000005.03651
10.167883666666667 -0.4666666666666667 -2.433333333333333 5000005.03651
10.167883666666667 -0.5 -2.433333333333333 5000005.03651
10.169981333333334 -0.9 -2.433333333333333 5000005.09944
10.169981333333334 -1.5 -2.433333333333333 5000005.09944
10.169981333333334 -1.5666666666666667 -2.433333333333333 5000005.09944
10.169981333333334 -1.7 -2.433333333333333 5000005.09944
10.169981333333334 -1.7333333333333334 -2.433333333333333 5000005.09944
10.172132 -2.1333333333333333 -2.433333333333333 5000005.16396
10.172132 -2.566666666666667 -2.433333333333333 5000005.16396
10.172132 -2.6 -2.433333333333333 5000005.16396
10.176600333333333 2.8 -2.466666666666667 5000005.29801
10.174337666666666 2.1666666666666665 -2.466666666666667 5000005.23013
10.169981333333334 1.3666666666666667 -2.466666666666667 5000005.09944
10.169981333333334 1.3333333333333333 -2.466666666666667 5000005.09944
10.176600333333333 0.8 -2.466666666666667 5000005.29801
10.163840333333333 0.7 -2.466666666666667 5000004.91521
10.178923 -0.6 -2.466666666666667 5000005.36769
10.178923 -0.6333333333333333 -2.466666666666667 5000005.36769
10.176600333333333 -1.2666666666666666 -2.466666666666667 5000005.29801
10.186271666666666 -1.3333333333333333 -2.466666666666667 5000005.58815
10.167883666666667 -1.7333333333333334 -2.466666666666667 5000005.03651
10.172132 -2.566666666666667 -2.466666666666667 5000005.16396
10.172132 -2.6 -2.466666666666667 5000005.16396
10.174337666666666 1.4666666666666666 -2.5 5000005.23013
10.169981333333334 1.3333333333333333 -2.5 5000005.09944
10.163840333333333 0.7 -2.5 5000004.91521
10.163840333333333 0.6666666666666666 -2.5 5000004.91521
10.174337666666666 -1.1 -2.5 5000005.23013
10.174337666666666 -1.1333333333333333 -2.5 5000005.23013
10.186271666666666 -1.2333333333333334 -2.5 5000005.58815
10.188857333333333 -1.4666666666666666 -2.5 5000005.66572
10.172132 -2.6 -2.5 5000005.16396
10.174337666666666 2.0 -2.533333333333333 5000005.23013
10.176600333333333 0.8666666666666667 -2.533333333333333 5000005.29801
10.163840333333333 0.7 -2.533333333333333 5000004.91521
10.163840333333333 0.6666666666666666 -2.533333333333333 5000004.91521
10.165837333333334 -0.4 -2.533333333333333 5000004.97512
10.169981333333334 -0.7333333333333333 -2.533333333333333 5000005.09944
10.169981333333334 -0.7666666666666667 -2.533333333333333 5000005.09944
10.169981333333334 -0.8 -2.533333333333333 5000005.09944
10.181307333333333 -2.033333333333333 -2.533333333333333 5000005.43922
10.176600333333333 0.8333333333333334 -2.566666666666667 5000005.29801
10.176600333333333 0.8 -2.566666666666667 5000005.29801
10.163840333333333 0.7 -2.566666666666667 5000004.91521
10.163840333333333 0.6666666666666666 -2.566666666666667 5000004.91521
10.163840333333333 0.6333333333333333 -2.566666666666667 5000004.91521
10.165837333333334 -0.4 -2.566666666666667 5000004.97512
10.169981333333334 -0.8 -2.566666666666667 5000005.09944
10.167883666666667 -1.3333333333333333 -2.566666666666667 5000005.03651
10.181307333333333 -1.9666666666666666 -2.566666666666667 5000005.43922
10.181307333333333 -3.3333333333333335 -2.566666666666667 5000005.43922
10.178923 -3.3666666666666667 -2.566666666666667 5000005.36769
10.169981333333334 1.6666666666666667 -2.6 5000005.09944
10.163840333333333 0.6333333333333333 -2.6 5000004.91521
10.163840333333333 0.6 -2.6 5000004.91521
10.165837333333334 -0.4 -2.6 5000004.97512
10.167883666666667 -1.3333333333333333 -2.6 5000005.03651
10.167883666666667 -1.3666666666666667 -2.6 5000005.03651
10.188857333333333 -3.2666666666666666 -2.6 5000005.66572
10.178923 -3.3666666666666667 -2.6 5000005.36769
10.169981333333334 2.3666666666666667 -2.6333333333333333 5000005.09944
10.165837333333334 1.6666666666666667 -2.6333333333333333 5000004.97512
10.165837333333334 0.3 -2.6333333333333333 5000004.97512
10.165837333333334 -0.4 -2.6333333333333333 5000004.97512
10.167883666666667 -1.2666666666666666 -2.6333333333333333 5000005.03651
10.169981333333334 2.433333333333333 -2.6666666666666665 5000005.09944
10.188857333333333 1.8 -2.6666666666666665 5000005.66572
10.163840333333333 1.6333333333333333 -2.6666666666666665 5000004.91521
10.165837333333334 1.6 -2.6666666666666665 5000004.97512
10.163840333333333 1.5333333333333334 -2.6666666666666665 5000004.91521
10.172132 1.5 -2.6666666666666665 5000005.16396
10.172132 1.4333333333333333 -2.6666666666666665 5000005.16396
10.176600333333333 0.0 -2.6666666666666665 5000005.29801
10.161891 -0.13333333333333333 -2.6666666666666665 5000004.85673
10.161891 -0.16666666666666666 -2.6666666666666665 5000004.85673
10.176600333333333 -1.2333333333333334 -2.6666666666666665 5000005.29801
10.178923 -1.4333333333333333 -2.6666666666666665 5000005.36769
10.178923 -1.4666666666666666 -2.6666666666666665 5000005.36769
10.188857333333333 1.8 -2.7 5000005.66572
10.163840333333333 1.6 -2.7 5000004.91521
10.176600333333333 0.0 -2.7 5000005.29801
10.176600333333333 -0.03333333333333333 -2.7 5000005.29801
10.161891 -0.16666666666666666 -2.7 5000004.85673
10.161891 -0.2 -2.7 5000004.85673
10.169981333333334 -0.5333333333333333 -2.7 5000005.09944
10.165837333333334 -1.5666666666666667 -2.7 5000004.97512
10.165837333333334 -1.6 -2.7 5000004.97512
10.165837333333334 -2.3 -2.7 5000004.97512
10.165837333333334 -2.3333333333333335 -2.7 5000004.97512
10.161891 1.6 -2.7333333333333334 5000004.85673
10.161891 1.5666666666666667 -2.7333333333333334 5000004.85673
10.169981333333334 0.6666666666666666 -2.7333333333333334 5000005.09944
10.172132 0.13333333333333333 -2.7333333333333334 5000005.16396
10.174337666666666 -0.03333333333333333 -2.7333333333333334 5000005.23013
10.172132 -0.06666666666666667 -2.7333333333333334 5000005.16396
10.161891 -0.16666666666666666 -2.7333333333333334 5000004.85673
10.169981333333334 -0.5666666666666667 -2.7333333333333334 5000005.09944
10.169981333333334 -0.6666666666666666 -2.7333333333333334 5000005.09944
10.165837333333334 -1.5666666666666667 -2.7333333333333334 5000004.97512
10.165837333333334 -1.6 -2.7333333333333334 5000004.97512
10.165837333333334 -1.6333333333333333 -2.7333333333333334 5000004.97512
10.172132 -1.7 -2.7333333333333334 5000005.16396
10.165837333333334 -1.7333333333333334 -2.7333333333333334 5000004.97512
10.165837333333334 -2.3666666666666667 -2.7333333333333334 5000004.97512
10.159987333333333 1.6 -2.7666666666666666 5000004.79962
10.159987333333333 1.5666666666666667 -2.7666666666666666 5000004.79962
10.161891 0.0 -2.7666666666666666 5000004.85673
10.172132 -0.6 -2.7666666666666666 5000005.16396
10.169981333333334 -0.6333333333333333 -2.7666666666666666 5000005.09944
10.169981333333334 -0.6666666666666666 -2.7666666666666666 5000005.09944
10.169981333333334 -0.7 -2.7666666666666666 5000005.09944
10.163840333333333 -0.7666666666666667 -2.7666666666666666 5000004.91521
10.165837333333334 -1.6 -2.7666666666666666 5000004.97512
10.165837333333334 -1.6333333333333333 -2.7666666666666666 5000004.97512
10.159987333333333 1.6333333333333333 -2.8 5000004.79962
10.159987333333333 1.6 -2.8 5000004.79962
10.172132 1.2666666666666666 -2.8 5000005.16396
10.167883666666667 1.1 -2.8 5000005.03651
10.161891 1.0666666666666667 -2.8 5000004.85673
10.172132 0.13333333333333333 -2.8 5000005.16396
10.161891 0.03333333333333333 -2.8 5000004.85673
10.161891 0.0 -2.8 5000004.85673
10.161891 -0.13333333333333333 -2.8 5000004.85673
10.163840333333333 -0.8 -2.8 5000004.91521
10.172132 1.4666666666666666 -2.8333333333333335 5000005.16396
10.167883666666667 1.2 -2.8333333333333335 5000005.03651
10.161891 1.1666666666666667 -2.8333333333333335 5000004.85673
10.161891 1.1 -2.8333333333333335 5000004.85673
10.161891 1.0666666666666667 -2.8333333333333335 5000004.85673
10.176600333333333 1.0 -2.8333333333333335 5000005.29801
10.169981333333334 0.8333333333333334 -2.8333333333333335 5000005.09944
10.169981333333334 0.8 -2.8333333333333335 5000005.09944
10.159987333333333 0.6 -2.8333333333333335 5000004.79962
10.163840333333333 0.4666666666666667 -2.8333333333333335 5000004.91521
10.163840333333333 0.43333333333333335 -2.8333333333333335 5000004.91521
10.172132 0.13333333333333333 -2.8333333333333335 5000005.16396
10.159987333333333 0.03333333333333333 -2.8333333333333335 5000004.79962
10.161891 0.0 -2.8333333333333335 5000004.85673
10.161891 -0.03333333333333333 -2.8333333333333335 5000004.85673
10.151102999999999 -0.2 -2.8333333333333335 5000004.53309
10.165837333333334 1.6333333333333333 -2.8666666666666667 5000004.97512
10.172132 1.3666666666666667 -2.8666666666666667 5000005.16396
10.172132 1.3333333333333333 -2.8666666666666667 5000005.16396
10.161891 1.1666666666666667 -2.8666666666666667 5000004.85673
10.159987333333333 0.8 -2.8666666666666667 5000004.79962
10.159987333333333 0.7 -2.8666666666666667 5000004.79962
10.159987333333333 0.6666666666666666 -2.8666666666666667 5000004.79962
10.172132 0.2 -2.8666666666666667 5000005.16396
10.159987333333333 0.03333333333333333 -2.8666666666666667 5000004.79962
10.159987333333333 0.0 -2.8666666666666667 5000004.79962
10.159987333333333 -0.03333333333333333 -2.8666666666666667 5000004.79962
10.159987333333333 -0.06666666666666667 -2.8666666666666667 5000004.79962
10.159987333333333 -1.8333333333333333 -2.8666666666666667 5000004.79962
10.163840333333333 2.566666666666667 -2.9 5000004.91521
10.169981333333334 1.6 -2.9 5000005.09944
10.169981333333334 1.5666666666666667 -2.9 5000005.09944
10.172132 1.5333333333333334 -2.9 5000005.16396
10.167883666666667 1.3333333333333333 -2.9 5000005.03651
10.167883666666667 1.3 -2.9 5000005.03651
10.167883666666667 1.2666666666666666 -2.9 5000005.03651
10.167883666666667 1.2333333333333334 -2.9 5000005.03651
10.167883666666667 1.2 -2.9 5000005.03651
10.161891 1.1666666666666667 -2.9 5000004.85673
10.159987333333333 0.8666666666666667 -2.9 5000004.79962
10.159987333333333 0.8333333333333334 -2.9 5000004.79962
10.159987333333333 0.6666666666666666 -2.9 5000004.79962
10.159987333333333 0.0 -2.9 5000004.79962
10.159987333333333 -0.03333333333333333 -2.9 5000004.79962
10.159987333333333 2.0 -2.933333333333333 5000004.79962
10.165837333333334 1.6333333333333333 -2.933333333333333 5000004.97512
10.161891 1.2666666666666666 -2.933333333333333 5000004.85673
10.158127666666667 0.8666666666666667 -2.933333333333333 5000004.74383
10.158127666666667 0.8333333333333334 -2.933333333333333 5000004.74383
10.158127666666667 0.6 -2.933333333333333 5000004.74383
10.197063666666667 1.7333333333333334 -2.966666666666667 5000005.91191
10.165837333333334 1.6333333333333333 -2.966666666666667 5000004.97512
10.167883666666667 1.4333333333333333 -2.966666666666667 5000005.03651
10.167883666666667 1.4 -2.966666666666667 5000005.03651
10.167883666666667 1.3333333333333333 -2.966666666666667 5000005.03651
10.161891 1.3 -2.966666666666667 5000004.85673
10.161891 1.2666666666666666 -2.966666666666667 5000004.85673
10.158127666666667 0.8666666666666667 -2.966666666666667 5000004.74383
10.158127666666667 0.8333333333333334 -2.966666666666667 5000004.74383
10.158127666666667 0.8 -2.966666666666667 5000004.74383
10.158127666666667 0.7666666666666667 -2.966666666666667 5000004.74383
10.158127666666667 0.6 -2.966666666666667 5000004.74383
10.206015666666667 -14.666666666666666 -2.966666666666667 5000006.18047
10.159987333333333 1.4 -3.0 5000004.79962
10.158127666666667 1.3 -3.0 5000004.74383
10.158127666666667 0.8333333333333334 -3.0 5000004.74383
10.158127666666667 0.8 -3.0 5000004.74383
10.158127666666667 0.6 -3.0 5000004.74383
10.161891 -1.2 -3.0 5000004.85673
10.159987333333333 1.4666666666666666 -3.033333333333333 5000004.79962
10.159987333333333 1.4333333333333333 -3.033333333333333 5000004.79962
10.172132 -0.06666666666666667 -3.033333333333333 5000005.16396
10.172132 -0.1 -3.033333333333333 5000005.16396
10.172132 -0.13333333333333333 -3.033333333333333 5000005.16396
10.176600333333333 -0.6666666666666666 -3.033333333333333 5000005.29801
10.167883666666667 -1.0666666666666667 -3.033333333333333 5000005.03651
10.169981333333334 -1.5 -3.033333333333333 5000005.09944
10.169981333333334 -1.5333333333333334 -3.033333333333333 5000005.09944
10.169981333333334 -1.5666666666666667 -3.033333333333333 5000005.09944
10.174337666666666 -1.6333333333333333 -3.033333333333333 5000005.23013
10.176600333333333 -1.6666666666666667 -3.033333333333333 5000005.29801
10.174337666666666 -1.7333333333333334 -3.033333333333333 5000005.23013
10.169981333333334 -1.7666666666666666 -3.033333333333333 5000005.09944
10.172132 -1.9666666666666666 -3.033333333333333 5000005.16396
10.172132 -2.0 -3.033333333333333 5000005.16396
10.172132 -2.033333333333333 -3.033333333333333 5000005.16396
10.169981333333334 -2.066666666666667 -3.033333333333333 5000005.09944
10.169981333333334 -2.1 -3.033333333333333 5000005.09944
10.167883666666667 -2.1333333333333333 -3.033333333333333 5000005.03651
10.165837333333334 -2.933333333333333 -3.033333333333333 5000004.97512
10.165837333333334 -2.966666666666667 -3.033333333333333 5000004.97512
10.176600333333333 -14.766666666666667 -3.033333333333333 5000005.29801
10.169981333333334 -14.966666666666667 -3.033333333333333 5000005.09944
10.159987333333333 1.4666666666666666 -3.066666666666667 5000004.79962
10.159987333333333 1.4333333333333333 -3.066666666666667 5000004.79962
10.134653 1.1 -3.066666666666667 5000004.03959
10.169981333333334 0.6333333333333333 -3.066666666666667 5000005.09944
10.167883666666667 0.4666666666666667 -3.066666666666667 5000005.03651
10.167883666666667 0.43333333333333335 -3.066666666666667 5000005.03651
10.167883666666667 0.4 -3.066666666666667 5000005.03651
10.167883666666667 0.36666666666666664 -3.066666666666667 5000005.03651
10.167883666666667 0.3333333333333333 -3.066666666666667 5000005.03651
10.167883666666667 0.3 -3.066666666666667 5000005.03651
10.165837333333334 0.26666666666666666 -3.066666666666667 5000004.97512
10.167883666666667 0.13333333333333333 -3.066666666666667 5000005.03651
10.167883666666667 0.1 -3.066666666666667 5000005.03651
10.167883666666667 0.06666666666666667 -3.066666666666667 5000005.03651
10.167883666666667 0.0 -3.066666666666667 5000005.03651
10.174337666666666 -0.03333333333333333 -3.066666666666667 5000005.23013
10.172132 -0.13333333333333333 -3.066666666666667 5000005.16396
10.167883666666667 -0.16666666666666666 -3.066666666666667 5000005.03651
10.165837333333334 -0.2 -3.066666666666667 5000004.97512
10.163840333333333 -0.23333333333333334 -3.066666666666667 5000004.91521
10.163840333333333 -0.26666666666666666 -3.066666666666667 5000004.91521
10.163840333333333 -0.3 -3.066666666666667 5000004.91521
10.163840333333333 -0.3333333333333333 -3.066666666666667 5000004.91521
10.167883666666667 -0.43333333333333335 -3.066666666666667 5000005.03651
10.165837333333334 -0.4666666666666667 -3.066666666666667 5000004.97512
10.169981333333334 -0.7666666666666667 -3.066666666666667 5000005.09944
10.161891 -0.8666666666666667 -3.066666666666667 5000004.85673
10.161891 -0.9 -3.066666666666667 5000004.85673
10.161891 -0.9333333333333333 -3.066666666666667 5000004.85673
10.158127666666667 -0.9666666666666667 -3.066666666666667 5000004.74383
10.161891 -1.2333333333333334 -3.066666666666667 5000004.85673
10.165837333333334 -1.3666666666666667 -3.066666666666667 5000004.97512
10.163840333333333 -1.8333333333333333 -3.066666666666667 5000004.91521
10.163840333333333 -1.8666666666666667 -3.066666666666667 5000004.91521
10.172132 -1.9333333333333333 -3.066666666666667 5000005.16396
10.161891 -2.1666666666666665 -3.066666666666667 5000004.85673
10.159987333333333 -2.2 -3.066666666666667 5000004.79962
10.159987333333333 -2.2333333333333334 -3.066666666666667 5000004.79962
10.158127666666667 -2.2666666666666666 -3.066666666666667 5000004.74383
10.156311 -2.3666666666666667 -3.066666666666667 5000004.68933
10.165837333333334 -2.933333333333333 -3.066666666666667 5000004.97512
10.165837333333334 -2.966666666666667 -3.066666666666667 5000004.97512
10.176600333333333 -14.766666666666667 -3.066666666666667 5000005.29801
10.176600333333333 -14.8 -3.066666666666667 5000005.29801
10.176600333333333 -14.833333333333334 -3.066666666666667 5000005.29801
10.172132 -14.866666666666667 -3.066666666666667 5000005.16396
10.174337666666666 -15.033333333333333 -3.066666666666667 5000005.23013
10.172132 -15.066666666666666 -3.066666666666667 5000005.16396
10.172132 -15.1 -3.066666666666667 5000005.16396
10.169981333333334 -15.133333333333333 -3.066666666666667 5000005.09944
10.167883666666667 -15.166666666666666 -3.066666666666667 5000005.03651
10.165837333333334 -15.2 -3.066666666666667 5000004.97512
10.163840333333333 -15.233333333333333 -3.066666666666667 5000004.91521
10.163840333333333 -15.266666666666667 -3.066666666666667 5000004.91521
10.161891 -15.3 -3.066666666666667 5000004.85673
10.159987333333333 -15.333333333333334 -3.066666666666667 5000004.79962
10.172132 2.1333333333333333 -3.1 5000005.16396
10.165837333333334 1.9333333333333333 -3.1 5000004.97512
10.134653 1.1 -3.1 5000004.03959
10.172132 -14.866666666666667 -3.1 5000005.16396
10.172132 -14.9 -3.1 5000005.16396
10.169981333333334 -14.933333333333334 -3.1 5000005.09944
10.167883666666667 -14.966666666666667 -3.1 5000005.03651
10.174337666666666 -15.033333333333333 -3.1 5000005.23013
10.165837333333334 -15.2 -3.1 5000004.97512
10.163840333333333 -15.233333333333333 -3.1 5000004.91521
10.163840333333333 -15.266666666666667 -3.1 5000004.91521
10.161891 -15.3 -3.1 5000004.85673
10.159987333333333 -15.333333333333334 -3.1 5000004.79962
10.159987333333333 -15.366666666666667 -3.1 5000004.79962
10.172132 2.1666666666666665 -3.1333333333333333 5000005.16396
10.172132 2.1333333333333333 -3.1333333333333333 5000005.16396
10.172132 2.1 -3.1333333333333333 5000005.16396
10.167883666666667 2.066666666666667 -3.1333333333333333 5000005.03651
10.156311 1.9333333333333333 -3.1333333333333333 5000004.68933
10.165837333333334 1.9 -3.1333333333333333 5000004.97512
10.156311 1.5 -3.1333333333333333 5000004.68933
10.163840333333333 -0.5333333333333333 -3.1333333333333333 5000004.91521
10.161891 -0.6666666666666666 -3.1333333333333333 5000004.85673
10.161891 -0.7333333333333333 -3.1333333333333333 5000004.85673
10.154535666666666 -1.7 -3.1333333333333333 5000004.63607
10.169981333333334 -14.9 -3.1333333333333333 5000005.09944
10.172132 2.1666666666666665 -3.1666666666666665 5000005.16396
10.154535666666666 2.0 -3.1666666666666665 5000004.63607
10.154535666666666 1.9666666666666666 -3.1666666666666665 5000004.63607
10.156311 1.8 -3.1666666666666665 5000004.68933
10.172132 1.3 -3.1666666666666665 5000005.16396
10.169981333333334 0.8333333333333334 -3.1666666666666665 5000005.09944
10.159987333333333 0.7333333333333333 -3.1666666666666665 5000004.79962
10.163840333333333 -0.5666666666666667 -3.1666666666666665 5000004.91521
10.159987333333333 -0.6666666666666666 -3.1666666666666665 5000004.79962
10.159987333333333 -0.7333333333333333 -3.1666666666666665 5000004.79962
10.156311 -1.6 -3.1666666666666665 5000004.68933
10.154535666666666 -1.7333333333333334 -3.1666666666666665 5000004.63607
10.159987333333333 2.3666666666666667 -3.2 5000004.79962
10.169981333333334 2.1 -3.2 5000005.09944
10.154535666666666 2.0 -3.2 5000004.63607
10.154535666666666 1.9666666666666666 -3.2 5000004.63607
10.156311 -1.1333333333333333 -3.2 5000004.68933
10.156311 -1.1666666666666667 -3.2 5000004.68933
10.165837333333334 -1.4666666666666666 -3.2 5000004.97512
10.154535666666666 -1.5666666666666667 -3.2 5000004.63607
10.154535666666666 -1.7 -3.2 5000004.63607
10.159987333333333 2.3666666666666667 -3.2333333333333334 5000004.79962
10.1528 2.0 -3.2333333333333334 5000004.584
10.1528 1.9666666666666666 -3.2333333333333334 5000004.584
10.156311 1.4 -3.2333333333333334 5000004.68933
10.158127666666667 1.0 -3.2333333333333334 5000004.74383
10.158127666666667 0.9333333333333333 -3.2333333333333334 5000004.74383
10.154535666666666 0.6 -3.2333333333333334 5000004.63607
10.154535666666666 0.5666666666666667 -3.2333333333333334 5000004.63607
10.156311 0.06666666666666667 -3.2333333333333334 5000004.68933
10.156311 -0.6666666666666666 -3.2333333333333334 5000004.68933
10.156311 -1.1666666666666667 -3.2333333333333334 5000004.68933
10.156311 -1.2 -3.2333333333333334 5000004.68933
10.154535666666666 -1.2333333333333334 -3.2333333333333334 5000004.63607
10.169981333333334 -1.3666666666666667 -3.2333333333333334 5000005.09944
10.165837333333334 -1.4 -3.2333333333333334 5000004.97512
10.165837333333334 -1.4666666666666666 -3.2333333333333334 5000004.97512
10.154535666666666 -1.5666666666666667 -3.2333333333333334 5000004.63607
10.154535666666666 -1.6 -3.2333333333333334 5000004.63607
10.159987333333333 2.3333333333333335 -3.2666666666666666 5000004.79962
10.1528 2.033333333333333 -3.2666666666666666 5000004.584
10.1528 2.0 -3.2666666666666666 5000004.584
10.1528 1.9666666666666666 -3.2666666666666666 5000004.584
10.156311 1.4 -3.2666666666666666 5000004.68933
10.156311 1.3666666666666667 -3.2666666666666666 5000004.68933
10.158127666666667 0.9333333333333333 -3.2666666666666666 5000004.74383
10.154535666666666 0.6666666666666666 -3.2666666666666666 5000004.63607
10.154535666666666 0.6 -3.2666666666666666 5000004.63607
10.159987333333333 -0.6333333333333333 -3.2666666666666666 5000004.79962
10.159987333333333 -0.6666666666666666 -3.2666666666666666 5000004.79962
10.154535666666666 -1.2333333333333334 -3.2666666666666666 5000004.63607
10.165837333333334 -1.4333333333333333 -3.2666666666666666 5000004.97512
10.154535666666666 -1.5666666666666667 -3.2666666666666666 5000004.63607
10.154535666666666 -1.6 -3.2666666666666666 5000004.63607
10.154535666666666 -1.8333333333333333 -3.2666666666666666 5000004.63607
10.1528 2.0 -3.3 5000004.584
10.156311 1.3666666666666667 -3.3 5000004.68933
