VERSION .7
FIELDS x y z rgb
SIZE 4 4 4 4
TYPE F F F F
COUNT 1 1 1 1
WIDTH 984
HEIGHT 1
VIEWPOINT 0 0 0 1 0 0 0
POINTS 984
DATA ascii
6.9504 4.08 -4.18 5000004.584
7.046298 3.84 -4.18 5000004.74383
7.046298 3.82 -4.18 5000004.74383
6.72366 3.76 -4.18 5000004.2061
7.013598 3.66 -4.18 5000004.68933
7.013598 3.64 -4.18 5000004.68933
6.9504 3.54 -4.18 5000004.584
6.9504 3.52 -4.18 5000004.584
6.9504 3.5 -4.18 5000004.584
6.9504 3.48 -4.18 5000004.584
7.013598 3.44 -4.18 5000004.68933
6.919854 3.38 -4.18 5000004.53309
7.013598 3.22 -4.18 5000004.68933
7.013598 3.2 -4.18 5000004.68933
6.981642 3.18 -4.18 5000004.63607
6.981642 3.16 -4.18 5000004.63607
6.9504 3.14 -4.18 5000004.584
6.832158 3.06 -4.18 5000004.38693
6.88998 2.58 -4.18 5000004.4833
7.149126 -5.24 -4.18 5000004.91521
7.079772 -5.26 -4.18 5000004.79962
7.046298 -5.38 -4.18 5000004.74383
7.079772 -5.4 -4.18 5000004.79962
7.046298 -5.42 -4.18 5000004.74383
7.046298 -5.44 -4.18 5000004.74383
7.046298 -5.46 -4.18 5000004.74383
7.046298 5.82 -4.2 5000004.74383
6.776765999999999 5.52 -4.2 5000004.29461
6.981642 4.84 -4.2 5000004.63607
6.981642 4.82 -4.2 5000004.63607
6.981642 4.8 -4.2 5000004.63607
6.9504 4.78 -4.2 5000004.584
6.9504 4.76 -4.2 5000004.584
6.9504 4.74 -4.2 5000004.584
6.9504 4.64 -4.2 5000004.584
6.9504 4.62 -4.2 5000004.584
6.9504 4.6 -4.2 5000004.584
6.9504 4.58 -4.2 5000004.584
6.9504 4.54 -4.2 5000004.584
6.9504 4.46 -4.2 5000004.584
6.9504 4.44 -4.2 5000004.584
6.9504 4.42 -4.2 5000004.584
6.88998 4.36 -4.2 5000004.4833
6.88998 4.34 -4.2 5000004.4833
6.919854 4.26 -4.2 5000004.53309
6.919854 4.24 -4.2 5000004.53309
6.919854 4.22 -4.2 5000004.53309
6.981642 4.04 -4.2 5000004.63607
6.981642 4.02 -4.2 5000004.63607
6.804168 3.96 -4.2 5000004.34028
6.804168 3.94 -4.2 5000004.34028
6.804168 3.92 -4.2 5000004.34028
7.013598 3.66 -4.2 5000004.68933
7.013598 3.64 -4.2 5000004.68933
6.88998 3.32 -4.2 5000004.4833
6.860754 3.3 -4.2 5000004.43459
6.88998 3.26 -4.2 5000004.4833
6.9504 3.14 -4.2 5000004.584
6.860754 3.12 -4.2 5000004.43459
6.832158 3.1 -4.2 5000004.38693
6.832158 3.08 -4.2 5000004.38693
6.832158 3.06 -4.2 5000004.38693
6.804168 3.04 -4.2 5000004.34028
6.832158 3.02 -4.2 5000004.38693
7.079772 -5.26 -4.2 5000004.79962
7.079772 -5.28 -4.2 5000004.79962
7.046298 -5.3 -4.2 5000004.74383
7.079772 -5.4 -4.2 5000004.79962
7.046298 -5.42 -4.2 5000004.74383
7.046298 -5.44 -4.2 5000004.74383
7.046298 -5.46 -4.2 5000004.74383
7.013598 -5.48 -4.2 5000004.68933
6.981642 -5.5 -4.2 5000004.63607
6.9504 -5.52 -4.2 5000004.584
6.919854 -5.54 -4.2 5000004.53309
6.88998 -5.56 -4.2 5000004.4833
6.860754 -5.58 -4.2 5000004.43459
6.860754 -5.6 -4.2 5000004.43459
6.832158 -5.62 -4.2 5000004.38693
7.079772 5.92 -4.22 5000004.79962
7.046298 5.8 -4.22 5000004.74383
6.776765999999999 5.52 -4.22 5000004.29461
6.832158 4.12 -4.22 5000004.38693
7.046298 -5.32 -4.22 5000004.74383
6.981642 -5.34 -4.22 5000004.63607
7.046298 -5.38 -4.22 5000004.74383
6.9504 -5.52 -4.22 5000004.584
7.013598 5.92 -4.24 5000004.68933
7.046298 5.8 -4.24 5000004.74383
6.860754 4.18 -4.24 5000004.43459
6.832158 4.12 -4.24 5000004.38693
6.804168 4.1 -4.24 5000004.34028
6.88998 3.5 -4.24 5000004.4833
6.776765999999999 3.44 -4.24 5000004.29461
6.832158 4.18 -4.26 5000004.38693
6.804168 4.1 -4.26 5000004.34028
6.804168 4.06 -4.26 5000004.34028
6.7499340000000005 3.48 -4.26 5000004.24989
6.7499340000000005 3.42 -4.26 5000004.24989
6.7499340000000005 3.4 -4.26 5000004.24989
6.7499340000000005 3.36 -4.26 5000004.24989
6.7499340000000005 5.88 -4.28 5000004.24989
6.832158 4.18 -4.28 5000004.38693
6.832158 4.16 -4.28 5000004.38693
6.804168 4.06 -4.28 5000004.34028
6.832158 3.56 -4.28 5000004.38693
6.72366 5.88 -4.3 5000004.2061
6.69792 5.76 -4.3 5000004.1632
6.832158 4.2 -4.3 5000004.38693
6.72366 3.8 -4.3 5000004.2061
6.72366 3.78 -4.3 5000004.2061
6.832158 3.56 -4.3 5000004.38693
6.7499340000000005 3.52 -4.3 5000004.24989
6.72366 3.5 -4.3 5000004.2061
6.672695999999999 5.88 -4.32 5000004.12116
6.72366 3.8 -4.32 5000004.2061
6.72366 3.78 -4.32 5000004.2061
6.72366 3.76 -4.32 5000004.2061
6.7499340000000005 3.74 -4.32 5000004.24989
6.9504 3.64 -4.32 5000004.584
6.9504 3.62 -4.32 5000004.584
6.88998 3.6 -4.32 5000004.4833
6.804168 3.56 -4.32 5000004.34028
6.72366 3.52 -4.32 5000004.2061
6.72366 3.5 -4.32 5000004.2061
6.88998 3.32 -4.32 5000004.4833
6.9504 3.28 -4.32 5000004.584
6.672695999999999 5.88 -4.34 5000004.12116
6.776765999999999 5.18 -4.34 5000004.29461
6.672695999999999 4.96 -4.34 5000004.12116
6.860754 4.6 -4.34 5000004.43459
7.046298 4.28 -4.34 5000004.74383
6.72366 4.16 -4.34 5000004.2061
6.776765999999999 4.12 -4.34 5000004.29461
6.776765999999999 4.1 -4.34 5000004.29461
6.9504 3.6 -4.34 5000004.584
6.72366 3.52 -4.34 5000004.2061
6.72366 3.5 -4.34 5000004.2061
6.72366 3.46 -4.34 5000004.2061
6.919854 3.44 -4.34 5000004.53309
6.804168 3.34 -4.34 5000004.34028
6.672695999999999 5.88 -4.36 5000004.12116
6.72366 5.48 -4.36 5000004.2061
6.672695999999999 4.96 -4.36 5000004.12116
6.860754 4.6 -4.36 5000004.43459
6.88998 4.46 -4.36 5000004.4833
6.981642 3.68 -4.36 5000004.63607
6.69792 3.52 -4.36 5000004.1632
6.69792 3.5 -4.36 5000004.1632
6.804168 3.34 -4.36 5000004.34028
6.9504 3.22 -4.36 5000004.584
7.079772 3.0 -4.36 5000004.79962
6.832158 2.9 -4.36 5000004.38693
6.647982 5.88 -4.38 5000004.07997
7.013598 4.68 -4.38 5000004.68933
7.013598 4.66 -4.38 5000004.68933
6.981642 4.64 -4.38 5000004.63607
6.832158 4.58 -4.38 5000004.38693
6.9504 4.44 -4.38 5000004.584
6.72366 4.36 -4.38 5000004.2061
6.776765999999999 4.08 -4.38 5000004.29461
6.832158 4.04 -4.38 5000004.38693
6.981642 4.0 -4.38 5000004.63607
6.69792 3.5 -4.38 5000004.1632
6.69792 3.28 -4.38 5000004.1632
6.88998 3.18 -4.38 5000004.4833
6.832158 3.08 -4.38 5000004.38693
6.9504 2.98 -4.38 5000004.584
6.804168 2.88 -4.38 5000004.34028
6.804168 2.86 -4.38 5000004.34028
6.804168 2.84 -4.38 5000004.34028
7.046298 4.88 -4.4 5000004.74383
6.7499340000000005 4.76 -4.4 5000004.24989
6.672695999999999 4.52 -4.4 5000004.12116
6.672695999999999 4.5 -4.4 5000004.12116
6.72366 4.24 -4.4 5000004.2061
6.72366 4.18 -4.4 5000004.2061
6.832158 4.16 -4.4 5000004.38693
6.832158 3.92 -4.4 5000004.38693
6.804168 3.9 -4.4 5000004.34028
6.69792 3.5 -4.4 5000004.1632
6.69792 3.28 -4.4 5000004.1632
6.88998 3.16 -4.4 5000004.4833
6.832158 3.06 -4.4 5000004.38693
6.88998 2.94 -4.4 5000004.4833
6.776765999999999 2.86 -4.4 5000004.29461
6.776765999999999 2.84 -4.4 5000004.29461
6.860754 4.84 -4.42 5000004.43459
6.832158 4.82 -4.42 5000004.38693
6.832158 4.8 -4.42 5000004.38693
6.672695999999999 4.74 -4.42 5000004.12116
6.672695999999999 4.72 -4.42 5000004.12116
6.672695999999999 4.52 -4.42 5000004.12116
6.672695999999999 4.5 -4.42 5000004.12116
6.69792 4.24 -4.42 5000004.1632
6.69792 4.22 -4.42 5000004.1632
6.804168 4.08 -4.42 5000004.34028
6.981642 4.02 -4.42 5000004.63607
6.804168 3.9 -4.42 5000004.34028
6.672695999999999 3.86 -4.42 5000004.12116
6.672695999999999 3.84 -4.42 5000004.12116
6.672695999999999 3.82 -4.42 5000004.12116
6.672695999999999 3.8 -4.42 5000004.12116
6.672695999999999 3.74 -4.42 5000004.12116
6.919854 -1.44 -4.42 5000004.53309
6.88998 -1.46 -4.42 5000004.4833
6.88998 -1.48 -4.42 5000004.4833
6.88998 -2.96 -4.42 5000004.4833
6.860754 -2.98 -4.42 5000004.43459
6.919854 -3.2 -4.42 5000004.53309
6.919854 -3.32 -4.42 5000004.53309
6.919854 -3.34 -4.42 5000004.53309
6.919854 -3.94 -4.42 5000004.53309
6.919854 -3.96 -4.42 5000004.53309
6.88998 -4.12 -4.42 5000004.4833
6.860754 -4.14 -4.42 5000004.43459
6.860754 -4.16 -4.42 5000004.43459
6.832158 -4.18 -4.42 5000004.38693
6.860754 -6.34 -4.42 5000004.43459
6.832158 -6.62 -4.42 5000004.38693
6.860754 -6.7 -4.42 5000004.43459
6.832158 -6.72 -4.42 5000004.38693
6.72366 4.76 -4.44 5000004.2061
6.672695999999999 4.74 -4.44 5000004.12116
6.672695999999999 4.72 -4.44 5000004.12116
6.672695999999999 4.7 -4.44 5000004.12116
6.647982 4.68 -4.44 5000004.07997
6.672695999999999 4.52 -4.44 5000004.12116
6.672695999999999 4.5 -4.44 5000004.12116
6.69792 4.26 -4.44 5000004.1632
6.69792 4.22 -4.44 5000004.1632
6.776765999999999 4.2 -4.44 5000004.29461
6.672695999999999 3.86 -4.44 5000004.12116
6.672695999999999 3.84 -4.44 5000004.12116
6.72366 3.78 -4.44 5000004.2061
6.672695999999999 3.76 -4.44 5000004.12116
6.72366 2.86 -4.44 5000004.2061
6.72366 2.84 -4.44 5000004.2061
6.69792 2.82 -4.44 5000004.1632
6.860754 -0.28 -4.44 5000004.43459
6.860754 -0.3 -4.44 5000004.43459
6.860754 -0.32 -4.44 5000004.43459
6.88998 -0.38 -4.44 5000004.4833
6.88998 -0.4 -4.44 5000004.4833
6.860754 -0.64 -4.44 5000004.43459
6.860754 -0.68 -4.44 5000004.43459
6.88998 -1.48 -4.44 5000004.4833
6.860754 -1.5 -4.44 5000004.43459
6.832158 -1.52 -4.44 5000004.38693
6.776765999999999 -1.54 -4.44 5000004.29461
6.7499340000000005 -1.56 -4.44 5000004.24989
6.7499340000000005 -1.58 -4.44 5000004.24989
6.69792 -1.6 -4.44 5000004.1632
6.860754 -3.02 -4.44 5000004.43459
6.776765999999999 -3.46 -4.44 5000004.29461
6.804168 -3.88 -4.44 5000004.34028
6.832158 -4.18 -4.44 5000004.38693
6.804168 -4.2 -4.44 5000004.34028
6.776765999999999 -4.22 -4.44 5000004.29461
6.72366 -4.24 -4.44 5000004.2061
6.72366 -4.26 -4.44 5000004.2061
6.69792 -4.28 -4.44 5000004.1632
6.72366 -5.7 -4.44 5000004.2061
6.7499340000000005 5.26 -4.46 5000004.24989
6.647982 5.08 -4.46 5000004.07997
6.832158 4.98 -4.46 5000004.38693
6.672695999999999 4.74 -4.46 5000004.12116
6.672695999999999 4.72 -4.46 5000004.12116
6.672695999999999 4.7 -4.46 5000004.12116
6.672695999999999 4.52 -4.46 5000004.12116
6.69792 4.26 -4.46 5000004.1632
6.672695999999999 4.24 -4.46 5000004.12116
6.672695999999999 3.84 -4.46 5000004.12116
6.672695999999999 3.76 -4.46 5000004.12116
6.72366 2.88 -4.46 5000004.2061
6.69792 2.86 -4.46 5000004.1632
6.69792 2.84 -4.46 5000004.1632
6.69792 2.82 -4.46 5000004.1632
6.88998 1.62 -4.46 5000004.4833
6.7499340000000005 5.24 -4.48 5000004.24989
6.647982 5.12 -4.48 5000004.07997
6.804168 4.96 -4.48 5000004.34028
6.647982 4.9 -4.48 5000004.07997
6.7499340000000005 3.98 -4.48 5000004.24989
6.804168 3.38 -4.48 5000004.34028
6.69792 2.86 -4.48 5000004.1632
6.647982 5.12 -4.5 5000004.07997
6.647982 4.92 -4.5 5000004.07997
6.7499340000000005 5.28 -4.52 5000004.24989
6.623754 5.02 -4.52 5000004.03959
6.623754 5.02 -4.54 5000004.03959
6.623754 5.0 -4.54 5000004.03959
999999 -4.16 -4.42 5000004.43459
11.632158 -4.18 -4.42 5000004.38693
11.660753999999999 -6.34 -4.42 5000004.43459
11.632158 -6.62 -4.42 5000004.38693
11.660753999999999 -6.7 -4.42 5000004.43459
11.632158 -6.72 -4.42 5000004.38693
11.52366 4.76 -4.44 5000004.2061
11.472696000000001 4.74 -4.44 5000004.12116
11.472696000000001 4.72 -4.44 5000004.12116
11.472696000000001 4.7 -4.44 5000004.12116
11.447982 4.68 -4.44 5000004.07997
11.472696000000001 4.52 -4.44 5000004.12116
11.472696000000001 4.5 -4.44 5000004.12116
11.49792 4.26 -4.44 5000004.1632
11.49792 4.22 -4.44 5000004.1632
11.576766 4.2 -4.44 5000004.29461
11.472696000000001 3.86 -4.44 5000004.12116
11.472696000000001 3.84 -4.44 5000004.12116
11.52366 3.78 -4.44 5000004.2061
11.472696000000001 3.76 -4.44 5000004.12116
11.52366 2.86 -4.44 5000004.2061
11.52366 2.84 -4.44 5000004.2061
11.49792 2.82 -4.44 5000004.1632
11.660753999999999 -0.28 -4.44 5000004.43459
11.660753999999999 -0.3 -4.44 5000004.43459
11.660753999999999 -0.32 -4.44 5000004.43459
11.68998 -0.38 -4.44 5000004.4833
11.68998 -0.4 -4.44 5000004.4833
11.660753999999999 -0.64 -4.44 5000004.43459
11.660753999999999 -0.68 -4.44 5000004.43459
11.68998 -1.48 -4.44 5000004.4833
11.660753999999999 -1.5 -4.44 5000004.43459
11.632158 -1.52 -4.44 5000004.38693
11.576766 -1.54 -4.44 5000004.29461
11.549934 -1.56 -4.44 5000004.24989
11.549934 -1.58 -4.44 5000004.24989
11.49792 -1.6 -4.44 5000004.1632
11.660753999999999 -3.02 -4.44 5000004.43459
11.576766 -3.46 -4.44 5000004.29461
11.604168 -3.88 -4.44 5000004.34028
11.632158 -4.18 -4.44 5000004.38693
11.604168 -4.2 -4.44 5000004.34028
11.576766 -4.22 -4.44 5000004.29461
11.52366 -4.24 -4.44 5000004.2061
11.52366 -4.26 -4.44 5000004.2061
11.49792 -4.28 -4.44 5000004.1632
11.52366 -5.7 -4.44 5000004.2061
11.549934 5.26 -4.46 5000004.24989
11.447982 5.08 -4.46 5000004.07997
11.632158 4.98 -4.46 5000004.38693
11.472696000000001 4.74 -4.46 5000004.12116
11.472696000000001 4.72 -4.46 5000004.12116
11.472696000000001 4.7 -4.46 5000004.12116
11.472696000000001 4.52 -4.46 5000004.12116
11.49792 4.26 -4.46 5000004.1632
11.472696000000001 4.24 -4.46 5000004.12116
11.472696000000001 3.84 -4.46 5000004.12116
11.472696000000001 3.76 -4.46 5000004.12116
11.52366 2.88 -4.46 5000004.2061
11.49792 2.86 -4.46 5000004.1632
11.49792 2.84 -4.46 5000004.1632
11.49792 2.82 -4.46 5000004.1632
11.68998 1.62 -4.46 5000004.4833
11.549934 5.24 -4.48 5000004.24989
11.447982 5.12 -4.48 5000004.07997
11.604168 4.96 -4.48 5000004.34028
11.447982 4.9 -4.48 5000004.07997
11.549934 3.98 -4.48 5000004.24989
11.604168 3.38 -4.48 5000004.34028
11.49792 2.86 -4.48 5000004.1632
11.447982 5.12 -4.5 5000004.07997
11.447982 4.92 -4.5 5000004.07997
11.549934 5.28 -4.52 5000004.24989
11.423754 5.02 -4.52 5000004.03959
11.423754 5.02 -4.54 5000004.03959
11.423754 5.0 -4.54 5000004.03959
8244 2.88 -4.46 5000004.2061
7.66528 2.86 -4.46 5000004.1632
7.66528 2.84 -4.46 5000004.1632
7.66528 2.82 -4.46 5000004.1632
7.7933200000000005 1.62 -4.46 5000004.4833
7.699956 5.24 -4.48 5000004.24989
7.631988 5.12 -4.48 5000004.07997
7.736111999999999 4.96 -4.48 5000004.34028
7.631988 4.9 -4.48 5000004.07997
7.699956 3.98 -4.48 5000004.24989
7.736111999999999 3.38 -4.48 5000004.34028
7.66528 2.86 -4.48 5000004.1632
7.631988 5.12 -4.5 5000004.07997
7.631988 4.92 -4.5 5000004.07997
7.699956 5.28 -4.52 5000004.24989
7.615836 5.02 -4.52 5000004.03959
7.615836 5.02 -4.54 5000004.03959
7.615836 5.0 -4.54 5000004.03959
.22 -4.44 5000004.29461
9.68244 -4.24 -4.44 5000004.2061
9.68244 -4.26 -4.44 5000004.2061
9.66528 -4.28 -4.44 5000004.1632
9.68244 -5.7 -4.44 5000004.2061
9.699956 5.26 -4.46 5000004.24989
9.631988 5.08 -4.46 5000004.07997
9.754771999999999 4.98 -4.46 5000004.38693
9.648464 4.74 -4.46 5000004.12116
9.648464 4.72 -4.46 5000004.12116
9.648464 4.7 -4.46 5000004.12116
9.648464 4.52 -4.46 5000004.12116
9.66528 4.26 -4.46 5000004.1632
9.648464 4.24 -4.46 5000004.12116
9.648464 3.84 -4.46 5000004.12116
9.648464 3.76 -4.46 5000004.12116
9.68244 2.88 -4.46 5000004.2061
9.66528 2.86 -4.46 5000004.1632
9.66528 2.84 -4.46 5000004.1632
9.66528 2.82 -4.46 5000004.1632
9.79332 1.62 -4.46 5000004.4833
9.699956 5.24 -4.48 5000004.24989
9.631988 5.12 -4.48 5000004.07997
9.736112 4.96 -4.48 5000004.34028
9.631988 4.9 -4.48 5000004.07997
9.699956 3.98 -4.48 5000004.24989
9.736112 3.38 -4.48 5000004.34028
9.66528 2.86 -4.48 5000004.1632
9.631988 5.12 -4.5 5000004.07997
9.631988 4.92 -4.5 5000004.07997
9.699956 5.28 -4.52 5000004.24989
9.615836 5.02 -4.52 5000004.03959
9.615836 5.02 -4.54 5000004.03959
9.615836 5.0 -4.54 5000004.03959
6158359999999998 1.0 -4.54 5000004.03959
000005.43922
10.183756 -1.2 -1.9666666666666666 5000005.51268
10.183756 -1.2333333333333334 -1.9666666666666666 5000005.51268
10.181307333333333 -1.9333333333333333 -1.9666666666666666 5000005.43922
10.188857333333333 -2.3666666666666667 -1.9666666666666666 5000005.66572
10.181307333333333 -2.433333333333333 -1.9666666666666666 5000005.43922
10.178923 -2.466666666666667 -1.9666666666666666 5000005.36769
10.178923 -2.5 -1.9666666666666666 5000005.36769
10.178923 -2.533333333333333 -1.9666666666666666 5000005.36769
10.191516 -3.2333333333333334 -1.9666666666666666 5000005.74548
10.191516 -3.2666666666666666 -1.9666666666666666 5000005.74548
10.191516 -3.3 -1.9666666666666666 5000005.74548
10.191516 -3.3333333333333335 -1.9666666666666666 5000005.74548
10.183756 0.26666666666666666 -2.0 5000005.51268
10.183756 0.23333333333333334 -2.0 5000005.51268
10.178923 -2.466666666666667 -2.0 5000005.36769
10.178923 -2.5 -2.0 5000005.36769
10.178923 -2.533333333333333 -2.0 5000005.36769
10.188857333333333 -2.6333333333333333 -2.0 5000005.66572
10.19996 -4.233333333333333 -2.0 5000005.9988
10.181307333333333 0.26666666666666666 -2.033333333333333 5000005.43922
10.178923 0.16666666666666666 -2.033333333333333 5000005.36769
10.188857333333333 -0.6 -2.033333333333333 5000005.66572
10.188857333333333 -0.6333333333333333 -2.033333333333333 5000005.66572
10.181307333333333 -1.9333333333333333 -2.033333333333333 5000005.43922
10.178923 -1.9666666666666666 -2.033333333333333 5000005.36769
10.178923 -2.0 -2.033333333333333 5000005.36769
10.178923 -2.7333333333333334 -2.033333333333333 5000005.36769
10.197063666666667 -2.8333333333333335 -2.033333333333333 5000005.91191
10.186271666666666 -3.0 -2.033333333333333 5000005.58815
10.186271666666666 -3.033333333333333 -2.033333333333333 5000005.58815
10.19996 -4.233333333333333 -2.033333333333333 5000005.9988
10.19996 -4.266666666666667 -2.033333333333333 5000005.9988
10.174337666666666 0.16666666666666666 -2.066666666666667 5000005.23013
10.197063666666667 0.0 -2.066666666666667 5000005.91191
10.197063666666667 -0.03333333333333333 -2.066666666666667 5000005.91191
10.181307333333333 -0.16666666666666666 -2.066666666666667 5000005.43922
10.172132 -0.26666666666666666 -2.066666666666667 5000005.16396
10.169981333333334 -0.3 -2.066666666666667 5000005.09944
10.178923 -1.9666666666666666 -2.066666666666667 5000005.36769
10.178923 -2.0 -2.066666666666667 5000005.36769
10.178923 -2.033333333333333 -2.066666666666667 5000005.36769
10.178923 -2.7333333333333334 -2.066666666666667 5000005.36769
10.178923 -2.7666666666666666 -2.066666666666667 5000005.36769
10.206015666666667 -2.9 -2.066666666666667 5000006.18047
10.186271666666666 -3.0 -2.066666666666667 5000005.58815
10.186271666666666 1.6 -2.1 5000005.58815
10.186271666666666 1.5666666666666667 -2.1 5000005.58815
10.174337666666666 1.4666666666666666 -2.1 5000005.23013
10.174337666666666 1.4333333333333333 -2.1 5000005.23013
10.174337666666666 1.4 -2.1 5000005.23013
10.174337666666666 1.3666666666666667 -2.1 5000005.23013
10.183756 1.2 -2.1 5000005.51268
10.156311 0.4 -2.1 5000004.68933
10.197063666666667 -0.06666666666666667 -2.1 5000005.91191
10.181307333333333 -0.2 -2.1 5000005.43922
10.172132 -0.26666666666666666 -2.1 5000005.16396
10.169981333333334 -0.3 -2.1 5000005.09944
10.181307333333333 1.5333333333333334 -2.1333333333333333 5000005.43922
10.174337666666666 1.4666666666666666 -2.1333333333333333 5000005.23013
10.174337666666666 1.4333333333333333 -2.1333333333333333 5000005.23013
10.174337666666666 1.3333333333333333 -2.1333333333333333 5000005.23013
10.172132 1.3 -2.1333333333333333 5000005.16396
10.172132 1.2666666666666666 -2.1333333333333333 5000005.16396
10.172132 1.2333333333333334 -2.1333333333333333 5000005.16396
10.186271666666666 1.1666666666666667 -2.1333333333333333 5000005.58815
10.186271666666666 1.1333333333333333 -2.1333333333333333 5000005.58815
10.181307333333333 0.26666666666666666 -2.1333333333333333 5000005.43922
10.174337666666666 0.23333333333333334 -2.1333333333333333 5000005.23013
10.174337666666666 0.16666666666666666 -2.1333333333333333 5000005.23013
10.172132 -0.23333333333333334 -2.1333333333333333 5000005.16396
10.169981333333334 -0.5666666666666667 -2.1333333333333333 5000005.09944
10.197063666666667 -0.6666666666666666 -2.1333333333333333 5000005.91191
10.186271666666666 -0.7666666666666667 -2.1333333333333333 5000005.58815
10.174337666666666 -0.8666666666666667 -2.1333333333333333 5000005.23013
10.183756 -1.7333333333333334 -2.1333333333333333 5000005.51268
10.172132 1.2666666666666666 -2.1666666666666665 5000005.16396
10.169981333333334 1.0 -2.1666666666666665 5000005.09944
10.169981333333334 0.9666666666666667 -2.1666666666666665 5000005.09944
10.176600333333333 0.16666666666666666 -2.1666666666666665 5000005.29801
10.172132 0.13333333333333333 -2.1666666666666665 5000005.16396
10.169981333333334 -0.5666666666666667 -2.1666666666666665 5000005.09944
10.174337666666666 -0.8666666666666667 -2.1666666666666665 5000005.23013
10.188857333333333 -2.1 -2.1666666666666665 5000005.66572
10.169981333333334 0.9666666666666667 -2.2 5000005.09944
10.167883666666667 0.06666666666666667 -2.2 5000005.03651
10.167883666666667 0.03333333333333333 -2.2 5000005.03651
10.181307333333333 -0.16666666666666666 -2.2 5000005.43922
10.169981333333334 -0.5666666666666667 -2.2 5000005.09944
10.174337666666666 -0.9333333333333333 -2.2 5000005.23013
10.181307333333333 -1.3333333333333333 -2.2 5000005.43922
10.188857333333333 -2.1333333333333333 -2.2 5000005.66572
10.176600333333333 -2.2333333333333334 -2.2 5000005.29801
10.176600333333333 -2.2666666666666666 -2.2 5000005.29801
10.188857333333333 -2.5 -2.2 5000005.66572
10.183756 -2.533333333333333 -2.2 5000005.51268
10.167883666666667 0.06666666666666667 -2.2333333333333334 5000005.03651
10.167883666666667 0.03333333333333333 -2.2333333333333334 5000005.03651
10.183756 -0.4 -2.2333333333333334 5000005.51268
10.183756 -0.43333333333333335 -2.2333333333333334 5000005.51268
10.167883666666667 -0.5666666666666667 -2.2333333333333334 5000005.03651
10.172132 -1.5333333333333334 -2.2333333333333334 5000005.16396
10.181307333333333 -1.8 -2.2333333333333334 5000005.43922
10.176600333333333 -1.8333333333333333 -2.2333333333333334 5000005.29801
10.176600333333333 -1.8666666666666667 -2.2333333333333334 5000005.29801
10.186271666666666 -2.1666666666666665 -2.2333333333333334 5000005.58815
10.176600333333333 -2.2333333333333334 -2.2333333333333334 5000005.29801
10.176600333333333 -2.2666666666666666 -2.2333333333333334 5000005.29801
10.186271666666666 -2.433333333333333 -2.2333333333333334 5000005.58815
10.183756 -2.6 -2.2333333333333334 5000005.51268
10.183756 -2.6666666666666665 -2.2333333333333334 5000005.51268
10.178923 1.9 -2.2666666666666666 5000005.36769
10.183756 -0.43333333333333335 -2.2666666666666666 5000005.51268
10.167883666666667 -0.5333333333333333 -2.2666666666666666 5000005.03651
10.167883666666667 -0.5666666666666667 -2.2666666666666666 5000005.03651
10.181307333333333 -1.8 -2.2666666666666666 5000005.43922
10.174337666666666 -1.9 -2.2666666666666666 5000005.23013
10.186271666666666 -2.033333333333333 -2.2666666666666666 5000005.58815
10.186271666666666 -2.433333333333333 -2.2666666666666666 5000005.58815
10.167883666666667 2.466666666666667 -2.3 5000005.03651
10.167883666666667 2.0 -2.3 5000005.03651
10.169981333333334 1.3666666666666667 -2.3 5000005.09944
10.163840333333333 0.9333333333333333 -2.3 5000004.91521
10.181307333333333 -0.4666666666666667 -2.3 5000005.43922
10.167883666666667 -0.5333333333333333 -2.3 5000005.03651
10.167883666666667 -0.5666666666666667 -2.3 5000005.03651
10.178923 -1.3 -2.3 5000005.36769
10.178923 -1.3333333333333333 -2.3 5000005.36769
10.174337666666666 1.9333333333333333 -2.3333333333333335 5000005.23013
10.167883666666667 -0.5666666666666667 -2.3333333333333335 5000005.03651
10.167883666666667 -0.6 -2.3333333333333335 5000005.03651
10.178923 -1.2333333333333334 -2.3333333333333335 5000005.36769
10.169981333333334 -1.4333333333333333 -2.3333333333333335 5000005.09944
10.183756 -1.4666666666666666 -2.3333333333333335 5000005.51268
10.167883666666667 1.9333333333333333 -2.3666666666666667 5000005.03651
10.202942666666667 -0.23333333333333334 -2.3666666666666667 5000006.08828
10.167883666666667 -0.5666666666666667 -2.3666666666666667 5000005.03651
10.167883666666667 -0.6 -2.3666666666666667 5000005.03651
10.167883666666667 -0.6333333333333333 -2.3666666666666667 5000005.03651
10.219298333333333 -0.9 -2.3666666666666667 5000006.57895
10.19996 -1.1333333333333333 -2.3666666666666667 5000005.9988
10.181307333333333 -1.2666666666666666 -2.3666666666666667 5000005.43922
10.167883666666667 -1.3666666666666667 -2.3666666666666667 5000005.03651
10.183756 -1.5 -2.3666666666666667 5000005.51268
10.174337666666666 -1.6333333333333333 -2.3666666666666667 5000005.23013
10.174337666666666 -2.2 -2.3666666666666667 5000005.23013
10.174337666666666 -2.2333333333333334 -2.3666666666666667 5000005.23013
10.174337666666666 -2.2666666666666666 -2.3666666666666667 5000005.23013
10.174337666666666 -2.3666666666666667 -2.3666666666666667 5000005.23013
10.174337666666666 -2.4 -2.3666666666666667 5000005.23013
10.163840333333333 1.9333333333333333 -2.4 5000004.91521
10.163840333333333 1.9 -2.4 5000004.91521
10.172132 0.7666666666666667 -2.4 5000005.16396
10.176600333333333 -0.4666666666666667 -2.4 5000005.29801
10.167883666666667 -0.5 -2.4 5000005.03651
10.167883666666667 -0.6 -2.4 5000005.03651
10.191516 -1.1 -2.4 5000005.74548
10.167883666666667 -1.3666666666666667 -2.4 5000005.03651
10.167883666666667 -1.4 -2.4 5000005.03651
10.167883666666667 -1.4333333333333333 -2.4 5000005.03651
10.167883666666667 -1.7333333333333334 -2.4 5000005.03651
10.197063666666667 -16.433333333333334 -2.4 5000005.91191
10.197063666666667 -16.466666666666665 -2.4 5000005.91191
10.172132 2.3666666666666667 -2.433333333333333 5000005.16396
10.176600333333333 2.1 -2.433333333333333 5000005.29801
10.174337666666666 2.066666666666667 -2.433333333333333 5000005.23013
10.161891 1.9666666666666666 -2.433333333333333 5000004.85673
10.186271666666666 0.2 -2.433333333333333 5000005.58815
10.167883666666667 -0.4 -2.433333333333333 5000005.03651
10.178923 -1.2666666666666666 -2.433333333333333 5000005.36769
10.165837333333334 -1.3666666666666667 -2.433333333333333 5000004.97512
10.165837333333334 -1.4 -2.433333333333333 5000004.97512
10.165837333333334 -1.4333333333333333 -2.433333333333333 5000004.97512
10.165837333333334 2.2666666666666666 -2.466666666666667 5000004.97512
10.165837333333334 2.2 -2.466666666666667 5000004.97512
10.174337666666666 2.066666666666667 -2.466666666666667 5000005.23013
10.161891 2.0 -2.466666666666667 5000004.85673
10.161891 1.9666666666666666 -2.466666666666667 5000004.85673
10.169981333333334 0.06666666666666667 -2.466666666666667 5000005.09944
10.161891 -0.03333333333333333 -2.466666666666667 5000004.85673
10.176600333333333 -0.4666666666666667 -2.466666666666667 5000005.29801
10.19996 -1.1 -2.466666666666667 5000005.9988
10.176600333333333 -1.2666666666666666 -2.466666666666667 5000005.29801
10.174337666666666 -1.3 -2.466666666666667 5000005.23013
10.165837333333334 -1.4 -2.466666666666667 5000004.97512
10.176600333333333 -1.5333333333333334 -2.466666666666667 5000005.29801
10.197063666666667 -16.4 -2.466666666666667 5000005.91191
10.188857333333333 -16.433333333333334 -2.466666666666667 5000005.66572
10.188857333333333 -16.466666666666665 -2.466666666666667 5000005.66572
10.165837333333334 2.1666666666666665 -2.5 5000004.97512
10.161891 2.0 -2.5 5000004.85673
10.159987333333333 1.9666666666666666 -2.5 5000004.79962
10.167883666666667 1.7666666666666666 -2.5 5000005.03651
10.165837333333334 1.3 -2.5 5000004.97512
10.167883666666667 0.03333333333333333 -2.5 5000005.03651
10.161891 -0.03333333333333333 -2.5 5000004.85673
10.176600333333333 -1.2333333333333334 -2.5 5000005.29801
10.176600333333333 -1.3 -2.5 5000005.29801
10.165837333333334 -1.4 -2.5 5000004.97512
10.176600333333333 -1.5666666666666667 -2.5 5000005.29801
10.167883666666667 -2.066666666666667 -2.5 5000005.03651
10.197063666666667 -16.466666666666665 -2.5 5000005.91191
10.188857333333333 -16.5 -2.5 5000005.66572
10.186271666666666 -16.533333333333335 -2.5 5000005.58815
10.181307333333333 -16.566666666666666 -2.5 5000005.43922
10.181307333333333 -16.6 -2.5 5000005.43922
10.181307333333333 -16.633333333333333 -2.5 5000005.43922
10.178923 -16.666666666666668 -2.5 5000005.36769
10.159987333333333 2.0 -2.533333333333333 5000004.79962
10.167883666666667 1.7333333333333334 -2.533333333333333 5000005.03651
10.167883666666667 1.6333333333333333 -2.533333333333333 5000005.03651
10.169981333333334 0.16666666666666666 -2.533333333333333 5000005.09944
10.163840333333333 -0.7333333333333333 -2.533333333333333 5000004.91521
10.163840333333333 -1.4 -2.533333333333333 5000004.91521
10.169981333333334 -2.3 -2.533333333333333 5000005.09944
10.169981333333334 -2.3333333333333335 -2.533333333333333 5000005.09944
10.159987333333333 2.0 -2.566666666666667 5000004.79962
10.167883666666667 1.6 -2.566666666666667 5000005.03651
10.158127666666667 -0.6 -2.566666666666667 5000004.74383
10.174337666666666 -1.9333333333333333 -2.566666666666667 5000005.23013
10.167883666666667 -2.033333333333333 -2.566666666666667 5000005.03651
10.167883666666667 -2.066666666666667 -2.566666666666667 5000005.03651
10.167883666666667 -2.466666666666667 -2.566666666666667 5000005.03651
10.159987333333333 2.033333333333333 -2.6 5000004.79962
10.159987333333333 2.0 -2.6 5000004.79962
10.169981333333334 1.1666666666666667 -2.6 5000005.09944
10.174337666666666 0.7 -2.6 5000005.23013
10.167883666666667 0.5 -2.6 5000005.03651
10.156311 -0.23333333333333334 -2.6 5000004.68933
10.158127666666667 -0.6 -2.6 5000004.74383
10.174337666666666 -1.0666666666666667 -2.6 5000005.23013
10.159987333333333 -1.2333333333333334 -2.6 5000004.79962
10.165837333333334 -2.066666666666667 -2.6 5000004.97512
10.165837333333334 -2.1 -2.6 5000004.97512
10.167883666666667 -2.466666666666667 -2.6 5000005.03651
10.167883666666667 -2.5 -2.6 5000005.03651
10.156311 0.5666666666666667 -2.6333333333333333 5000004.68933
10.174337666666666 0.43333333333333335 -2.6333333333333333 5000005.23013
10.174337666666666 0.4 -2.6333333333333333 5000005.23013
10.156311 -0.23333333333333334 -2.6333333333333333 5000004.68933
10.156311 -0.26666666666666666 -2.6333333333333333 5000004.68933
10.159987333333333 -0.8333333333333334 -2.6333333333333333 5000004.79962
10.159987333333333 -0.9 -2.6333333333333333 5000004.79962
10.174337666666666 -1.0666666666666667 -2.6333333333333333 5000005.23013
10.174337666666666 -1.1 -2.6333333333333333 5000005.23013
10.165837333333334 -1.1666666666666667 -2.6333333333333333 5000004.97512
10.159987333333333 -1.2333333333333334 -2.6333333333333333 5000004.79962
10.159987333333333 -1.2666666666666666 -2.6333333333333333 5000004.79962
10.165837333333334 -2.1333333333333333 -2.6333333333333333 5000004.97512
10.174337666666666 0.8 -2.6666666666666665 5000005.23013
10.169981333333334 0.7666666666666667 -2.6666666666666665 5000005.09944
10.174337666666666 0.7333333333333333 -2.6666666666666665 5000005.23013
10.154535666666666 0.5666666666666667 -2.6666666666666665 5000004.63607
10.174337666666666 0.4 -2.6666666666666665 5000005.23013
10.161891 0.26666666666666666 -2.6666666666666665 5000004.85673
10.161891 0.23333333333333334 -2.6666666666666665 5000004.85673
10.158127666666667 0.2 -2.6666666666666665 5000004.74383
10.156311 -0.23333333333333334 -2.6666666666666665 5000004.68933
10.156311 -0.26666666666666666 -2.6666666666666665 5000004.68933
10.159987333333333 -0.8 -2.6666666666666665 5000004.79962
10.159987333333333 -0.8333333333333334 -2.6666666666666665 5000004.79962
10.159987333333333 -1.2 -2.6666666666666665 5000004.79962
10.159987333333333 -1.2666666666666666 -2.6666666666666665 5000004.79962
10.159987333333333 -1.3 -2.6666666666666665 5000004.79962
10.167883666666667 -1.3333333333333333 -2.6666666666666665 5000005.03651
10.174337666666666 -4.233333333333333 -2.6666666666666665 5000005.23013
10.169981333333334 0.8333333333333334 -2.7 5000005.09944
10.174337666666666 0.7666666666666667 -2.7 5000005.23013
10.154535666666666 0.6 -2.7 5000004.63607
10.154535666666666 0.5666666666666667 -2.7 5000004.63607
10.154535666666666 0.5333333333333333 -2.7 5000004.63607
10.158127666666667 0.2 -2.7 5000004.74383
10.156311 0.13333333333333333 -2.7 5000004.68933
10.156311 0.1 -2.7 5000004.68933
10.159987333333333 -0.8333333333333334 -2.7 5000004.79962
10.161891 -1.4333333333333333 -2.7 5000004.85673
10.169981333333334 0.8333333333333334 -2.7333333333333334 5000005.09944
10.154535666666666 0.5666666666666667 -2.7333333333333334 5000004.63607
10.156311 0.13333333333333333 -2.7333333333333334 5000004.68933
10.197063666666667 -1.1 -2.7333333333333334 5000005.91191
10.169981333333334 -1.3666666666666667 -2.7333333333333334 5000005.09944
10.159987333333333 -1.4666666666666666 -2.7333333333333334 5000004.79962
10.159987333333333 -1.5 -2.7333333333333334 5000004.79962
10.172132 -4.166666666666667 -2.7333333333333334 5000005.16396
10.172132 -4.2 -2.7333333333333334 5000005.16396
10.172132 -4.233333333333333 -2.7333333333333334 5000005.16396
10.161891 -0.03333333333333333 -2.7666666666666666 5000004.85673
10.161891 -0.06666666666666667 -2.7666666666666666 5000004.85673
10.163840333333333 -0.4 -2.7666666666666666 5000004.91521
10.154535666666666 -0.5 -2.7666666666666666 5000004.63607
10.154535666666666 -0.5333333333333333 -2.7666666666666666 5000004.63607
10.161891 -1.4 -2.7666666666666666 5000004.85673
10.159987333333333 -1.5 -2.7666666666666666 5000004.79962
10.161891 -1.8666666666666667 -2.7666666666666666 5000004.85673
10.172132 -4.166666666666667 -2.7666666666666666 5000005.16396
10.172132 -4.2 -2.7666666666666666 5000005.16396
10.154535666666666 2.6 -2.8 5000004.63607
10.158127666666667 1.8666666666666667 -2.8 5000004.74383
10.158127666666667 1.7333333333333334 -2.8 5000004.74383
10.161891 0.9666666666666667 -2.8 5000004.85673
10.161891 0.6333333333333333 -2.8 5000004.85673
10.161891 -0.06666666666666667 -2.8 5000004.85673
10.154535666666666 -0.16666666666666666 -2.8 5000004.63607
10.163840333333333 -0.23333333333333334 -2.8 5000004.91521
10.165837333333334 -0.26666666666666666 -2.8 5000004.97512
10.154535666666666 -0.5333333333333333 -2.8 5000004.63607
10.156311 -1.3333333333333333 -2.8 5000004.68933
10.154535666666666 2.6 -2.8333333333333335 5000004.63607
10.158127666666667 1.7333333333333334 -2.8333333333333335 5000004.74383
10.159987333333333 1.0666666666666667 -2.8333333333333335 5000004.79962
10.163840333333333 0.5333333333333333 -2.8333333333333335 5000004.91521
10.154535666666666 -0.16666666666666666 -2.8333333333333335 5000004.63607
10.165837333333334 -0.3 -2.8333333333333335 5000004.97512
10.163840333333333 -0.4 -2.8333333333333335 5000004.91521
10.156311 -0.8666666666666667 -2.8333333333333335 5000004.68933
10.156311 -1.3333333333333333 -2.8333333333333335 5000004.68933
10.161891 -2.066666666666667 -2.8333333333333335 5000004.85673
10.167883666666667 -2.1 -2.8333333333333335 5000005.03651
10.154535666666666 2.6 -2.8666666666666667 5000004.63607
10.158127666666667 1.7666666666666666 -2.8666666666666667 5000004.74383
10.1528 0.4 -2.8666666666666667 5000004.584
10.161891 -0.06666666666666667 -2.8666666666666667 5000004.85673
10.156311 -0.8666666666666667 -2.8666666666666667 5000004.68933
10.174337666666666 -1.1333333333333333 -2.8666666666666667 5000005.23013
10.176600333333333 -1.1666666666666667 -2.8666666666666667 5000005.29801
10.156311 -1.3666666666666667 -2.8666666666666667 5000004.68933
10.186271666666666 -1.7 -2.8666666666666667 5000005.58815
10.159987333333333 2.2666666666666666 -2.9 5000004.79962
10.158127666666667 2.1333333333333333 -2.9 5000004.74383
10.1528 1.7666666666666666 -2.9 5000004.584
10.156311 1.2 -2.9 5000004.68933
10.1528 0.36666666666666664 -2.9 5000004.584
10.1528 0.3333333333333333 -2.9 5000004.584
10.172132 -0.7333333333333333 -2.9 5000005.16396
10.172132 -0.7666666666666667 -2.9 5000005.16396
10.167883666666667 -0.8 -2.9 5000005.03651
10.156311 -0.8666666666666667 -2.9 5000004.68933
10.156311 -0.9 -2.9 5000004.68933
10.156311 -0.9333333333333333 -2.9 5000004.68933
10.1528 -1.0333333333333334 -2.9 5000004.584
10.156311 -1.3666666666666667 -2.9 5000004.68933
10.156311 -1.4 -2.9 5000004.68933
10.158127666666667 -2.0 -2.9 5000004.74383
10.158127666666667 2.2666666666666666 -2.933333333333333 5000004.74383
10.156311 1.2333333333333334 -2.933333333333333 5000004.68933
10.156311 1.1666666666666667 -2.933333333333333 5000004.68933
10.1528 0.43333333333333335 -2.933333333333333 5000004.584
10.1528 0.36666666666666664 -2.933333333333333 5000004.584
10.1528 0.3333333333333333 -2.933333333333333 5000004.584
10.1528 0.3 -2.933333333333333 5000004.584
10.1528 -1.0333333333333334 -2.933333333333333 5000004.584
10.1528 -1.0666666666666667 -2.933333333333333 5000004.584
10.156311 -1.5 -2.933333333333333 5000004.68933
10.156311 -1.5333333333333334 -2.933333333333333 5000004.68933
10.165837333333334 -1.9 -2.933333333333333 5000004.97512
10.158127666666667 -2.0 -2.933333333333333 5000004.74383
10.158127666666667 -2.033333333333333 -2.933333333333333 5000004.74383
10.1528 2.3666666666666667 -2.966666666666667 5000004.584
10.156311 0.8 -2.966666666666667 5000004.68933
10.1528 0.3333333333333333 -2.966666666666667 5000004.584
10.1528 0.3 -2.966666666666667 5000004.584
10.151102999999999 0.26666666666666666 -2.966666666666667 5000004.53309
10.1528 0.23333333333333334 -2.966666666666667 5000004.584
10.161891 0.16666666666666666 -2.966666666666667 5000004.85673
10.1528 -0.03333333333333333 -2.966666666666667 5000004.584
10.156311 -0.2 -2.966666666666667 5000004.68933
10.161891 -0.6333333333333333 -2.966666666666667 5000004.85673
10.1528 -1.0333333333333334 -2.966666666666667 5000004.584
10.1528 -1.0666666666666667 -2.966666666666667 5000004.584
10.158127666666667 -2.0 -2.966666666666667 5000004.74383
10.158127666666667 -2.033333333333333 -2.966666666666667 5000004.74383
10.1528 2.3666666666666667 -3.0 5000004.584
10.156311 2.3333333333333335 -3.0 5000004.68933
10.147819666666667 1.6666666666666667 -3.0 5000004.43459
10.147819666666667 1.6333333333333333 -3.0 5000004.43459
10.158127666666667 0.9333333333333333 -3.0 5000004.74383
10.156311 -0.23333333333333334 -3.0 5000004.68933
10.163840333333333 -0.36666666666666664 -3.0 5000004.91521
10.163840333333333 -0.43333333333333335 -3.0 5000004.91521
10.159987333333333 -0.6333333333333333 -3.0 5000004.79962
10.151102999999999 -0.7333333333333333 -3.0 5000004.53309
10.151102999999999 -0.7666666666666667 -3.0 5000004.53309
10.158127666666667 -2.0 -3.0 5000004.74383
10.147819666666667 1.6666666666666667 -3.033333333333333 5000004.43459
10.147819666666667 1.6333333333333333 -3.033333333333333 5000004.43459
10.158127666666667 0.9 -3.033333333333333 5000004.74383
10.169981333333334 0.6666666666666666 -3.033333333333333 5000005.09944
10.1528 0.06666666666666667 -3.033333333333333 5000004.584
10.1528 0.03333333333333333 -3.033333333333333 5000004.584
10.1528 0.0 -3.033333333333333 5000004.584
10.1528 -0.5333333333333333 -3.033333333333333 5000004.584
10.151102999999999 -0.7666666666666667 -3.033333333333333 5000004.53309
10.159987333333333 -1.3666666666666667 -3.033333333333333 5000004.79962
10.163840333333333 -2.8666666666666667 -3.033333333333333 5000004.91521
10.163840333333333 1.7666666666666666 -3.066666666666667 5000004.91521
10.147819666666667 1.6666666666666667 -3.066666666666667 5000004.43459
10.147819666666667 1.6333333333333333 -3.066666666666667 5000004.43459
10.154535666666666 0.7666666666666667 -3.066666666666667 5000004.63607
10.149443333333334 0.4 -3.066666666666667 5000004.4833
10.1528 0.0 -3.066666666666667 5000004.584
10.1528 -0.03333333333333333 -3.066666666666667 5000004.584
10.159987333333333 -0.3 -3.066666666666667 5000004.79962
10.1528 -0.6 -3.066666666666667 5000004.584
10.165837333333334 -1.3 -3.066666666666667 5000004.97512
10.165837333333334 -1.3333333333333333 -3.066666666666667 5000004.97512
10.158127666666667 -1.4 -3.066666666666667 5000004.74383
10.158127666666667 -1.4333333333333333 -3.066666666666667 5000004.74383
10.154535666666666 -1.4666666666666666 -3.066666666666667 5000004.63607
10.163840333333333 -2.8666666666666667 -3.066666666666667 5000004.91521
10.163840333333333 -2.9 -3.066666666666667 5000004.91521
10.146231 1.6333333333333333 -3.1 5000004.38693
10.1528 -0.6 -3.1 5000004.584
10.1528 -0.6333333333333333 -3.1 5000004.584
10.165837333333334 -1.1 -3.1 5000004.97512
10.165837333333334 -1.1333333333333333 -3.1 5000004.97512
10.146231 1.6 -3.1333333333333333 5000004.38693
10.154535666666666 1.5333333333333334 -3.1333333333333333 5000004.63607
10.167883666666667 0.6666666666666666 -3.1333333333333333 5000005.03651
10.167883666666667 0.6333333333333333 -3.1333333333333333 5000005.03651
10.149443333333334 0.43333333333333335 -3.1333333333333333 5000004.4833
10.149443333333334 0.4 -3.1333333333333333 5000004.4833
10.158127666666667 -0.5333333333333333 -3.1333333333333333 5000004.74383
10.1528 -0.6 -3.1333333333333333 5000004.584
10.1528 -0.6333333333333333 -3.1333333333333333 5000004.584
10.172132 2.7666666666666666 -3.1666666666666665 5000005.16396
10.159987333333333 2.566666666666667 -3.1666666666666665 5000004.79962
10.154535666666666 1.5 -3.1666666666666665 5000004.63607
10.154535666666666 1.4333333333333333 -3.1666666666666665 5000004.63607
10.151102999999999 1.2 -3.1666666666666665 5000004.53309
10.149443333333334 0.43333333333333335 -3.1666666666666665 5000004.4833
10.158127666666667 -0.5333333333333333 -3.1666666666666665 5000004.74383
10.1528 -0.5666666666666667 -3.1666666666666665 5000004.584
10.149443333333334 -1.2333333333333334 -3.1666666666666665 5000004.4833
10.159987333333333 2.566666666666667 -3.2 5000004.79962
10.159987333333333 2.533333333333333 -3.2 5000004.79962
10.156311 0.3 -3.2 5000004.68933
10.156311 0.23333333333333334 -3.2 5000004.68933
10.158127666666667 -0.7333333333333333 -3.2 5000004.74383
10.161891 -0.7666666666666667 -3.2 5000004.85673
10.163840333333333 -1.0666666666666667 -3.2 5000004.91521
10.149443333333334 -1.2333333333333334 -3.2 5000004.4833
10.149443333333334 -1.2666666666666666 -3.2 5000004.4833
10.159987333333333 -1.5333333333333334 -3.2 5000004.79962
10.159987333333333 -1.5666666666666667 -3.2 5000004.79962
10.151102999999999 -1.6666666666666667 -3.2 5000004.53309
10.159987333333333 0.9 -3.2333333333333334 5000004.79962
10.159987333333333 0.8666666666666667 -3.2333333333333334 5000004.79962
10.146231 0.7 -3.2333333333333334 5000004.38693
10.156311 0.3 -3.2333333333333334 5000004.68933
10.156311 0.26666666666666666 -3.2333333333333334 5000004.68933
10.161891 -0.6666666666666666 -3.2333333333333334 5000004.85673
10.161891 -0.7666666666666667 -3.2333333333333334 5000004.85673
10.156311 -0.8 -3.2333333333333334 5000004.68933
10.156311 -0.8666666666666667 -3.2333333333333334 5000004.68933
10.156311 -0.9 -3.2333333333333334 5000004.68933
10.156311 -0.9333333333333333 -3.2333333333333334 5000004.68933
10.149443333333334 -1.1666666666666667 -3.2333333333333334 5000004.4833
10.151102999999999 -1.6666666666666667 -3.2333333333333334 5000004.53309
10.151102999999999 -1.7 -3.2333333333333334 5000004.53309
10.151102999999999 -1.7333333333333334 -3.2333333333333334 5000004.53309
10.146231 2.6666666666666665 -3.2666666666666666 5000004.38693
10.146231 2.6333333333333333 -3.2666666666666666 5000004.38693
10.151102999999999 1.6 -3.2666666666666666 5000004.53309
10.1528 1.0333333333333334 -3.2666666666666666 5000004.584
10.159987333333333 0.8333333333333334 -3.2666666666666666 5000004.79962
10.146231 0.7 -3.2666666666666666 5000004.38693
10.156311 0.26666666666666666 -3.2666666666666666 5000004.68933
10.156311 -0.8666666666666667 -3.2666666666666666 5000004.68933
10.156311 -0.9 -3.2666666666666666 5000004.68933
10.156311 -0.9333333333333333 -3.2666666666666666 5000004.68933
10.149443333333334 -1.0333333333333334 -3.2666666666666666 5000004.4833
10.151102999999999 -1.7 -3.2666666666666666 5000004.53309
10.146231 2.6666666666666665 -3.3 5000004.38693
10.146231 2.6333333333333333 -3.3 5000004.38693
10.151102999999999 1.6 -3.3 5000004.53309
10.1528 1.0 -3.3 5000004.584
10.146231 0.7 -3.3 5000004.38693
10.1528 0.23333333333333334 -3.3 5000004.584
10.1528 0.16666666666666666 -3.3 5000004.584
10.154535666666666 0.13333333333333333 -3.3 5000004.63607
10.147819666666667 0.1 -3.3 5000004.43459
10.147819666666667 0.03333333333333333 -3.3 5000004.43459
10.159987333333333 -0.13333333333333333 -3.3 5000004.79962
10.159987333333333 -0.16666666666666666 -3.3 5000004.79962
10.147819666666667 -0.3 -3.3 5000004.43459
10.156311 -0.8666666666666667 -3.3 5000004.68933
10.156311 -0.9 -3.3 5000004.68933
10.156311 -0.9333333333333333 -3.3 5000004.68933
10.1528 1.7 -3.3333333333333335 5000004.584
10.151102999999999 1.5333333333333334 -3.3333333333333335 5000004.53309
10.146231 0.9 -3.3333333333333335 5000004.38693
10.146231 0.7 -3.3333333333333335 5000004.38693
10.1528 0.16666666666666666 -3.3333333333333335 5000004.584
10.147819666666667 0.03333333333333333 -3.3333333333333335 5000004.43459
10.147819666666667 0.0 -3.3333333333333335 5000004.43459
10.149443333333334 -0.9 -3.3333333333333335 5000004.4833
10.149443333333334 -1.0666666666666667 -3.3333333333333335 5000004.4833
10.144676 2.6666666666666665 -3.3666666666666667 5000004.34028
10.149443333333334 2.5 -3.3666666666666667 5000004.4833
10.146231 0.9333333333333333 -3.3666666666666667 5000004.38693
10.146231 0.9 -3.3666666666666667 5000004.38693
10.158127666666667 2.566666666666667 -3.4 5000004.74383
10.154535666666666 2.2 -3.4 5000004.63607
10.1528 2.1666666666666665 -3.4 5000004.584
10.1528 2.1 -3.4 5000004.584
10.154535666666666 1.8 -3.4 5000004.63607
10.1528 1.7666666666666666 -3.4 5000004.584
10.146231 1.4 -3.4 5000004.38693
10.158127666666667 1.0333333333333334 -3.4 5000004.74383
10.146231 0.9333333333333333 -3.4 5000004.38693
10.146231 0.9 -3.4 5000004.38693
10.146231 0.8666666666666667 -3.4 5000004.38693
10.156311 -0.1 -3.4 5000004.68933
10.158127666666667 2.433333333333333 -3.433333333333333 5000004.74383
10.156311 2.3333333333333335 -3.433333333333333 5000004.68933
10.1528 2.1666666666666665 -3.433333333333333 5000004.584
10.1528 2.1 -3.433333333333333 5000004.584
10.154535666666666 1.7666666666666666 -3.433333333333333 5000004.63607
10.1528 1.7333333333333334 -3.433333333333333 5000004.584
10.146231 1.3666666666666667 -3.433333333333333 5000004.38693
10.165837333333334 1.2 -3.433333333333333 5000004.97512
10.165837333333334 1.1666666666666667 -3.433333333333333 5000004.97512
10.163840333333333 1.1333333333333333 -3.433333333333333 5000004.91521
10.161891 1.1 -3.433333333333333 5000004.85673
10.161891 1.0666666666666667 -3.433333333333333 5000004.85673
10.144676 0.9333333333333333 -3.433333333333333 5000004.34028
10.144676 0.9 -3.433333333333333 5000004.34028
10.146231 0.8666666666666667 -3.433333333333333 5000004.38693
10.144676 0.8 -3.433333333333333 5000004.34028
10.134653 0.6333333333333333 -3.433333333333333 5000004.03959
10.1528 0.06666666666666667 -3.433333333333333 5000004.584
10.151102999999999 -0.2 -3.433333333333333 5000004.53309
10.144676 -1.1333333333333333 -3.433333333333333 5000004.34028
10.151102999999999 2.3 -3.466666666666667 5000004.53309
10.154535666666666 1.6666666666666667 -3.466666666666667 5000004.63607
10.144676 0.9 -3.466666666666667 5000004.34028
10.144676 -1.1333333333333333 -3.466666666666667 5000004.34028
10.151102999999999 2.3 -3.5 5000004.53309
10.151102999999999 2.2666666666666666 -3.5 5000004.53309
10.151102999999999 2.2333333333333334 -3.5 5000004.53309
10.159987333333333 2.0 -3.5 5000004.79962
10.151102999999999 0.4666666666666667 -3.5 5000004.53309
10.156311 2.466666666666667 -3.533333333333333 5000004.68933
10.156311 2.433333333333333 -3.533333333333333 5000004.68933
10.151102999999999 2.2333333333333334 -3.533333333333333 5000004.53309
10.141663 1.8666666666666667 -3.533333333333333 5000004.24989
10.141663 1.8333333333333333 -3.533333333333333 5000004.24989
10.154535666666666 1.7333333333333334 -3.533333333333333 5000004.63607
10.143153666666667 1.6 -3.533333333333333 5000004.29461
10.149443333333334 -2.466666666666667 -3.533333333333333 5000004.4833
10.186271666666666 -15.3 -3.533333333333333 5000005.58815
10.143153666666667 2.7333333333333334 -3.566666666666667 5000004.29461
10.156311 2.433333333333333 -3.566666666666667 5000004.68933
10.141663 1.8666666666666667 -3.566666666666667 5000004.24989
10.141663 1.8333333333333333 -3.566666666666667 5000004.24989
10.143153666666667 1.6 -3.566666666666667 5000004.29461
10.1528 2.3666666666666667 -3.6 5000004.584
10.141663 1.8333333333333333 -3.6 5000004.24989
10.143153666666667 1.6 -3.6 5000004.29461
10.143153666666667 1.5666666666666667 -3.6 5000004.29461
10.140203333333334 -0.4 -3.6 5000004.2061
10.149443333333334 -2.3666666666666667 -3.6 5000004.4833
10.149443333333334 -2.4 -3.6 5000004.4833
