VERSION .7
FIELDS x y z rgb
SIZE 4 4 4 4
TYPE F F F F
COUNT 1 1 1 1
WIDTH 1534
HEIGHT 1
VIEWPOINT 0 0 0 1 0 0 0
POINTS 1534
DATA ascii
7.8529680000000015 3.44 3.36 6.08828
7.8529680000000015 3.42 3.36 6.08828
7.7992799999999995 3.68 3.34 5.9988
7.7992799999999995 3.66 3.34 5.9988
7.8529680000000015 3.44 3.34 6.08828
7.8529680000000015 3.42 3.34 6.08828
7.7992799999999995 3.68 3.32 5.9988
7.7992799999999995 3.66 3.32 5.9988
8.64939 3.6 3.32 7.41565
7.8529680000000015 3.44 3.32 6.08828
7.8529680000000015 3.42 3.32 6.08828
7.7992799999999995 3.68 3.3 5.9988
7.7992799999999995 3.66 3.3 5.9988
8.64939 3.6 3.3 7.41565
7.8529680000000015 3.44 3.3 6.08828
7.8529680000000015 3.42 3.3 6.08828
7.8529680000000015 2.84 3.3 6.08828
7.7992799999999995 3.68 3.28 5.9988
7.7992799999999995 3.66 3.28 5.9988
7.8529680000000015 3.42 3.28 6.08828
7.965294 3.06 3.28 6.27549
7.965294 3.04 3.28 6.27549
7.8529680000000015 2.94 3.28 6.08828
7.8529680000000015 2.92 3.28 6.08828
7.8529680000000015 2.9 3.28 6.08828
7.8529680000000015 2.88 3.28 6.08828
7.8529680000000015 2.86 3.28 6.08828
7.7992799999999995 2.82 3.28 5.9988
7.7992799999999995 3.68 3.26 5.9988
7.7992799999999995 3.66 3.26 5.9988
8.024094 3.28 3.26 6.37349
7.8529680000000015 3.26 3.26 6.08828
7.8529680000000015 3.24 3.26 6.08828
7.908282 3.22 3.26 6.18047
7.908282 3.2 3.26 6.18047
7.908282 3.18 3.26 6.18047
7.908282 3.16 3.26 6.18047
7.908282 3.14 3.26 6.18047
7.965294 3.12 3.26 6.27549
7.965294 3.1 3.26 6.27549
7.965294 3.08 3.26 6.27549
7.965294 3.06 3.26 6.27549
7.7992799999999995 2.8 3.26 5.9988
7.7992799999999995 2.78 3.26 5.9988
7.8529680000000015 3.72 3.24 6.08828
7.8529680000000015 3.7 3.24 6.08828
7.8529680000000015 3.68 3.24 6.08828
7.8529680000000015 3.66 3.24 6.08828
7.965294 3.38 3.24 6.27549
8.024094 3.36 3.24 6.37349
8.024094 3.34 3.24 6.37349
8.024094 3.32 3.24 6.37349
8.024094 3.3 3.24 6.37349
7.8529680000000015 3.26 3.24 6.08828
7.7992799999999995 2.8 3.24 5.9988
7.7992799999999995 2.78 3.24 5.9988
7.908282 4.08 3.22 6.18047
7.8529680000000015 3.94 3.22 6.08828
7.8529680000000015 3.92 3.22 6.08828
7.8529680000000015 3.9 3.22 6.08828
7.8529680000000015 3.88 3.22 6.08828
7.908282 3.86 3.22 6.18047
7.908282 3.84 3.22 6.18047
7.908282 3.82 3.22 6.18047
8.024094 3.8 3.22 6.37349
8.024094 3.78 3.22 6.37349
8.024094 3.76 3.22 6.37349
8.024094 3.74 3.22 6.37349
7.908282 3.72 3.22 6.18047
7.8529680000000015 3.7 3.22 6.08828
8.347944 2.9 3.22 6.91324
7.7992799999999995 2.8 3.22 5.9988
7.7992799999999995 2.78 3.22 5.9988
7.908282 4.12 3.2 6.18047
7.908282 4.1 3.2 6.18047
8.024094 3.98 3.2 6.37349
8.024094 3.8 3.2 6.37349
8.024094 3.78 3.2 6.37349
7.965294 3.42 3.2 6.27549
8.347944 2.9 3.2 6.91324
7.7992799999999995 2.82 3.2 5.9988
7.7992799999999995 2.8 3.2 5.9988
7.7992799999999995 2.78 3.2 5.9988
7.908282 4.12 3.18 6.18047
7.908282 4.1 3.18 6.18047
7.7992799999999995 2.82 3.18 5.9988
7.7992799999999995 2.8 3.18 5.9988
7.7992799999999995 2.78 3.18 5.9988
7.908282 4.12 3.16 6.18047
7.908282 4.1 3.16 6.18047
7.8529680000000015 2.82 3.16 6.08828
7.8529680000000015 2.8 3.16 6.08828
7.908282 4.12 3.14 6.18047
7.908282 4.1 3.14 6.18047
7.8529680000000015 3.68 3.14 6.08828
7.8529680000000015 2.82 3.14 6.08828
7.8529680000000015 2.8 3.14 6.08828
7.8529680000000015 2.78 3.14 6.08828
7.908282 4.12 3.12 6.18047
7.908282 4.1 3.12 6.18047
7.8529680000000015 3.36 3.12 6.08828
7.8529680000000015 3.34 3.12 6.08828
10.472879999999998 3.22 3.12 10.4548
7.8529680000000015 2.82 3.12 6.08828
7.8529680000000015 2.8 3.12 6.08828
7.8529680000000015 2.78 3.12 6.08828
7.908282 4.12 3.1 6.18047
7.908282 4.1 3.1 6.18047
7.8529680000000015 3.4 3.1 6.08828
7.8529680000000015 3.36 3.1 6.08828
7.8529680000000015 3.34 3.1 6.08828
7.8529680000000015 2.82 3.1 6.08828
7.8529680000000015 2.8 3.1 6.08828
7.8529680000000015 2.78 3.1 6.08828
7.908282 4.12 3.08 6.18047
7.908282 4.1 3.08 6.18047
8.084754 3.42 3.08 6.47459
7.8529680000000015 3.36 3.08 6.08828
7.8529680000000015 3.32 3.08 6.08828
7.8529680000000015 2.82 3.08 6.08828
7.8529680000000015 2.8 3.08 6.08828
7.8529680000000015 2.78 3.08 6.08828
7.908282 4.12 3.06 6.18047
7.908282 4.1 3.06 6.18047
7.8529680000000015 3.66 3.06 6.08828
7.8529680000000015 3.64 3.06 6.08828
7.8529680000000015 2.82 3.06 6.08828
7.8529680000000015 2.8 3.06 6.08828
7.8529680000000015 2.78 3.06 6.08828
7.908282 4.12 3.04 6.18047
7.908282 4.1 3.04 6.18047
7.8529680000000015 2.82 3.04 6.08828
7.8529680000000015 2.8 3.04 6.08828
7.8529680000000015 2.78 3.04 6.08828
7.8529680000000015 4.12 3.02 6.08828
7.8529680000000015 4.1 3.02 6.08828
7.8529680000000015 3.68 3.02 6.08828
7.8529680000000015 2.8 3.02 6.08828
7.8529680000000015 2.78 3.02 6.08828
7.8529680000000015 4.12 3.0 6.08828
7.8529680000000015 4.1 3.0 6.08828
7.8529680000000015 3.42 3.0 6.08828
7.8529680000000015 2.8 3.0 6.08828
7.8529680000000015 2.78 3.0 6.08828
7.8529680000000015 4.12 2.98 6.08828
7.8529680000000015 4.1 2.98 6.08828
7.7992799999999995 2.8 2.98 5.9988
7.7992799999999995 2.78 2.98 5.9988
7.8529680000000015 4.12 2.96 6.08828
7.8529680000000015 4.1 2.96 6.08828
7.463532 4.02 2.96 5.43922
7.149126 3.94 2.96 4.91521
7.149126 3.92 2.96 4.91521
7.7992799999999995 2.8 2.96 5.9988
7.7992799999999995 2.78 2.96 5.9988
7.7992799999999995 4.12 2.94 5.9988
7.7992799999999995 4.1 2.94 5.9988
7.463532 4.02 2.94 5.43922
7.149126 3.94 2.94 4.91521
7.149126 3.92 2.94 4.91521
7.149126 3.9 2.94 4.91521
7.7992799999999995 2.8 2.94 5.9988
7.7992799999999995 2.78 2.94 5.9988
7.8529680000000015 4.12 2.92 6.08828
7.8529680000000015 4.1 2.92 6.08828
7.463532 4.02 2.92 5.43922
7.463532 4.0 2.92 5.43922
7.965294 2.98 2.92 6.27549
7.965294 2.96 2.92 6.27549
7.965294 2.94 2.92 6.27549
7.965294 2.92 2.92 6.27549
7.965294 2.9 2.92 6.27549
7.965294 2.88 2.92 6.27549
7.908282 2.86 2.92 6.18047
7.8529680000000015 2.84 2.92 6.08828
7.7992799999999995 2.82 2.92 5.9988
7.7992799999999995 2.8 2.92 5.9988
7.7992799999999995 2.78 2.92 5.9988
7.7992799999999995 4.14 2.9 5.9988
7.7992799999999995 4.12 2.9 5.9988
7.7992799999999995 4.1 2.9 5.9988
7.908282 3.38 2.9 6.18047
7.908282 3.36 2.9 6.18047
7.908282 3.34 2.9 6.18047
7.965294 3.32 2.9 6.27549
7.965294 3.3 2.9 6.27549
7.965294 3.28 2.9 6.27549
7.965294 3.26 2.9 6.27549
8.084754 3.24 2.9 6.47459
8.084754 3.22 2.9 6.47459
8.084754 3.2 2.9 6.47459
8.147369999999999 3.18 2.9 6.57895
7.908282 3.16 2.9 6.18047
7.908282 3.14 2.9 6.18047
7.908282 3.12 2.9 6.18047
7.908282 3.1 2.9 6.18047
7.908282 3.08 2.9 6.18047
7.965294 3.06 2.9 6.27549
7.965294 3.04 2.9 6.27549
7.965294 3.02 2.9 6.27549
7.965294 3.0 2.9 6.27549
7.965294 2.98 2.9 6.27549
7.965294 2.96 2.9 6.27549
7.965294 2.94 2.9 6.27549
7.965294 2.92 2.9 6.27549
7.965294 2.9 2.9 6.27549
7.965294 2.88 2.9 6.27549
7.908282 2.86 2.9 6.18047
7.8529680000000015 2.84 2.9 6.08828
7.7992799999999995 2.82 2.9 5.9988
7.7992799999999995 2.8 2.9 5.9988
7.7992799999999995 4.12 2.88 5.9988
7.696506 3.74 2.88 5.82751
7.599432 3.72 2.88 5.66572
7.599432 3.7 2.88 5.66572
7.8529680000000015 3.42 2.88 6.08828
7.8529680000000015 3.4 2.88 6.08828
7.8529680000000015 3.38 2.88 6.08828
7.908282 3.36 2.88 6.18047
7.908282 3.34 2.88 6.18047
7.965294 3.32 2.88 6.27549
7.965294 3.3 2.88 6.27549
7.965294 3.28 2.88 6.27549
7.965294 3.26 2.88 6.27549
8.084754 3.24 2.88 6.47459
8.084754 3.22 2.88 6.47459
8.084754 3.2 2.88 6.47459
8.147369999999999 3.18 2.88 6.57895
7.908282 3.16 2.88 6.18047
7.908282 3.14 2.88 6.18047
7.747145999999999 4.12 2.86 5.91191
7.747145999999999 4.1 2.86 5.91191
7.696506 4.08 2.86 5.82751
7.7992799999999995 3.84 2.86 5.9988
7.7992799999999995 3.82 2.86 5.9988
7.7992799999999995 3.8 2.86 5.9988
7.7992799999999995 3.78 2.86 5.9988
7.7992799999999995 3.76 2.86 5.9988
7.696506 3.74 2.86 5.82751
7.599432 3.72 2.86 5.66572
7.599432 3.7 2.86 5.66572
7.8529680000000015 3.42 2.86 6.08828
7.8529680000000015 3.4 2.86 6.08828
7.8529680000000015 3.38 2.86 6.08828
7.696506 4.1 2.84 5.82751
7.696506 4.08 2.84 5.82751
7.599432 4.06 2.84 5.66572
7.507607999999999 4.04 2.84 5.51268
7.7992799999999995 3.84 2.84 5.9988
7.7992799999999995 3.82 2.84 5.9988
7.7992799999999995 3.8 2.84 5.9988
7.8529680000000015 3.42 2.84 6.08828
7.8529680000000015 3.4 2.84 6.08828
7.507607999999999 4.04 2.82 5.51268
7.507607999999999 4.02 2.82 5.51268
8.905884 3.64 2.82 7.84314
8.905884 3.62 2.82 7.84314
7.8529680000000015 3.42 2.82 6.08828
7.8529680000000015 3.4 2.82 6.08828
7.507607999999999 4.04 2.8 5.51268
7.507607999999999 4.02 2.8 5.51268
7.463532 3.98 2.8 5.43922
8.493384 3.96 2.8 7.15564
8.905884 3.62 2.8 7.84314
7.7992799999999995 3.42 2.8 5.9988
7.7992799999999995 3.4 2.8 5.9988
7.507607999999999 4.04 2.78 5.51268
7.507607999999999 4.02 2.78 5.51268
8.493384 3.96 2.78 7.15564
8.27886 3.52 2.78 6.7981
7.7992799999999995 3.4 2.78 5.9988
7.507607999999999 4.04 2.76 5.51268
7.507607999999999 4.02 2.76 5.51268
7.965294 3.74 2.76 6.27549
7.7992799999999995 3.4 2.76 5.9988
7.507607999999999 4.04 2.74 5.51268
7.507607999999999 4.02 2.74 5.51268
7.908282 3.72 2.74 6.18047
7.747145999999999 3.66 2.74 5.91191
7.747145999999999 3.38 2.74 5.91191
7.507607999999999 4.04 2.72 5.51268
7.507607999999999 4.02 2.72 5.51268
7.747145999999999 3.68 2.72 5.91191
7.747145999999999 3.36 2.72 5.91191
7.507607999999999 4.04 2.7 5.51268
7.507607999999999 4.02 2.7 5.51268
7.507607999999999 4.04 2.68 5.51268
7.507607999999999 4.02 2.68 5.51268
7.8529680000000015 3.34 2.68 6.08828
7.507607999999999 4.04 2.66 5.51268
7.507607999999999 4.02 2.66 5.51268
9.297708 3.6 2.66 8.49618
7.8529680000000015 3.32 2.66 6.08828
7.507607999999999 4.04 2.64 5.51268
7.507607999999999 4.02 2.64 5.51268
7.8529680000000015 3.3 2.64 6.08828
7.8529680000000015 3.28 2.62 6.08828
7.908282 3.28 2.6 6.18047
8.147369999999999 3.72 2.58 6.57895
7.908282 3.26 2.58 6.18047
7.552889999999999 3.94 2.56 5.58815
8.147369999999999 3.72 2.56 6.57895
7.8529680000000015 3.52 2.56 6.08828
7.908282 3.24 2.56 6.18047
8.024094 3.24 2.54 6.37349
8.024094 3.28 2.52 6.37349
7.965294 3.68 2.48 6.27549
8.147369999999999 3.62 2.48 6.57895
8.024094 3.2 2.48 6.37349
8.024094 3.18 2.48 6.37349
7.6472880000000005 3.84 2.46 5.74548
7.965294 3.68 2.46 6.27549
8.084754 3.2 2.46 6.47459
8.084754 3.18 2.46 6.47459
7.965294 3.68 2.44 6.27549
9.193757999999999 3.38 2.44 8.32293
8.084754 3.18 2.44 6.47459
9.093966 3.36 2.42 8.15661
8.084754 3.18 2.42 6.47459
8.084754 3.18 2.4 6.47459
7.7992799999999995 3.76 2.38 5.9988
7.7992799999999995 3.4 2.38 5.9988
8.084754 3.18 2.38 6.47459
7.7992799999999995 3.74 2.36 5.9988
7.7992799999999995 3.42 2.36 5.9988
7.7992799999999995 3.4 2.36 5.9988
8.99808 3.68 2.34 7.9968
7.7992799999999995 3.42 2.34 5.9988
7.7992799999999995 3.4 2.34 5.9988
8.347944 3.24 2.34 6.91324
8.99808 3.66 2.32 7.9968
7.7992799999999995 3.42 2.32 5.9988
7.7992799999999995 3.4 2.32 5.9988
8.024094 3.18 2.32 6.37349
8.99808 3.64 2.3 7.9968
7.7992799999999995 3.42 2.3 5.9988
7.7992799999999995 3.4 2.3 5.9988
8.99808 3.66 2.28 7.9968
8.817162000000001 3.62 2.28 7.69527
7.7992799999999995 3.42 2.28 5.9988
7.7992799999999995 3.4 2.28 5.9988
8.905884 3.32 2.28 7.84314
7.7992799999999995 3.66 2.26 5.9988
7.7992799999999995 3.42 2.26 5.9988
7.7992799999999995 3.4 2.26 5.9988
7.7992799999999995 3.66 2.24 5.9988
8.817162000000001 3.6 2.24 7.69527
7.7992799999999995 3.4 2.24 5.9988
8.084754 3.18 2.24 6.47459
7.7992799999999995 3.66 2.22 5.9988
8.817162000000001 3.6 2.22 7.69527
7.7992799999999995 3.4 2.22 5.9988
8.347944 3.26 2.22 6.91324
8.084754 3.18 2.22 6.47459
7.7992799999999995 3.66 2.2 5.9988
7.7992799999999995 3.4 2.2 5.9988
8.347944 3.24 2.2 6.91324
8.084754 3.18 2.2 6.47459
7.8529680000000015 3.66 2.18 6.08828
7.7992799999999995 3.4 2.18 5.9988
8.347944 3.24 2.18 6.91324
8.084754 3.18 2.18 6.47459
7.8529680000000015 3.66 2.16 6.08828
7.7992799999999995 3.4 2.16 5.9988
8.147369999999999 3.2 2.16 6.57895
8.084754 3.18 2.16 6.47459
7.8529680000000015 3.66 2.14 6.08828
7.7992799999999995 3.4 2.14 5.9988
8.084754 3.18 2.14 6.47459
7.8529680000000015 3.66 2.12 6.08828
7.7992799999999995 3.4 2.12 5.9988
8.147369999999999 3.18 2.12 6.57895
7.8529680000000015 3.66 2.1 6.08828
7.7992799999999995 3.4 2.1 5.9988
7.8529680000000015 3.66 2.08 6.08828
7.7992799999999995 3.4 2.08 5.9988
7.8529680000000015 3.66 2.06 6.08828
7.7992799999999995 3.4 2.06 5.9988
7.8529680000000015 3.66 2.04 6.08828
7.7992799999999995 3.4 2.04 5.9988
7.8529680000000015 3.66 2.02 6.08828
7.7992799999999995 3.4 2.02 5.9988
7.7992799999999995 3.38 2.02 5.9988
7.8529680000000015 3.66 2.0 6.08828
7.7992799999999995 3.4 2.0 5.9988
7.8529680000000015 3.66 1.98 6.08828
7.7992799999999995 3.4 1.98 5.9988
7.8529680000000015 3.66 1.96 6.08828
7.7992799999999995 3.4 1.96 5.9988
7.8529680000000015 3.66 1.94 6.08828
7.7992799999999995 3.4 1.94 5.9988
7.8529680000000015 3.66 1.92 6.08828
7.7992799999999995 3.4 1.92 5.9988
7.8529680000000015 3.66 1.9 6.08828
7.7992799999999995 3.4 1.9 5.9988
7.7992799999999995 3.38 1.9 5.9988
7.8529680000000015 3.66 1.88 6.08828
7.7992799999999995 3.4 1.88 5.9988
7.7992799999999995 3.38 1.88 5.9988
7.8529680000000015 3.66 1.86 6.08828
7.7992799999999995 3.38 1.86 5.9988
7.8529680000000015 3.66 1.84 6.08828
7.7992799999999995 3.38 1.84 5.9988
7.8529680000000015 3.66 1.82 6.08828
7.747145999999999 3.38 1.82 5.91191
7.7992799999999995 3.66 1.8 5.9988
7.747145999999999 3.38 1.8 5.91191
7.7992799999999995 3.66 1.78 5.9988
7.747145999999999 3.38 1.78 5.91191
7.7992799999999995 3.66 1.76 5.9988
7.747145999999999 3.38 1.76 5.91191
7.7992799999999995 3.66 1.74 5.9988
7.747145999999999 3.38 1.74 5.91191
7.7992799999999995 3.66 1.72 5.9988
7.747145999999999 3.38 1.72 5.91191
7.7992799999999995 3.66 1.7 5.9988
7.747145999999999 3.38 1.7 5.91191
7.747145999999999 3.38 1.68 5.91191
7.7992799999999995 3.66 1.64 5.9988
7.7992799999999995 3.66 1.62 5.9988
7.7992799999999995 3.4 1.62 5.9988
7.8529680000000015 3.66 1.56 6.08828
7.8529680000000015 3.4 1.56 6.08828
34.65684 2.06 1.56 50.7614
7.8529680000000015 3.66 1.54 6.08828
7.8529680000000015 3.4 1.54 6.08828
34.65684 2.06 1.54 50.7614
7.8529680000000015 3.66 1.52 6.08828
7.7992799999999995 3.4 1.52 5.9988
22.97934 5.64 1.5 31.2989
7.7992799999999995 3.4 1.5 5.9988
22.97934 5.64 1.48 31.2989
7.7992799999999995 3.4 1.48 5.9988
22.97934 5.66 1.46 31.2989
22.97934 5.64 1.46 31.2989
7.8529680000000015 3.66 1.46 6.08828
7.7992799999999995 3.4 1.46 5.9988
22.97934 5.66 1.44 31.2989
22.97934 5.64 1.44 31.2989
7.8529680000000015 3.66 1.44 6.08828
7.7992799999999995 3.4 1.44 5.9988
7.7992799999999995 3.38 1.44 5.9988
38.9826 2.1 1.44 57.971
22.97934 5.66 1.42 31.2989
22.97934 5.64 1.42 31.2989
7.8529680000000015 3.66 1.42 6.08828
7.7992799999999995 3.4 1.42 5.9988
7.7992799999999995 3.38 1.42 5.9988
22.97934 5.76 1.4 31.2989
22.97934 5.66 1.4 31.2989
22.97934 5.64 1.4 31.2989
24.53898 5.24 1.4 33.8983
7.8529680000000015 3.66 1.4 6.08828
7.7992799999999995 3.4 1.4 5.9988
7.7992799999999995 3.38 1.4 5.9988
22.97934 5.64 1.38 31.2989
24.53898 5.24 1.38 33.8983
24.53898 5.02 1.38 33.8983
7.8529680000000015 3.68 1.38 6.08828
7.8529680000000015 3.66 1.38 6.08828
7.7992799999999995 3.38 1.38 5.9988
24.53898 5.24 1.36 33.8983
24.53898 5.02 1.36 33.8983
7.8529680000000015 3.66 1.36 6.08828
7.7992799999999995 3.38 1.36 5.9988
24.53898 5.02 1.34 33.8983
7.8529680000000015 3.66 1.34 6.08828
7.7992799999999995 3.38 1.34 5.9988
22.97934 5.64 1.32 31.2989
7.7992799999999995 3.38 1.32 5.9988
38.9826 2.1 1.32 57.971
22.97934 5.66 1.3 31.2989
22.97934 5.64 1.3 31.2989
7.7992799999999995 3.38 1.3 5.9988
38.9826 2.1 1.3 57.971
22.97934 5.66 1.28 31.2989
22.97934 5.64 1.28 31.2989
7.7992799999999995 3.38 1.28 5.9988
22.97934 5.66 1.26 31.2989
22.97934 5.64 1.26 31.2989
24.53898 5.24 1.26 33.8983
22.97934 5.02 1.26 31.2989
22.97934 5.0 1.26 31.2989
52.78302 4.08 1.26 80.9717
7.7992799999999995 3.66 1.26 5.9988
7.7992799999999995 3.38 1.26 5.9988
22.97934 5.66 1.24 31.2989
22.97934 5.64 1.24 31.2989
24.53898 5.24 1.24 33.8983
7.7992799999999995 3.66 1.24 5.9988
22.97934 5.64 1.22 31.2989
24.53898 5.24 1.22 33.8983
22.97934 5.02 1.22 31.2989
7.7992799999999995 3.66 1.22 5.9988
7.7992799999999995 3.38 1.22 5.9988
22.97934 5.64 1.2 31.2989
38.9826 5.56 1.2 57.971
24.53898 5.24 1.2 33.8983
22.97934 5.02 1.2 31.2989
7.7992799999999995 3.66 1.2 5.9988
22.97934 5.64 1.18 31.2989
24.53898 5.24 1.18 33.8983
7.7992799999999995 3.66 1.18 5.9988
22.97934 5.64 1.16 31.2989
24.53898 5.24 1.16 33.8983
7.7992799999999995 3.66 1.16 5.9988
24.53898 5.24 1.14 33.8983
7.7992799999999995 3.66 1.14 5.9988
24.53898 5.24 1.12 33.8983
7.7992799999999995 3.66 1.12 5.9988
24.53898 5.24 1.1 33.8983
22.97934 5.0 1.1 31.2989
7.7992799999999995 3.66 1.1 5.9988
24.53898 5.24 1.08 33.8983
24.53898 5.24 1.06 33.8983
22.97934 5.0 1.04 31.2989
7.747145999999999 3.66 1.02 5.91191
38.9826 5.56 1.0 57.971
7.8529680000000015 3.4 0.96 6.08828
7.8529680000000015 3.38 0.96 6.08828
38.9826 5.56 0.94 57.971
7.8529680000000015 3.4 0.94 6.08828
7.8529680000000015 3.38 0.94 6.08828
38.9826 5.56 0.92 57.971
7.7992799999999995 3.66 0.92 5.9988
7.7992799999999995 3.66 0.9 5.9988
7.7992799999999995 3.66 0.88 5.9988
7.7992799999999995 3.66 0.86 5.9988
7.8529680000000015 3.38 0.86 6.08828
7.7992799999999995 3.66 0.84 5.9988
7.8529680000000015 3.38 0.84 6.08828
7.7992799999999995 3.66 0.82 5.9988
7.7992799999999995 3.66 0.8 5.9988
7.7992799999999995 3.38 0.8 5.9988
7.7992799999999995 3.68 0.78 5.9988
7.7992799999999995 3.66 0.78 5.9988
7.7992799999999995 3.38 0.78 5.9988
7.7992799999999995 3.68 0.76 5.9988
7.7992799999999995 3.66 0.76 5.9988
7.7992799999999995 3.66 0.74 5.9988
7.7992799999999995 3.38 0.7 5.9988
7.7992799999999995 3.38 0.68 5.9988
38.9826 2.14 0.68 57.971
7.7992799999999995 3.38 0.66 5.9988
38.9826 2.14 0.66 57.971
7.7992799999999995 3.68 0.6 5.9988
7.7992799999999995 3.66 0.6 5.9988
38.9826 2.22 0.6 57.971
7.7992799999999995 3.68 0.58 5.9988
7.7992799999999995 3.66 0.58 5.9988
7.7992799999999995 3.68 0.56 5.9988
7.7992799999999995 3.66 0.56 5.9988
7.7992799999999995 3.68 0.54 5.9988
7.7992799999999995 3.66 0.54 5.9988
7.7992799999999995 3.68 0.52 5.9988
7.7992799999999995 3.66 0.52 5.9988
7.747145999999999 3.68 0.5 5.91191
7.747145999999999 3.66 0.5 5.91191
64.806 5.8 0.48 101.01
7.747145999999999 3.68 0.48 5.91191
7.747145999999999 3.66 0.48 5.91191
7.747145999999999 3.66 0.46 5.91191
7.747145999999999 3.68 0.44 5.91191
7.747145999999999 3.66 0.44 5.91191
52.78302 5.8 0.42 80.9717
7.747145999999999 3.66 0.42 5.91191
8.64939 2.74 0.42 7.41565
8.64939 2.72 0.42 7.41565
7.747145999999999 3.66 0.4 5.91191
7.747145999999999 3.68 0.38 5.91191
7.747145999999999 3.66 0.38 5.91191
7.747145999999999 3.66 0.36 5.91191
7.747145999999999 3.66 0.34 5.91191
8.99808 2.68 0.34 7.9968
8.99808 2.66 0.34 7.9968
52.78302 5.8 0.32 80.9717
7.747145999999999 3.68 0.32 5.91191
7.747145999999999 3.66 0.32 5.91191
8.99808 2.68 0.32 7.9968
8.99808 2.66 0.32 7.9968
8.64939 2.44 0.32 7.41565
8.64939 2.42 0.32 7.41565
7.747145999999999 3.68 0.3 5.91191
7.747145999999999 3.66 0.3 5.91191
8.99808 2.68 0.3 7.9968
8.99808 2.66 0.3 7.9968
8.64939 2.42 0.3 7.41565
8.64939 2.34 0.3 7.41565
7.7992799999999995 3.68 0.28 5.9988
7.7992799999999995 3.66 0.28 5.9988
8.64939 2.4 0.28 7.41565
52.78302 5.8 0.26 80.9717
7.7992799999999995 3.68 0.26 5.9988
7.7992799999999995 3.66 0.26 5.9988
8.64939 2.38 0.26 7.41565
52.78302 5.8 0.24 80.9717
7.747145999999999 3.68 0.24 5.91191
7.747145999999999 3.66 0.24 5.91191
8.64939 2.36 0.24 7.41565
7.747145999999999 3.68 0.22 5.91191
7.747145999999999 3.66 0.22 5.91191
8.64939 2.34 0.22 7.41565
7.7992799999999995 3.66 0.2 5.9988
8.64939 2.34 0.2 7.41565
8.64939 2.32 0.2 7.41565
38.9826 1.26 0.2 57.971
7.7992799999999995 3.66 0.18 5.9988
8.64939 2.32 0.18 7.41565
7.7992799999999995 3.68 0.16 5.9988
7.7992799999999995 3.66 0.16 5.9988
7.7992799999999995 3.36 0.16 5.9988
8.731722000000001 3.0 0.16 7.55287
8.64939 2.32 0.16 7.41565
8.64939 2.3 0.16 7.41565
7.7992799999999995 3.66 0.14 5.9988
8.64939 2.32 0.14 7.41565
8.64939 2.3 0.14 7.41565
34.65684 1.32 0.14 50.7614
7.7992799999999995 3.66 0.12 5.9988
8.64939 2.3 0.12 7.41565
8.64939 2.28 0.12 7.41565
7.7992799999999995 3.66 0.1 5.9988
8.64939 2.3 0.1 7.41565
8.64939 2.28 0.1 7.41565
52.78302 5.8 0.08 80.9717
7.7992799999999995 3.66 0.08 5.9988
8.731722000000001 3.02 0.08 7.55287
8.64939 2.3 0.08 7.41565
8.64939 2.28 0.08 7.41565
38.9826 0.76 0.08 57.971
52.78302 5.8 0.06 80.9717
7.7992799999999995 3.66 0.06 5.9988
8.64939 2.28 0.06 7.41565
38.9826 0.76 0.06 57.971
52.78302 5.8 0.04 80.9717
8.64939 2.28 0.04 7.41565
8.64939 2.28 0.02 7.41565
38.9826 1.52 0.02 57.971
7.7992799999999995 3.66 0.0 5.9988
8.99808 3.06 0.0 7.9968
8.99808 3.02 0.0 7.9968
8.64939 2.28 0.0 7.41565
38.9826 0.76 0.0 57.971
8.99808 3.06 -0.02 7.9968
8.99808 3.02 -0.02 7.9968
8.64939 2.28 -0.02 7.41565
7.7992799999999995 3.66 -0.04 5.9988
8.99808 3.06 -0.04 7.9968
8.64939 2.28 -0.04 7.41565
7.7992799999999995 3.66 -0.06 5.9988
8.99808 3.06 -0.06 7.9968
8.64939 2.3 -0.06 7.41565
8.64939 2.28 -0.06 7.41565
38.9826 1.52 -0.06 57.971
7.7992799999999995 3.66 -0.08 5.9988
8.64939 2.3 -0.08 7.41565
8.64939 2.28 -0.08 7.41565
7.7992799999999995 3.66 -0.1 5.9988
8.99808 3.06 -0.1 7.9968
8.731722000000001 3.04 -0.1 7.55287
8.99808 3.0 -0.1 7.9968
8.64939 2.3 -0.1 7.41565
24.53898 4.16 -0.12 33.8983
7.747145999999999 3.66 -0.12 5.91191
8.64939 3.06 -0.12 7.41565
8.731722000000001 3.04 -0.12 7.55287
8.731722000000001 3.0 -0.12 7.55287
8.64939 2.3 -0.12 7.41565
7.747145999999999 3.66 -0.14 5.91191
9.193757999999999 2.38 -0.14 8.32293
8.64939 2.3 -0.14 7.41565
38.9826 1.52 -0.14 57.971
34.65684 5.58 -0.16 50.7614
7.747145999999999 3.66 -0.16 5.91191
8.64939 3.04 -0.16 7.41565
8.64939 2.4 -0.16 7.41565
38.9826 1.52 -0.16 57.971
64.806 4.78 -0.18 101.01
8.64939 3.02 -0.18 7.41565
9.637241999999999 2.86 -0.18 9.06207
9.637241999999999 2.84 -0.18 9.06207
8.731722000000001 2.74 -0.18 7.55287
8.731722000000001 2.72 -0.18 7.55287
8.731722000000001 2.7 -0.18 7.55287
8.64939 2.6 -0.18 7.41565
38.9826 1.52 -0.18 57.971
52.78302 4.78 -0.2 80.9717
8.64939 3.02 -0.2 7.41565
8.64939 2.74 -0.2 7.41565
8.64939 2.72 -0.2 7.41565
8.64939 2.7 -0.2 7.41565
8.731722000000001 2.6 -0.2 7.55287
8.64939 2.36 -0.2 7.41565
8.64939 2.34 -0.2 7.41565
34.65684 5.58 -0.22 50.7614
8.64939 3.0 -0.22 7.41565
8.731722000000001 2.94 -0.22 7.55287
8.64939 2.74 -0.22 7.41565
8.64939 2.7 -0.22 7.41565
8.731722000000001 2.6 -0.22 7.55287
8.64939 2.36 -0.22 7.41565
8.64939 2.34 -0.22 7.41565
34.65684 5.58 -0.24 50.7614
52.78302 4.78 -0.24 80.9717
8.731722000000001 2.94 -0.24 7.55287
8.64939 2.74 -0.24 7.41565
8.64939 2.72 -0.24 7.41565
8.64939 2.7 -0.24 7.41565
8.731722000000001 2.6 -0.24 7.55287
8.64939 2.38 -0.24 7.41565
8.64939 2.36 -0.24 7.41565
34.65684 5.58 -0.26 50.7614
8.64939 2.4 -0.26 7.41565
8.64939 2.38 -0.26 7.41565
44.74056 1.52 -0.26 67.5676
34.65684 1.3 -0.26 50.7614
8.731722000000001 2.42 -0.28 7.55287
8.731722000000001 2.4 -0.28 7.55287
44.74056 1.52 -0.28 67.5676
8.731722000000001 2.88 -0.3 7.55287
8.64939 2.44 -0.3 7.41565
8.64939 2.42 -0.3 7.41565
7.747145999999999 3.64 -0.32 5.91191
8.731722000000001 2.92 -0.32 7.55287
8.731722000000001 2.46 -0.32 7.55287
8.64939 2.5 -0.34 7.41565
8.731722000000001 2.48 -0.34 7.55287
44.74056 5.16 -0.36 67.5676
7.747145999999999 3.66 -0.36 5.91191
7.747145999999999 3.66 -0.38 5.91191
7.747145999999999 3.64 -0.38 5.91191
8.64939 2.86 -0.38 7.41565
8.64939 2.84 -0.38 7.41565
52.78302 5.82 -0.4 80.9717
7.747145999999999 3.66 -0.4 5.91191
52.78302 5.7 -0.42 80.9717
7.747145999999999 3.66 -0.42 5.91191
8.64939 2.7 -0.42 7.41565
44.74056 4.96 -0.44 67.5676
7.747145999999999 3.66 -0.44 5.91191
8.64939 2.72 -0.44 7.41565
8.64939 2.7 -0.44 7.41565
8.64939 2.68 -0.44 7.41565
8.731722000000001 2.6 -0.44 7.55287
52.78302 5.88 -0.46 80.9717
7.747145999999999 3.66 -0.46 5.91191
7.7992799999999995 3.36 -0.46 5.9988
8.64939 2.7 -0.46 7.41565
8.731722000000001 2.6 -0.46 7.55287
52.78302 5.9 -0.48 80.9717
8.64939 2.7 -0.48 7.41565
8.64939 2.68 -0.48 7.41565
7.7992799999999995 3.36 -0.5 5.9988
8.64939 2.7 -0.5 7.41565
8.64939 2.68 -0.5 7.41565
7.7992799999999995 3.36 -0.52 5.9988
8.64939 2.7 -0.52 7.41565
8.64939 2.7 -0.54 7.41565
44.74056 5.22 -0.56 67.5676
8.905884 3.58 -0.56 7.84314
34.65684 5.58 -0.58 50.7614
44.74056 5.22 -0.58 67.5676
8.731722000000001 2.7 -0.58 7.55287
34.65684 5.58 -0.6 50.7614
38.9826 4.48 -0.6 57.971
7.747145999999999 3.66 -0.6 5.91191
7.747145999999999 3.66 -0.62 5.91191
7.747145999999999 3.66 -0.64 5.91191
38.9826 4.44 -0.66 57.971
7.747145999999999 3.66 -0.66 5.91191
8.731722000000001 2.7 -0.66 7.55287
38.9826 4.44 -0.68 57.971
7.7992799999999995 3.66 -0.68 5.9988
8.731722000000001 2.7 -0.68 7.55287
7.7992799999999995 3.66 -0.7 5.9988
8.64939 2.7 -0.7 7.41565
8.64939 2.58 -0.7 7.41565
22.97934 1.86 -0.7 31.2989
18.57126 1.8 -0.7 23.9521
26.38116 3.94 -0.72 36.9686
7.747145999999999 3.68 -0.72 5.91191
7.747145999999999 3.66 -0.72 5.91191
8.64939 2.7 -0.72 7.41565
22.97934 1.86 -0.72 31.2989
7.747145999999999 3.66 -0.74 5.91191
7.7992799999999995 3.36 -0.74 5.9988
8.64939 2.7 -0.74 7.41565
8.64939 2.58 -0.74 7.41565
31.28802 1.28 -0.74 45.1467
7.747145999999999 3.68 -0.76 5.91191
7.747145999999999 3.66 -0.76 5.91191
7.7992799999999995 3.36 -0.76 5.9988
8.64939 2.7 -0.76 7.41565
7.747145999999999 3.66 -0.78 5.91191
8.64939 2.7 -0.78 7.41565
22.97934 1.86 -0.78 31.2989
8.64939 2.7 -0.8 7.41565
8.64939 2.58 -0.8 7.41565
31.28802 2.12 -0.8 45.1467
31.28802 2.1 -0.8 45.1467
22.97934 1.86 -0.8 31.2989
7.8529680000000015 3.36 -0.82 6.08828
8.64939 2.7 -0.82 7.41565
8.64939 2.58 -0.82 7.41565
31.28802 2.12 -0.82 45.1467
31.28802 2.1 -0.82 45.1467
22.97934 1.86 -0.82 31.2989
31.28802 1.24 -0.82 45.1467
28.590239999999998 0.8 -0.82 40.6504
28.590239999999998 0.78 -0.82 40.6504
7.8529680000000015 3.36 -0.84 6.08828
31.28802 2.1 -0.84 45.1467
31.28802 1.66 -0.84 45.1467
31.28802 1.26 -0.84 45.1467
28.590239999999998 0.8 -0.84 40.6504
31.28802 1.66 -0.86 45.1467
31.28802 1.26 -0.88 45.1467
28.590239999999998 0.8 -0.88 40.6504
7.747145999999999 3.66 -1.12 5.91191
7.7992799999999995 3.34 -1.14 5.9988
7.7992799999999995 3.34 -1.16 5.9988
7.7992799999999995 3.34 -1.18 5.9988
7.7992799999999995 3.36 -1.2 5.9988
7.7992799999999995 3.34 -1.2 5.9988
7.7992799999999995 3.66 -1.22 5.9988
7.7992799999999995 3.36 -1.22 5.9988
7.7992799999999995 3.34 -1.22 5.9988
9.297708 2.68 -1.22 8.49618
8.64939 2.6 -1.22 7.41565
8.64939 2.58 -1.22 7.41565
7.7992799999999995 3.36 -1.24 5.9988
7.7992799999999995 3.34 -1.24 5.9988
9.297708 2.7 -1.24 8.49618
9.297708 2.68 -1.24 8.49618
8.64939 2.6 -1.24 7.41565
8.64939 2.58 -1.24 7.41565
8.64939 2.56 -1.24 7.41565
17.77464 5.86 -1.26 22.6244
7.7992799999999995 3.36 -1.26 5.9988
7.7992799999999995 3.34 -1.26 5.9988
9.297708 2.7 -1.26 8.49618
9.297708 2.68 -1.26 8.49618
9.297708 2.66 -1.26 8.49618
8.64939 2.58 -1.26 7.41565
8.64939 2.56 -1.26 7.41565
17.77464 5.84 -1.28 22.6244
7.7992799999999995 3.36 -1.28 5.9988
7.7992799999999995 3.34 -1.28 5.9988
9.297708 2.7 -1.28 8.49618
17.77464 5.82 -1.3 22.6244
7.7992799999999995 3.36 -1.3 5.9988
7.7992799999999995 3.34 -1.3 5.9988
17.06172 5.8 -1.32 21.4362
7.7992799999999995 3.36 -1.32 5.9988
7.7992799999999995 3.34 -1.32 5.9988
9.093966 2.54 -1.32 8.15661
8.64939 2.48 -1.32 7.41565
8.64939 2.46 -1.32 7.41565
17.06172 5.78 -1.34 21.4362
7.747145999999999 3.66 -1.34 5.91191
7.7992799999999995 3.36 -1.34 5.9988
8.64939 2.8 -1.34 7.41565
8.64939 2.5 -1.34 7.41565
8.64939 2.48 -1.34 7.41565
8.64939 2.46 -1.34 7.41565
16.419959999999996 5.76 -1.36 20.3666
16.419959999999996 5.66 -1.36 20.3666
7.747145999999999 3.66 -1.36 5.91191
7.7992799999999995 3.36 -1.36 5.9988
8.64939 2.82 -1.36 7.41565
8.64939 2.8 -1.36 7.41565
8.64939 2.48 -1.36 7.41565
8.64939 2.46 -1.36 7.41565
16.419959999999996 5.76 -1.38 20.3666
16.419959999999996 5.64 -1.38 20.3666
7.8529680000000015 3.36 -1.38 6.08828
8.64939 2.82 -1.38 7.41565
8.64939 2.8 -1.38 7.41565
8.64939 2.48 -1.38 7.41565
8.64939 2.46 -1.38 7.41565
15.83916 5.76 -1.4 19.3986
15.83916 5.74 -1.4 19.3986
15.83916 5.64 -1.4 19.3986
7.8529680000000015 3.36 -1.4 6.08828
7.8529680000000015 3.34 -1.4 6.08828
8.64939 2.82 -1.4 7.41565
8.64939 2.8 -1.4 7.41565
8.64939 2.48 -1.4 7.41565
8.64939 2.46 -1.4 7.41565
15.83916 5.74 -1.42 19.3986
15.83916 5.64 -1.42 19.3986
7.8529680000000015 3.34 -1.42 6.08828
8.64939 2.82 -1.42 7.41565
8.64939 2.8 -1.42 7.41565
8.64939 2.48 -1.42 7.41565
8.64939 2.46 -1.42 7.41565
15.83916 5.74 -1.44 19.3986
15.83916 5.64 -1.44 19.3986
8.64939 2.82 -1.44 7.41565
8.64939 2.8 -1.44 7.41565
8.64939 2.48 -1.44 7.41565
8.64939 2.46 -1.44 7.41565
15.3111 5.74 -1.46 18.5185
15.83916 5.64 -1.46 19.3986
8.64939 2.8 -1.46 7.41565
14.386740000000001 0.8 -1.46 16.9779
14.82888 5.74 -1.48 17.7148
7.747145999999999 3.66 -1.48 5.91191
14.82888 5.74 -1.5 17.7148
7.747145999999999 3.66 -1.5 5.91191
7.7992799999999995 3.36 -1.5 5.9988
14.386740000000001 5.74 -1.52 16.9779
7.7992799999999995 3.36 -1.52 5.9988
7.7992799999999995 3.34 -1.52 5.9988
8.64939 2.82 -1.52 7.41565
14.386740000000001 5.76 -1.54 16.9779
14.386740000000001 5.74 -1.54 16.9779
7.7992799999999995 3.36 -1.54 5.9988
7.7992799999999995 3.34 -1.54 5.9988
8.64939 2.82 -1.54 7.41565
14.386740000000001 5.76 -1.56 16.9779
14.386740000000001 5.74 -1.56 16.9779
7.7992799999999995 3.36 -1.56 5.9988
7.7992799999999995 3.34 -1.56 5.9988
8.64939 2.82 -1.56 7.41565
13.979940000000001 5.76 -1.58 16.2999
13.979940000000001 5.64 -1.58 16.2999
7.7992799999999995 3.36 -1.58 5.9988
8.64939 2.82 -1.58 7.41565
13.25658 0.8 -1.58 15.0943
13.25658 0.78 -1.58 15.0943
13.979940000000001 5.76 -1.6 16.2999
13.979940000000001 5.64 -1.6 16.2999
7.7992799999999995 3.36 -1.6 5.9988
8.64939 2.82 -1.6 7.41565
13.6044 5.78 -1.62 15.674
13.6044 5.76 -1.62 15.674
13.6044 5.64 -1.62 15.674
7.7992799999999995 3.66 -1.62 5.9988
7.7992799999999995 3.36 -1.62 5.9988
10.811580000000001 2.7 -1.62 11.0193
9.637241999999999 2.62 -1.62 9.06207
9.637241999999999 2.6 -1.62 9.06207
9.406074 2.58 -1.62 8.67679
9.297708 2.56 -1.62 8.49618
9.093966 2.54 -1.62 8.15661
8.905884 2.52 -1.62 7.84314
13.6044 5.78 -1.64 15.674
13.6044 5.76 -1.64 15.674
13.25658 5.64 -1.64 15.0943
7.7992799999999995 3.36 -1.64 5.9988
8.64939 2.5 -1.64 7.41565
8.64939 2.48 -1.64 7.41565
8.64939 2.46 -1.64 7.41565
13.25658 5.78 -1.66 15.0943
13.25658 5.66 -1.66 15.0943
7.7992799999999995 3.36 -1.66 5.9988
8.731722000000001 2.82 -1.66 7.55287
8.731722000000001 2.8 -1.66 7.55287
8.64939 2.48 -1.66 7.41565
8.64939 2.46 -1.66 7.41565
13.25658 5.8 -1.68 15.0943
13.25658 5.66 -1.68 15.0943
8.731722000000001 2.82 -1.68 7.55287
8.731722000000001 2.8 -1.68 7.55287
8.64939 2.48 -1.68 7.41565
8.64939 2.46 -1.68 7.41565
12.933599999999998 5.82 -1.7 14.556
12.933599999999998 5.8 -1.7 14.556
8.64939 2.82 -1.7 7.41565
8.64939 2.8 -1.7 7.41565
8.64939 2.48 -1.7 7.41565
8.64939 2.46 -1.7 7.41565
12.933599999999998 5.82 -1.72 14.556
7.7992799999999995 3.36 -1.72 5.9988
8.64939 2.82 -1.72 7.41565
8.64939 2.8 -1.72 7.41565
8.64939 2.48 -1.72 7.41565
8.64939 2.46 -1.72 7.41565
12.933599999999998 5.82 -1.74 14.556
7.7992799999999995 3.36 -1.74 5.9988
8.64939 2.8 -1.74 7.41565
8.64939 2.48 -1.74 7.41565
8.64939 2.46 -1.74 7.41565
8.64939 2.82 -1.76 7.41565
8.64939 2.8 -1.76 7.41565
8.64939 2.48 -1.76 7.41565
8.64939 2.46 -1.76 7.41565
7.7992799999999995 3.36 -1.78 5.9988
8.64939 2.82 -1.78 7.41565
8.64939 2.8 -1.78 7.41565
8.64939 2.48 -1.78 7.41565
8.64939 2.46 -1.78 7.41565
7.7992799999999995 3.36 -1.8 5.9988
8.64939 2.82 -1.8 7.41565
8.64939 2.8 -1.8 7.41565
7.7992799999999995 3.36 -1.82 5.9988
8.64939 2.78 -1.82 7.41565
8.64939 2.76 -1.82 7.41565
8.569992 2.74 -1.82 7.28332
8.569992 2.72 -1.82 7.28332
8.569992 2.7 -1.82 7.28332
8.569992 2.68 -1.82 7.28332
7.7992799999999995 3.36 -1.86 5.9988
8.64939 2.82 -1.86 7.41565
7.7992799999999995 3.36 -1.88 5.9988
8.64939 2.82 -1.88 7.41565
7.7992799999999995 3.36 -1.9 5.9988
8.64939 2.82 -1.9 7.41565
7.7992799999999995 3.36 -1.92 5.9988
8.64939 2.82 -1.92 7.41565
8.64939 2.82 -1.94 7.41565
10.811580000000001 0.86 -1.94 11.0193
7.7992799999999995 3.34 -1.96 5.9988
8.64939 2.82 -1.96 7.41565
8.64939 2.8 -1.96 7.41565
9.51915 2.6 -1.96 8.86525
9.51915 2.58 -1.96 8.86525
8.64939 2.78 -1.98 7.41565
8.731722000000001 2.76 -1.98 7.55287
9.51915 2.62 -1.98 8.86525
9.51915 2.6 -1.98 8.86525
9.51915 2.58 -1.98 8.86525
9.406074 2.56 -1.98 8.67679
9.193757999999999 2.54 -1.98 8.32293
8.817162000000001 2.52 -1.98 7.69527
8.64939 2.5 -1.98 7.41565
8.64939 2.48 -1.98 7.41565
8.64939 2.46 -1.98 7.41565
7.7992799999999995 3.34 -2.0 5.9988
8.64939 2.48 -2.0 7.41565
8.64939 2.46 -2.0 7.41565
8.64939 2.82 -2.02 7.41565
8.64939 2.8 -2.02 7.41565
8.64939 2.48 -2.02 7.41565
8.64939 2.46 -2.02 7.41565
10.472879999999998 0.9 -2.02 10.4548
7.7992799999999995 3.34 -2.04 5.9988
8.64939 2.82 -2.04 7.41565
8.64939 2.8 -2.04 7.41565
8.64939 2.48 -2.04 7.41565
8.64939 2.46 -2.04 7.41565
10.472879999999998 0.9 -2.04 10.4548
10.472879999999998 0.88 -2.04 10.4548
10.472879999999998 0.86 -2.04 10.4548
7.7992799999999995 3.34 -2.06 5.9988
8.64939 2.8 -2.06 7.41565
8.64939 2.48 -2.06 7.41565
8.64939 2.46 -2.06 7.41565
10.16718 -4.7 -2.06 9.9453
10.16718 -4.72 -2.06 9.9453
7.7992799999999995 3.34 -2.08 5.9988
8.64939 2.8 -2.08 7.41565
8.64939 2.48 -2.08 7.41565
8.64939 2.46 -2.08 7.41565
7.7992799999999995 3.34 -2.1 5.9988
8.64939 2.8 -2.1 7.41565
8.64939 2.48 -2.1 7.41565
8.64939 2.46 -2.1 7.41565
7.7992799999999995 3.34 -2.12 5.9988
8.64939 2.8 -2.12 7.41565
8.64939 2.48 -2.12 7.41565
8.64939 2.46 -2.12 7.41565
10.025244 1.36 -2.12 9.70874
7.7992799999999995 3.34 -2.14 5.9988
8.64939 2.8 -2.14 7.41565
8.64939 2.48 -2.14 7.41565
8.64939 2.46 -2.14 7.41565
7.7992799999999995 3.34 -2.16 5.9988
8.64939 2.8 -2.16 7.41565
8.569992 2.78 -2.18 7.28332
8.569992 2.76 -2.18 7.28332
8.569992 2.74 -2.18 7.28332
8.569992 2.72 -2.18 7.28332
8.569992 2.7 -2.18 7.28332
8.64939 2.66 -2.18 7.41565
7.7992799999999995 3.34 -2.2 5.9988
8.64939 2.46 -2.2 7.41565
9.760704 1.24 -2.2 9.26784
9.51915 2.92 -2.22 8.86525
8.64939 2.82 -2.22 7.41565
8.64939 2.46 -2.22 7.41565
8.64939 2.82 -2.24 7.41565
7.7992799999999995 3.34 -2.26 5.9988
8.64939 2.82 -2.26 7.41565
7.7992799999999995 3.34 -2.28 5.9988
8.64939 2.82 -2.28 7.41565
8.64939 2.82 -2.3 7.41565
10.025244 2.42 -2.3 9.70874
9.51915 2.36 -2.3 8.86525
7.7992799999999995 3.34 -2.32 5.9988
8.64939 2.8 -2.32 7.41565
9.193757999999999 2.58 -2.32 8.32293
9.193757999999999 2.56 -2.32 8.32293
9.193757999999999 2.54 -2.32 8.32293
9.760704 2.94 -2.34 9.26784
9.637241999999999 2.9 -2.34 9.06207
9.637241999999999 2.88 -2.34 9.06207
8.64939 2.78 -2.34 7.41565
8.64939 2.76 -2.34 7.41565
8.569992 2.74 -2.34 7.28332
8.817162000000001 2.66 -2.34 7.69527
8.817162000000001 2.64 -2.34 7.69527
8.905884 2.62 -2.34 7.84314
9.193757999999999 2.6 -2.34 8.32293
9.193757999999999 2.56 -2.34 8.32293
9.193757999999999 2.54 -2.34 8.32293
9.093966 2.52 -2.34 8.15661
8.64939 2.48 -2.34 7.41565
8.64939 2.46 -2.34 7.41565
8.64939 2.76 -2.36 7.41565
8.569992 2.74 -2.36 7.28332
8.493384 2.72 -2.36 7.15564
8.493384 2.7 -2.36 7.15564
8.493384 2.68 -2.36 7.15564
8.64939 2.48 -2.36 7.41565
8.64939 2.46 -2.36 7.41565
8.817162000000001 3.24 -2.38 7.69527
8.817162000000001 3.08 -2.38 7.69527
8.64939 2.48 -2.38 7.41565
8.905884 2.02 -2.38 7.84314
8.905884 1.54 -2.38 7.84314
8.64939 2.8 -2.4 7.41565
8.64939 2.48 -2.4 7.41565
8.64939 2.48 -2.42 7.41565
8.64939 2.46 -2.42 7.41565
8.731722000000001 2.18 -2.42 7.55287
8.905884 2.0 -2.42 7.84314
8.905884 1.98 -2.42 7.84314
8.817162000000001 1.96 -2.42 7.69527
9.637241999999999 1.06 -2.42 9.06207
9.637241999999999 1.04 -2.42 9.06207
8.64939 2.48 -2.44 7.41565
8.64939 2.46 -2.44 7.41565
8.731722000000001 2.18 -2.44 7.55287
8.731722000000001 2.16 -2.44 7.55287
8.905884 1.4 -2.44 7.84314
8.64939 2.48 -2.46 7.41565
8.64939 2.46 -2.46 7.41565
8.64939 2.48 -2.48 7.41565
8.64939 2.46 -2.48 7.41565
8.731722000000001 1.36 -2.48 7.55287
9.297708 2.68 -2.5 8.49618
8.493384 2.58 -2.5 7.15564
8.493384 2.56 -2.5 7.15564
8.731722000000001 1.36 -2.5 7.55287
8.731722000000001 1.34 -2.5 7.55287
8.493384 2.56 -2.52 7.15564
8.731722000000001 1.34 -2.52 7.55287
8.084754 2.78 -2.54 6.47459
8.905884 1.96 -2.54 7.84314
8.905884 1.94 -2.54 7.84314
8.569992 2.64 -2.56 7.28332
8.493384 1.88 -2.56 7.15564
8.493384 1.86 -2.56 7.15564
8.905884 1.68 -2.56 7.84314
8.024094 5.12 -2.58 6.37349
8.493384 1.86 -2.58 7.15564
8.493384 1.84 -2.58 7.15564
8.493384 1.82 -2.58 7.15564
8.347944 3.32 -2.6 6.91324
7.965294 2.94 -2.62 6.27549
7.965294 2.94 -2.64 6.27549
7.965294 2.92 -2.64 6.27549
8.347944 2.52 -2.64 6.91324
8.27886 2.5 -2.64 6.7981
8.817162000000001 2.24 -2.64 7.69527
8.493384 2.16 -2.64 7.15564
8.493384 2.14 -2.64 7.15564
8.493384 2.12 -2.64 7.15564
8.419410000000001 2.1 -2.64 7.03235
8.347944 4.24 -2.66 6.91324
8.024094 2.94 -2.66 6.37349
8.024094 2.92 -2.66 6.37349
9.093966 2.62 -2.66 8.15661
9.093966 2.6 -2.66 8.15661
8.27886 2.5 -2.66 6.7981
8.27886 2.48 -2.66 6.7981
8.27886 2.46 -2.66 6.7981
8.212038 1.64 -2.66 6.68673
7.8529680000000015 4.98 -2.68 6.08828
8.27886 4.06 -2.68 6.7981
8.27886 4.04 -2.68 6.7981
8.27886 2.86 -2.68 6.7981
8.212038 2.44 -2.68 6.68673
8.212038 2.42 -2.68 6.68673
8.147369999999999 2.4 -2.68 6.57895
7.8529680000000015 4.98 -2.7 6.08828
8.212038 2.98 -2.7 6.68673
8.212038 2.96 -2.7 6.68673
8.024094 2.88 -2.7 6.37349
8.024094 2.86 -2.7 6.37349
8.147369999999999 2.4 -2.7 6.57895
7.965294 2.36 -2.7 6.27549
8.212038 1.8 -2.7 6.68673
8.212038 1.72 -2.7 6.68673
8.212038 1.7 -2.7 6.68673
8.212038 1.68 -2.7 6.68673
8.212038 4.46 -2.72 6.68673
8.212038 3.86 -2.72 6.68673
8.27886 3.0 -2.72 6.7981
8.27886 2.98 -2.72 6.7981
8.27886 2.96 -2.72 6.7981
8.27886 2.94 -2.72 6.7981
8.024094 2.88 -2.72 6.37349
8.212038 2.44 -2.72 6.68673
7.965294 2.36 -2.72 6.27549
7.965294 2.34 -2.72 6.27549
7.965294 4.22 -2.74 6.27549
8.493384 4.04 -2.74 7.15564
8.024094 2.88 -2.74 6.37349
8.212038 1.84 -2.74 6.68673
8.212038 1.82 -2.74 6.68673
7.8529680000000015 5.0 -2.76 6.08828
8.493384 4.08 -2.76 7.15564
8.493384 4.04 -2.76 7.15564
8.147369999999999 3.98 -2.76 6.57895
8.347944 2.44 -2.76 6.91324
7.747145999999999 3.48 -2.78 5.91191
8.27886 2.56 -2.78 6.7981
8.212038 4.64 -2.8 6.68673
8.084754 3.86 -2.8 6.47459
8.024094 2.24 -2.8 6.37349
8.024094 2.22 -2.8 6.37349
8.024094 5.2 -2.82 6.37349
8.024094 5.12 -2.82 6.37349
7.965294 5.08 -2.82 6.27549
7.908282 4.26 -2.82 6.18047
8.024094 3.92 -2.82 6.37349
7.908282 3.64 -2.82 6.18047
7.908282 3.6 -2.82 6.18047
7.908282 2.88 -2.82 6.18047
7.908282 2.86 -2.82 6.18047
8.024094 2.52 -2.82 6.37349
7.8529680000000015 2.44 -2.82 6.08828
8.024094 2.24 -2.82 6.37349
8.024094 2.22 -2.82 6.37349
7.7992799999999995 5.32 -2.84 5.9988
8.212038 5.14 -2.84 6.68673
7.965294 5.08 -2.84 6.27549
7.965294 5.04 -2.84 6.27549
8.024094 3.92 -2.84 6.37349
8.024094 3.9 -2.84 6.37349
8.147369999999999 3.72 -2.84 6.57895
7.908282 3.64 -2.84 6.18047
7.747145999999999 3.58 -2.84 5.91191
8.147369999999999 2.7 -2.84 6.57895
8.147369999999999 2.68 -2.84 6.57895
7.747145999999999 2.58 -2.84 5.91191
7.747145999999999 2.54 -2.84 5.91191
7.8529680000000015 2.4 -2.84 6.08828
8.024094 2.2 -2.84 6.37349
7.965294 5.08 -2.86 6.27549
8.212038 4.98 -2.86 6.68673
7.908282 4.22 -2.86 6.18047
7.908282 4.2 -2.86 6.18047
7.747145999999999 2.58 -2.86 5.91191
7.747145999999999 2.56 -2.86 5.91191
7.965294 2.48 -2.86 6.27549
7.8529680000000015 2.46 -2.86 6.08828
8.024094 1.88 -2.86 6.37349
8.024094 1.7 -2.86 6.37349
7.908282 5.02 -2.88 6.18047
8.212038 5.0 -2.88 6.68673
8.212038 4.96 -2.88 6.68673
7.599432 2.74 -2.88 5.66572
8.147369999999999 2.72 -2.88 6.57895
8.212038 4.96 -2.9 6.68673
7.8529680000000015 4.88 -2.9 6.08828
7.747145999999999 4.5 -2.9 5.91191
7.696506 5.18 -2.92 5.82751
7.8529680000000015 4.88 -2.92 6.08828
7.908282 5.1 -2.94 6.18047
7.908282 5.08 -2.94 6.18047
7.696506 4.18 -2.94 5.82751
7.6472880000000005 3.34 -2.94 5.74548
7.6472880000000005 3.32 -2.94 5.74548
7.552889999999999 3.06 -2.94 5.58815
7.552889999999999 3.04 -2.94 5.58815
8.147369999999999 1.04 -2.94 6.57895
8.147369999999999 1.02 -2.94 6.57895
7.908282 5.08 -2.96 6.18047
7.7992799999999995 4.02 -2.96 5.9988
7.599432 3.6 -2.96 5.66572
7.552889999999999 3.04 -2.96 5.58815
7.552889999999999 3.02 -2.96 5.58815
7.7992799999999995 1.98 -2.96 5.9988
7.7992799999999995 1.96 -2.96 5.9988
7.696506 5.14 -2.98 5.82751
7.463532 3.92 -2.98 5.43922
7.7992799999999995 1.96 -2.98 5.9988
7.7992799999999995 1.94 -2.98 5.9988
7.8529680000000015 1.74 -2.98 6.08828
7.7992799999999995 5.22 -3.0 5.9988
7.507607999999999 4.18 -3.0 5.51268
7.908282 2.74 -3.0 6.18047
7.908282 2.66 -3.0 6.18047
7.7992799999999995 2.62 -3.0 5.9988
7.8529680000000015 1.74 -3.0 6.08828
7.8529680000000015 1.72 -3.0 6.08828
7.696506 5.18 -3.02 5.82751
7.507607999999999 4.2 -3.02 5.51268
7.463532 3.88 -3.02 5.43922
7.507607999999999 3.68 -3.02 5.51268
7.507607999999999 3.66 -3.02 5.51268
7.6472880000000005 2.54 -3.02 5.74548
7.7992799999999995 1.72 -3.02 5.9988
7.463532 4.22 -3.04 5.43922
7.463532 4.2 -3.04 5.43922
7.7992799999999995 3.98 -3.04 5.9988
7.599432 3.88 -3.04 5.66572
7.599432 3.86 -3.04 5.66572
7.908282 2.74 -3.04 6.18047
7.7992799999999995 2.58 -3.04 5.9988
7.6472880000000005 2.54 -3.04 5.74548
7.6472880000000005 2.52 -3.04 5.74548
7.8529680000000015 2.32 -3.04 6.08828
7.6472880000000005 2.28 -3.04 5.74548
7.599432 2.26 -3.04 5.66572
7.7992799999999995 1.96 -3.04 5.9988
7.747145999999999 1.94 -3.04 5.91191
7.463532 4.22 -3.06 5.43922
7.463532 4.2 -3.06 5.43922
7.463532 4.18 -3.06 5.43922
7.599432 3.86 -3.06 5.66572
7.6472880000000005 3.78 -3.06 5.74548
7.6472880000000005 2.56 -3.06 5.74548
7.6472880000000005 2.52 -3.06 5.74548
7.6472880000000005 2.5 -3.06 5.74548
7.965294 2.44 -3.06 6.27549
7.8529680000000015 2.32 -3.06 6.08828
7.599432 2.24 -3.06 5.66572
7.747145999999999 1.94 -3.06 5.91191
7.747145999999999 1.92 -3.06 5.91191
7.747145999999999 1.9 -3.06 5.91191
7.338077999999999 1.78 -3.06 5.23013
7.338077999999999 1.76 -3.06 5.23013
7.463532 4.2 -3.08 5.43922
7.463532 4.18 -3.08 5.43922
7.599432 3.86 -3.08 5.66572
7.420614 3.8 -3.08 5.36769
7.420614 3.78 -3.08 5.36769
7.552889999999999 3.2 -3.08 5.58815
7.599432 2.48 -3.08 5.66572
7.8529680000000015 2.34 -3.08 6.08828
7.6472880000000005 4.66 -3.1 5.74548
7.420614 3.8 -3.1 5.36769
7.507607999999999 4.68 -3.12 5.51268
7.507607999999999 4.64 -3.12 5.51268
7.463532 4.24 -3.12 5.43922
7.420614 3.8 -3.12 5.36769
7.420614 3.78 -3.12 5.36769
7.552889999999999 3.26 -3.12 5.58815
7.6472880000000005 2.98 -3.12 5.74548
7.507607999999999 2.94 -3.12 5.51268
7.507607999999999 4.68 -3.14 5.51268
7.507607999999999 4.66 -3.14 5.51268
7.507607999999999 4.64 -3.14 5.51268
7.463532 4.24 -3.14 5.43922
7.420614 3.8 -3.14 5.36769
7.420614 3.78 -3.14 5.36769
7.463532 3.22 -3.14 5.43922
7.463532 3.2 -3.14 5.43922
7.6472880000000005 2.98 -3.14 5.74548
7.507607999999999 2.94 -3.14 5.51268
7.463532 2.92 -3.14 5.43922
7.696506 2.88 -3.14 5.82751
7.908282 2.7 -3.14 6.18047
7.507607999999999 2.6 -3.14 5.51268
7.507607999999999 4.66 -3.16 5.51268
7.420614 3.8 -3.16 5.36769
7.420614 3.78 -3.16 5.36769
7.507607999999999 2.9 -3.16 5.51268
7.696506 2.86 -3.16 5.82751
7.507607999999999 2.6 -3.16 5.51268
7.507607999999999 2.58 -3.16 5.51268
7.463532 4.64 -3.18 5.43922
7.463532 4.62 -3.18 5.43922
7.696506 2.82 -3.18 5.82751
7.507607999999999 2.76 -3.18 5.51268
7.507607999999999 2.74 -3.18 5.51268
7.378806 3.9 -3.2 5.29801
7.378806 3.88 -3.2 5.29801
7.463532 3.46 -3.2 5.43922
7.378806 3.08 -3.2 5.29801
7.552889999999999 4.28 -3.22 5.58815
7.378806 3.88 -3.22 5.29801
7.378806 3.86 -3.22 5.29801
7.378806 3.84 -3.22 5.29801
7.378806 3.82 -3.22 5.29801
7.378806 3.7 -3.22 5.29801
7.378806 3.06 -3.22 5.29801
7.378806 3.04 -3.22 5.29801
7.696506 5.72 -3.24 5.82751
7.552889999999999 4.68 -3.24 5.58815
7.420614 4.6 -3.24 5.36769
7.338077999999999 4.32 -3.24 5.23013
7.378806 3.82 -3.24 5.29801
7.420614 3.8 -3.24 5.36769
7.378806 3.78 -3.24 5.29801
7.378806 3.76 -3.24 5.29801
7.420614 3.74 -3.24 5.36769
7.599432 3.14 -3.24 5.66572
7.378806 3.06 -3.24 5.29801
7.696506 5.72 -3.26 5.82751
7.552889999999999 4.64 -3.26 5.58815
7.420614 4.62 -3.26 5.36769
7.338077999999999 4.36 -3.26 5.23013
7.338077999999999 4.34 -3.26 5.23013
7.338077999999999 4.0 -3.26 5.23013
7.338077999999999 3.98 -3.26 5.23013
7.696506 3.9 -3.26 5.82751
7.378806 3.74 -3.26 5.29801
7.378806 3.72 -3.26 5.29801
7.599432 3.12 -3.26 5.66572
7.378806 3.06 -3.26 5.29801
7.378806 3.04 -3.26 5.29801
7.552889999999999 2.56 -3.26 5.58815
7.552889999999999 2.54 -3.26 5.58815
7.338077999999999 2.5 -3.26 5.23013
7.338077999999999 2.48 -3.26 5.23013
7.338077999999999 2.46 -3.26 5.23013
7.338077999999999 4.34 -3.28 5.23013
7.338077999999999 4.32 -3.28 5.23013
7.338077999999999 4.0 -3.28 5.23013
7.338077999999999 3.98 -3.28 5.23013
7.696506 3.92 -3.28 5.82751
7.747145999999999 3.9 -3.28 5.91191
7.338077999999999 3.22 -3.28 5.23013
7.599432 3.12 -3.28 5.66572
7.599432 3.1 -3.28 5.66572
7.378806 3.04 -3.28 5.29801
7.378806 3.02 -3.28 5.29801
7.338077999999999 3.0 -3.28 5.23013
7.552889999999999 2.54 -3.28 5.58815
7.338077999999999 2.48 -3.28 5.23013
7.338077999999999 2.46 -3.28 5.23013
7.298376 2.44 -3.28 5.16396
7.298376 4.92 -3.3 5.16396
7.338077999999999 4.18 -3.3 5.23013
7.338077999999999 3.98 -3.3 5.23013
7.338077999999999 3.96 -3.3 5.23013
7.696506 3.92 -3.3 5.82751
7.298376 3.84 -3.3 5.16396
7.298376 3.82 -3.3 5.16396
7.298376 3.8 -3.3 5.16396
7.298376 3.78 -3.3 5.16396
7.185072 3.16 -3.3 4.97512
7.338077999999999 3.0 -3.3 5.23013
7.338077999999999 2.98 -3.3 5.23013
7.463532 4.6 -3.32 5.43922
7.298376 3.98 -3.32 5.16396
7.338077999999999 3.96 -3.32 5.23013
7.298376 3.82 -3.32 5.16396
7.298376 3.8 -3.32 5.16396
7.259664000000001 3.78 -3.32 5.09944
7.259664000000001 3.76 -3.32 5.09944
7.6472880000000005 3.32 -3.32 5.74548
7.185072 3.16 -3.32 4.97512
7.149126 3.16 -3.34 4.91521
7.185072 3.14 -3.34 4.97512
7.298376 2.54 -3.34 5.16396
7.338077999999999 5.2 -3.36 5.23013
7.298376 4.92 -3.36 5.16396
7.298376 4.9 -3.36 5.16396
7.463532 4.58 -3.36 5.43922
7.463532 4.56 -3.36 5.43922
7.259664000000001 4.52 -3.36 5.09944
7.259664000000001 4.5 -3.36 5.09944
7.259664000000001 4.48 -3.36 5.09944
7.507607999999999 3.68 -3.36 5.51268
7.259664000000001 3.58 -3.36 5.09944
7.463532 3.46 -3.36 5.43922
7.149126 3.4 -3.36 4.91521
7.185072 3.18 -3.36 4.97512
7.221906000000001 2.88 -3.36 5.03651
7.298376 4.92 -3.38 5.16396
7.298376 4.9 -3.38 5.16396
7.298376 4.88 -3.38 5.16396
7.420614 4.8 -3.38 5.36769
7.259664000000001 4.68 -3.38 5.09944
7.259664000000001 4.48 -3.38 5.09944
7.259664000000001 4.46 -3.38 5.09944
7.259664000000001 4.44 -3.38 5.09944
7.185072 3.88 -3.38 4.97512
7.420614 3.78 -3.38 5.36769
7.463532 3.5 -3.38 5.43922
7.149126 3.4 -3.38 4.91521
7.149126 3.38 -3.38 4.91521
7.149126 3.36 -3.38 4.91521
7.338077999999999 3.28 -3.38 5.23013
7.185072 3.2 -3.38 4.97512
7.149126 3.18 -3.38 4.91521
7.6472880000000005 1.62 -3.38 5.74548
7.6472880000000005 1.6 -3.38 5.74548
7.185072 4.86 -3.4 4.97512
7.185072 4.84 -3.4 4.97512
7.420614 4.8 -3.4 5.36769
7.420614 4.78 -3.4 5.36769
7.420614 4.72 -3.4 5.36769
7.259664000000001 4.68 -3.4 5.09944
7.185072 4.24 -3.4 4.97512
7.420614 4.12 -3.4 5.36769
7.298376 4.02 -3.4 5.16396
7.221906000000001 3.84 -3.4 5.03651
7.221906000000001 3.7 -3.4 5.03651
7.149126 3.38 -3.4 4.91521
7.149126 3.36 -3.4 4.91521
7.149126 3.34 -3.4 4.91521
7.114037999999999 3.32 -3.4 4.85673
7.298376 2.96 -3.4 5.16396
7.463532 2.7 -3.4 5.43922
7.420614 4.72 -3.42 5.36769
7.221906000000001 4.64 -3.42 5.03651
7.185072 4.62 -3.42 4.97512
7.185072 4.6 -3.42 4.97512
7.185072 4.04 -3.42 4.97512
7.259664000000001 3.98 -3.42 5.09944
7.221906000000001 3.96 -3.42 5.03651
7.221906000000001 3.92 -3.42 5.03651
7.185072 3.9 -3.42 4.97512
7.221906000000001 3.68 -3.42 5.03651
7.298376 2.94 -3.42 5.16396
7.185072 2.9 -3.42 4.97512
7.149126 2.88 -3.42 4.91521
7.378806 2.36 -3.42 5.29801
7.378806 2.34 -3.42 5.29801
7.378806 2.32 -3.42 5.29801
7.552889999999999 1.7 -3.42 5.58815
7.185072 4.84 -3.44 4.97512
7.185072 4.82 -3.44 4.97512
7.185072 4.64 -3.44 4.97512
7.149126 4.62 -3.44 4.91521
7.221906000000001 4.58 -3.44 5.03651
