VERSION .7
FIELDS x y z rgb
SIZE 4 4 4 4
TYPE F F F F
COUNT 1 1 1 1
WIDTH 1306
HEIGHT 1
VIEWPOINT 0 0 0 1 0 0 0
POINTS 1306
DATA ascii
7.747145999999999 3.3 3.18 5000005.91191
7.747145999999999 3.28 3.18 5000005.91191
7.747145999999999 3.26 3.18 5000005.91191
7.747145999999999 3.24 3.18 5000005.91191
7.696506 3.22 3.18 5000005.82751
7.6472880000000005 3.2 3.18 5000005.74548
7.6472880000000005 3.18 3.18 5000005.74548
7.552889999999999 3.16 3.18 5000005.58815
7.338077999999999 4.6 3.16 5000005.23013
7.338077999999999 4.58 3.16 5000005.23013
7.463532 4.28 3.16 5000005.43922
7.463532 4.26 3.16 5000005.43922
7.420614 4.24 3.16 5000005.36769
7.420614 4.2 3.16 5000005.36769
7.420614 4.18 3.16 5000005.36769
7.298376 4.16 3.16 5000005.16396
7.552889999999999 3.82 3.16 5000005.58815
7.552889999999999 3.8 3.16 5000005.58815
7.552889999999999 3.78 3.16 5000005.58815
7.552889999999999 3.76 3.16 5000005.58815
7.599432 3.74 3.16 5000005.66572
7.696506 3.72 3.16 5000005.82751
7.696506 3.7 3.16 5000005.82751
7.696506 3.68 3.16 5000005.82751
7.696506 3.66 3.16 5000005.82751
7.696506 3.64 3.16 5000005.82751
7.747145999999999 3.62 3.16 5000005.91191
7.747145999999999 3.6 3.16 5000005.91191
7.747145999999999 3.58 3.16 5000005.91191
7.599432 3.56 3.16 5000005.66572
7.599432 3.54 3.16 5000005.66572
7.696506 3.46 3.16 5000005.82751
7.338077999999999 4.6 3.14 5000005.23013
7.259664000000001 4.58 3.14 5000005.09944
7.185072 4.54 3.14 5000004.97512
7.463532 4.28 3.14 5000005.43922
7.463532 4.26 3.14 5000005.43922
7.420614 4.24 3.14 5000005.36769
7.463532 4.22 3.14 5000005.43922
7.420614 4.2 3.14 5000005.36769
7.298376 4.12 3.14 5000005.16396
7.552889999999999 3.82 3.14 5000005.58815
7.552889999999999 3.8 3.14 5000005.58815
7.599432 3.74 3.14 5000005.66572
7.185072 4.54 3.12 5000004.97512
8.27886 4.48 3.12 5000006.7981
8.27886 4.46 3.12 5000006.7981
7.463532 4.26 3.12 5000005.43922
7.420614 4.24 3.12 5000005.36769
7.298376 4.12 3.12 5000005.16396
7.552889999999999 3.82 3.12 5000005.58815
7.552889999999999 3.8 3.12 5000005.58815
7.185072 4.56 3.1 5000004.97512
7.185072 4.54 3.1 5000004.97512
8.27886 4.48 3.1 5000006.7981
8.27886 4.46 3.1 5000006.7981
7.298376 4.12 3.1 5000005.16396
7.552889999999999 3.82 3.1 5000005.58815
7.552889999999999 3.8 3.1 5000005.58815
7.185072 4.56 3.08 5000004.97512
7.185072 4.54 3.08 5000004.97512
7.185072 4.52 3.08 5000004.97512
8.27886 4.46 3.08 5000006.7981
7.298376 4.12 3.08 5000005.16396
8.419410000000001 4.04 3.08 5000007.03235
8.419410000000001 4.02 3.08 5000007.03235
7.507607999999999 3.82 3.08 5000005.51268
7.507607999999999 3.8 3.08 5000005.51268
7.149126 4.54 3.06 5000004.91521
7.185072 4.52 3.06 5000004.97512
8.27886 4.46 3.06 5000006.7981
8.347944 4.44 3.06 5000006.91324
8.347944 4.42 3.06 5000006.91324
7.298376 4.12 3.06 5000005.16396
8.419410000000001 4.04 3.06 5000007.03235
8.419410000000001 4.02 3.06 5000007.03235
7.507607999999999 3.82 3.06 5000005.51268
7.507607999999999 3.8 3.06 5000005.51268
7.149126 4.54 3.04 5000004.91521
7.149126 4.52 3.04 5000004.91521
8.347944 4.42 3.04 5000006.91324
8.347944 4.4 3.04 5000006.91324
7.507607999999999 3.8 3.04 5000005.51268
7.185072 4.54 3.02 5000004.97512
7.185072 4.52 3.02 5000004.97512
8.347944 4.4 3.02 5000006.91324
7.298376 4.16 3.02 5000005.16396
7.507607999999999 3.78 3.02 5000005.51268
7.149126 4.54 3.0 5000004.91521
7.149126 4.52 3.0 5000004.91521
7.507607999999999 3.76 3.0 5000005.51268
7.185072 4.54 2.98 5000004.97512
7.185072 4.52 2.98 5000004.97512
7.6472880000000005 4.12 2.98 5000005.74548
7.507607999999999 3.76 2.98 5000005.51268
7.507607999999999 3.74 2.98 5000005.51268
7.185072 4.56 2.96 5000004.97512
7.185072 4.54 2.96 5000004.97512
7.185072 4.52 2.96 5000004.97512
7.507607999999999 3.74 2.96 5000005.51268
7.185072 4.54 2.94 5000004.97512
7.507607999999999 3.72 2.94 5000005.51268
22.97934 2.48 2.94 5000031.2989
7.552889999999999 3.7 2.92 5000005.58815
7.338077999999999 4.1 2.9 5000005.23013
7.552889999999999 3.7 2.9 5000005.58815
7.552889999999999 3.68 2.9 5000005.58815
7.221906000000001 4.48 2.88 5000005.03651
7.599432 3.68 2.88 5000005.66572
7.599432 3.66 2.88 5000005.66572
7.507607999999999 4.18 2.86 5000005.51268
7.599432 3.66 2.86 5000005.66572
7.221906000000001 4.42 2.84 5000005.03651
7.552889999999999 4.18 2.84 5000005.58815
7.599432 3.64 2.84 5000005.66572
7.507607999999999 4.18 2.82 5000005.51268
7.507607999999999 3.94 2.82 5000005.51268
7.599432 3.62 2.82 5000005.66572
21.64188 2.2 2.82 5000029.0698
7.552889999999999 4.18 2.8 5000005.58815
7.6472880000000005 3.62 2.8 5000005.74548
7.6472880000000005 3.6 2.8 5000005.74548
7.338077999999999 4.36 2.78 5000005.23013
7.552889999999999 4.18 2.78 5000005.58815
7.6472880000000005 3.6 2.78 5000005.74548
7.6472880000000005 3.58 2.78 5000005.74548
7.696506 3.58 2.76 5000005.82751
7.378806 4.32 2.74 5000005.29801
7.696506 3.56 2.74 5000005.82751
7.420614 4.3 2.72 5000005.36769
7.747145999999999 3.56 2.72 5000005.91191
7.747145999999999 3.54 2.72 5000005.91191
7.420614 4.28 2.7 5000005.36769
7.747145999999999 3.56 2.7 5000005.91191
7.747145999999999 3.54 2.7 5000005.91191
7.420614 4.26 2.68 5000005.36769
7.747145999999999 3.56 2.68 5000005.91191
7.747145999999999 3.54 2.68 5000005.91191
7.420614 4.24 2.66 5000005.36769
7.747145999999999 3.56 2.66 5000005.91191
7.747145999999999 3.54 2.66 5000005.91191
7.747145999999999 3.52 2.66 5000005.91191
7.463532 4.2 2.64 5000005.43922
7.747145999999999 3.54 2.64 5000005.91191
7.463532 4.18 2.62 5000005.43922
7.507607999999999 3.82 2.62 5000005.51268
7.507607999999999 3.8 2.62 5000005.51268
7.747145999999999 3.54 2.62 5000005.91191
7.463532 4.16 2.6 5000005.43922
7.507607999999999 3.82 2.6 5000005.51268
7.507607999999999 3.8 2.6 5000005.51268
7.747145999999999 3.54 2.6 5000005.91191
7.747145999999999 3.52 2.6 5000005.91191
7.507607999999999 3.82 2.58 5000005.51268
7.507607999999999 3.8 2.58 5000005.51268
7.747145999999999 3.54 2.58 5000005.91191
7.747145999999999 3.52 2.58 5000005.91191
7.507607999999999 3.82 2.56 5000005.51268
7.507607999999999 3.8 2.56 5000005.51268
7.747145999999999 3.54 2.56 5000005.91191
7.747145999999999 3.52 2.56 5000005.91191
7.507607999999999 4.1 2.54 5000005.51268
7.507607999999999 3.82 2.54 5000005.51268
7.507607999999999 3.8 2.54 5000005.51268
8.493384 3.72 2.54 5000007.15564
8.493384 3.7 2.54 5000007.15564
7.747145999999999 3.54 2.54 5000005.91191
7.747145999999999 3.52 2.54 5000005.91191
7.507607999999999 4.1 2.52 5000005.51268
7.507607999999999 4.08 2.52 5000005.51268
7.507607999999999 3.82 2.52 5000005.51268
7.507607999999999 3.8 2.52 5000005.51268
8.493384 3.7 2.52 5000007.15564
8.493384 3.68 2.52 5000007.15564
7.747145999999999 3.54 2.52 5000005.91191
7.747145999999999 3.52 2.52 5000005.91191
7.507607999999999 4.1 2.5 5000005.51268
7.507607999999999 4.08 2.5 5000005.51268
8.419410000000001 4.02 2.5 5000007.03235
7.507607999999999 3.82 2.5 5000005.51268
7.507607999999999 3.8 2.5 5000005.51268
7.747145999999999 3.54 2.5 5000005.91191
7.747145999999999 3.52 2.5 5000005.91191
7.507607999999999 4.1 2.48 5000005.51268
7.507607999999999 4.08 2.48 5000005.51268
7.507607999999999 3.82 2.48 5000005.51268
7.507607999999999 3.8 2.48 5000005.51268
7.747145999999999 3.54 2.48 5000005.91191
7.747145999999999 3.52 2.48 5000005.91191
7.507607999999999 4.1 2.46 5000005.51268
7.507607999999999 4.08 2.46 5000005.51268
7.507607999999999 3.82 2.46 5000005.51268
7.507607999999999 3.8 2.46 5000005.51268
8.147369999999999 3.64 2.46 5000006.57895
7.747145999999999 3.54 2.46 5000005.91191
7.747145999999999 3.52 2.46 5000005.91191
7.507607999999999 4.1 2.44 5000005.51268
7.507607999999999 4.08 2.44 5000005.51268
7.507607999999999 3.82 2.44 5000005.51268
7.507607999999999 3.8 2.44 5000005.51268
8.147369999999999 3.62 2.44 5000006.57895
7.747145999999999 3.54 2.44 5000005.91191
7.747145999999999 3.52 2.44 5000005.91191
7.507607999999999 4.1 2.42 5000005.51268
7.507607999999999 4.08 2.42 5000005.51268
7.507607999999999 3.82 2.42 5000005.51268
7.507607999999999 3.8 2.42 5000005.51268
8.084754 3.62 2.42 5000006.47459
7.747145999999999 3.54 2.42 5000005.91191
7.747145999999999 3.52 2.42 5000005.91191
7.507607999999999 4.1 2.4 5000005.51268
7.507607999999999 4.08 2.4 5000005.51268
7.507607999999999 3.82 2.4 5000005.51268
7.507607999999999 3.8 2.4 5000005.51268
8.084754 3.6 2.4 5000006.47459
7.747145999999999 3.54 2.4 5000005.91191
7.747145999999999 3.52 2.4 5000005.91191
7.507607999999999 4.1 2.38 5000005.51268
7.507607999999999 4.08 2.38 5000005.51268
7.507607999999999 3.82 2.38 5000005.51268
7.507607999999999 3.8 2.38 5000005.51268
8.024094 3.6 2.38 5000006.37349
7.747145999999999 3.54 2.38 5000005.91191
7.747145999999999 3.52 2.38 5000005.91191
7.507607999999999 4.1 2.36 5000005.51268
7.507607999999999 4.08 2.36 5000005.51268
7.507607999999999 3.82 2.36 5000005.51268
7.507607999999999 3.8 2.36 5000005.51268
7.747145999999999 3.54 2.36 5000005.91191
7.747145999999999 3.52 2.36 5000005.91191
7.507607999999999 4.1 2.34 5000005.51268
7.507607999999999 4.08 2.34 5000005.51268
7.507607999999999 3.82 2.34 5000005.51268
7.507607999999999 3.8 2.34 5000005.51268
7.747145999999999 3.54 2.34 5000005.91191
7.747145999999999 3.52 2.34 5000005.91191
7.507607999999999 4.1 2.32 5000005.51268
7.507607999999999 4.08 2.32 5000005.51268
7.507607999999999 3.82 2.32 5000005.51268
7.507607999999999 3.8 2.32 5000005.51268
7.7992799999999995 3.52 2.32 5000005.9988
7.507607999999999 4.1 2.3 5000005.51268
7.507607999999999 4.08 2.3 5000005.51268
7.507607999999999 3.8 2.3 5000005.51268
7.507607999999999 4.1 2.28 5000005.51268
7.507607999999999 4.08 2.28 5000005.51268
7.507607999999999 3.8 2.28 5000005.51268
7.507607999999999 3.78 2.28 5000005.51268
7.507607999999999 4.1 2.26 5000005.51268
7.507607999999999 4.08 2.26 5000005.51268
7.507607999999999 3.8 2.26 5000005.51268
7.507607999999999 4.1 2.24 5000005.51268
7.507607999999999 4.08 2.24 5000005.51268
7.507607999999999 3.8 2.24 5000005.51268
7.507607999999999 4.1 2.22 5000005.51268
7.507607999999999 4.08 2.22 5000005.51268
7.507607999999999 3.8 2.22 5000005.51268
7.507607999999999 3.78 2.22 5000005.51268
7.507607999999999 4.1 2.2 5000005.51268
7.507607999999999 4.08 2.2 5000005.51268
7.507607999999999 3.8 2.2 5000005.51268
7.507607999999999 3.78 2.2 5000005.51268
7.507607999999999 4.1 2.18 5000005.51268
7.507607999999999 4.08 2.18 5000005.51268
7.507607999999999 3.8 2.18 5000005.51268
7.507607999999999 3.78 2.18 5000005.51268
7.507607999999999 4.1 2.16 5000005.51268
7.507607999999999 4.08 2.16 5000005.51268
7.507607999999999 3.8 2.16 5000005.51268
7.507607999999999 3.78 2.16 5000005.51268
7.507607999999999 4.1 2.14 5000005.51268
7.507607999999999 4.08 2.14 5000005.51268
7.507607999999999 3.8 2.14 5000005.51268
7.507607999999999 3.78 2.14 5000005.51268
7.507607999999999 4.1 2.12 5000005.51268
7.507607999999999 4.08 2.12 5000005.51268
7.507607999999999 3.8 2.12 5000005.51268
7.507607999999999 3.78 2.12 5000005.51268
7.507607999999999 4.1 2.1 5000005.51268
7.507607999999999 4.08 2.1 5000005.51268
7.507607999999999 3.8 2.1 5000005.51268
7.507607999999999 3.78 2.1 5000005.51268
7.507607999999999 4.1 2.08 5000005.51268
7.507607999999999 4.08 2.08 5000005.51268
7.507607999999999 3.8 2.08 5000005.51268
7.507607999999999 3.78 2.08 5000005.51268
7.507607999999999 4.1 2.06 5000005.51268
7.507607999999999 4.08 2.06 5000005.51268
7.507607999999999 3.8 2.06 5000005.51268
7.507607999999999 3.78 2.06 5000005.51268
7.507607999999999 4.1 2.04 5000005.51268
7.507607999999999 4.08 2.04 5000005.51268
7.507607999999999 3.8 2.04 5000005.51268
7.507607999999999 3.78 2.04 5000005.51268
7.463532 4.1 2.02 5000005.43922
7.463532 4.08 2.02 5000005.43922
7.507607999999999 3.8 2.02 5000005.51268
7.507607999999999 3.78 2.02 5000005.51268
7.463532 4.1 2.0 5000005.43922
7.463532 4.08 2.0 5000005.43922
7.507607999999999 3.8 2.0 5000005.51268
7.507607999999999 3.78 2.0 5000005.51268
7.507607999999999 4.08 1.98 5000005.51268
7.507607999999999 3.8 1.98 5000005.51268
7.507607999999999 3.78 1.98 5000005.51268
7.507607999999999 4.1 1.96 5000005.51268
7.507607999999999 4.08 1.96 5000005.51268
7.507607999999999 3.8 1.96 5000005.51268
7.507607999999999 3.78 1.96 5000005.51268
7.507607999999999 4.1 1.94 5000005.51268
7.507607999999999 4.08 1.94 5000005.51268
7.507607999999999 3.8 1.94 5000005.51268
7.507607999999999 3.78 1.94 5000005.51268
7.507607999999999 4.1 1.92 5000005.51268
7.507607999999999 4.08 1.92 5000005.51268
7.507607999999999 3.8 1.92 5000005.51268
7.507607999999999 3.78 1.92 5000005.51268
7.507607999999999 4.1 1.9 5000005.51268
7.507607999999999 3.8 1.9 5000005.51268
7.507607999999999 3.78 1.9 5000005.51268
7.507607999999999 4.1 1.88 5000005.51268
7.507607999999999 4.08 1.88 5000005.51268
7.507607999999999 3.8 1.88 5000005.51268
7.507607999999999 3.78 1.88 5000005.51268
7.507607999999999 4.1 1.86 5000005.51268
7.507607999999999 3.8 1.86 5000005.51268
7.507607999999999 3.78 1.86 5000005.51268
7.507607999999999 4.1 1.84 5000005.51268
7.507607999999999 3.8 1.84 5000005.51268
7.507607999999999 3.78 1.84 5000005.51268
7.507607999999999 4.1 1.82 5000005.51268
7.507607999999999 3.8 1.82 5000005.51268
7.507607999999999 3.78 1.82 5000005.51268
7.507607999999999 4.1 1.8 5000005.51268
7.507607999999999 4.08 1.8 5000005.51268
7.507607999999999 3.8 1.8 5000005.51268
7.507607999999999 3.78 1.8 5000005.51268
7.507607999999999 4.1 1.78 5000005.51268
7.507607999999999 4.08 1.78 5000005.51268
7.507607999999999 3.78 1.78 5000005.51268
7.507607999999999 4.1 1.76 5000005.51268
7.507607999999999 4.08 1.76 5000005.51268
7.507607999999999 3.78 1.76 5000005.51268
7.507607999999999 4.08 1.74 5000005.51268
7.507607999999999 3.78 1.74 5000005.51268
7.507607999999999 4.1 1.72 5000005.51268
7.507607999999999 3.78 1.72 5000005.51268
7.507607999999999 4.1 1.7 5000005.51268
7.507607999999999 4.08 1.7 5000005.51268
7.507607999999999 3.78 1.7 5000005.51268
7.507607999999999 4.1 1.68 5000005.51268
7.507607999999999 4.08 1.68 5000005.51268
7.507607999999999 3.78 1.68 5000005.51268
7.507607999999999 3.78 1.66 5000005.51268
7.507607999999999 3.78 1.64 5000005.51268
7.507607999999999 4.1 1.62 5000005.51268
7.507607999999999 4.08 1.62 5000005.51268
7.507607999999999 3.78 1.62 5000005.51268
7.507607999999999 4.1 1.6 5000005.51268
7.507607999999999 4.08 1.6 5000005.51268
7.507607999999999 3.78 1.6 5000005.51268
7.507607999999999 4.1 1.58 5000005.51268
34.65684 2.12 1.58 5000050.7614
34.65684 2.12 1.56 5000050.7614
21.64188 5.78 1.54 5000029.0698
21.64188 5.8 1.52 5000029.0698
21.64188 5.78 1.52 5000029.0698
7.507607999999999 3.8 1.52 5000005.51268
38.9826 2.14 1.52 5000057.971
21.64188 5.8 1.5 5000029.0698
21.64188 5.78 1.5 5000029.0698
7.507607999999999 3.8 1.5 5000005.51268
22.97934 5.8 1.48 5000031.2989
22.97934 5.78 1.48 5000031.2989
7.507607999999999 3.8 1.48 5000005.51268
22.97934 5.8 1.46 5000031.2989
22.97934 5.78 1.46 5000031.2989
7.507607999999999 3.8 1.46 5000005.51268
21.64188 5.9 1.44 5000029.0698
22.97934 5.8 1.44 5000031.2989
22.97934 5.78 1.44 5000031.2989
22.97934 5.36 1.44 5000031.2989
7.507607999999999 3.8 1.44 5000005.51268
7.507607999999999 3.78 1.44 5000005.51268
22.97934 5.8 1.42 5000031.2989
22.97934 5.78 1.42 5000031.2989
22.97934 5.36 1.42 5000031.2989
8.27886 3.98 1.42 5000006.7981
7.507607999999999 3.8 1.42 5000005.51268
7.507607999999999 3.78 1.42 5000005.51268
22.97934 5.14 1.4 5000031.2989
7.507607999999999 3.8 1.4 5000005.51268
7.507607999999999 3.78 1.4 5000005.51268
22.97934 5.14 1.38 5000031.2989
44.74056 4.14 1.38 5000067.5676
7.507607999999999 3.8 1.38 5000005.51268
7.507607999999999 3.78 1.38 5000005.51268
7.507607999999999 3.78 1.36 5000005.51268
22.97934 5.8 1.34 5000031.2989
22.97934 5.78 1.34 5000031.2989
7.507607999999999 4.1 1.34 5000005.51268
7.507607999999999 3.78 1.34 5000005.51268
38.9826 2.16 1.34 5000057.971
22.97934 5.8 1.32 5000031.2989
22.97934 5.78 1.32 5000031.2989
7.507607999999999 4.1 1.32 5000005.51268
7.507607999999999 3.8 1.32 5000005.51268
7.507607999999999 3.78 1.32 5000005.51268
38.9826 2.16 1.32 5000057.971
22.97934 5.8 1.3 5000031.2989
22.97934 5.78 1.3 5000031.2989
34.65684 5.66 1.3 5000050.7614
22.97934 5.14 1.3 5000031.2989
7.507607999999999 4.1 1.3 5000005.51268
7.507607999999999 3.8 1.3 5000005.51268
7.507607999999999 3.78 1.3 5000005.51268
22.97934 5.8 1.28 5000031.2989
22.97934 5.78 1.28 5000031.2989
34.65684 5.66 1.28 5000050.7614
22.97934 5.36 1.28 5000031.2989
22.97934 5.14 1.28 5000031.2989
44.74056 4.16 1.28 5000067.5676
7.507607999999999 4.1 1.28 5000005.51268
21.64188 5.8 1.26 5000029.0698
21.64188 5.78 1.26 5000029.0698
22.97934 5.36 1.26 5000031.2989
22.97934 5.14 1.26 5000031.2989
7.507607999999999 4.1 1.26 5000005.51268
7.507607999999999 3.78 1.26 5000005.51268
22.97934 5.8 1.24 5000031.2989
22.97934 5.78 1.24 5000031.2989
34.65684 5.66 1.24 5000050.7614
22.97934 5.36 1.24 5000031.2989
22.97934 5.14 1.24 5000031.2989
52.78302 4.88 1.24 5000080.9717
7.507607999999999 4.1 1.24 5000005.51268
8.27886 3.98 1.24 5000006.7981
7.507607999999999 3.78 1.24 5000005.51268
22.97934 5.78 1.22 5000031.2989
34.65684 5.66 1.22 5000050.7614
22.97934 5.36 1.22 5000031.2989
22.97934 5.14 1.22 5000031.2989
7.507607999999999 4.1 1.22 5000005.51268
7.507607999999999 3.78 1.22 5000005.51268
22.97934 5.78 1.2 5000031.2989
22.97934 5.36 1.2 5000031.2989
22.97934 5.14 1.2 5000031.2989
7.507607999999999 4.1 1.2 5000005.51268
22.97934 5.78 1.18 5000031.2989
22.97934 5.36 1.18 5000031.2989
22.97934 5.14 1.18 5000031.2989
7.507607999999999 4.1 1.18 5000005.51268
7.507607999999999 3.78 1.18 5000005.51268
34.65684 5.66 1.16 5000050.7614
22.97934 5.36 1.16 5000031.2989
22.97934 5.14 1.16 5000031.2989
7.507607999999999 4.1 1.16 5000005.51268
7.507607999999999 3.78 1.16 5000005.51268
34.65684 5.66 1.14 5000050.7614
22.97934 5.36 1.14 5000031.2989
22.97934 5.14 1.14 5000031.2989
7.507607999999999 4.1 1.14 5000005.51268
7.507607999999999 3.78 1.14 5000005.51268
22.97934 5.36 1.12 5000031.2989
22.97934 5.14 1.12 5000031.2989
7.507607999999999 4.1 1.12 5000005.51268
34.65684 5.66 1.1 5000050.7614
22.97934 5.36 1.1 5000031.2989
22.97934 5.14 1.1 5000031.2989
7.507607999999999 3.78 1.1 5000005.51268
34.65684 5.66 1.08 5000050.7614
22.97934 5.36 1.08 5000031.2989
22.97934 5.14 1.08 5000031.2989
7.507607999999999 4.08 1.08 5000005.51268
7.463532 3.78 1.08 5000005.43922
34.65684 5.66 1.06 5000050.7614
22.97934 5.36 1.06 5000031.2989
22.97934 5.14 1.06 5000031.2989
24.53898 4.18 1.06 5000033.8983
7.507607999999999 4.08 1.06 5000005.51268
7.463532 3.78 1.06 5000005.43922
34.65684 5.66 1.04 5000050.7614
22.97934 5.36 1.04 5000031.2989
24.53898 4.18 1.04 5000033.8983
7.507607999999999 4.1 1.04 5000005.51268
34.65684 5.66 1.02 5000050.7614
22.97934 5.36 1.02 5000031.2989
24.53898 4.18 1.02 5000033.8983
7.507607999999999 4.1 1.02 5000005.51268
34.65684 5.66 1.0 5000050.7614
22.97934 5.36 1.0 5000031.2989
84.7368 4.56 1.0 5000134.228
24.53898 4.18 1.0 5000033.8983
7.507607999999999 4.1 1.0 5000005.51268
22.97934 5.36 0.98 5000031.2989
24.53898 5.16 0.98 5000033.8983
24.53898 4.18 0.98 5000033.8983
7.507607999999999 4.1 0.98 5000005.51268
34.65684 5.66 0.96 5000050.7614
24.53898 4.18 0.96 5000033.8983
7.507607999999999 4.1 0.96 5000005.51268
7.507607999999999 4.1 0.94 5000005.51268
24.53898 4.18 0.92 5000033.8983
7.507607999999999 4.1 0.92 5000005.51268
7.507607999999999 3.78 0.92 5000005.51268
24.53898 4.18 0.9 5000033.8983
7.507607999999999 3.78 0.9 5000005.51268
24.53898 4.18 0.88 5000033.8983
7.507607999999999 4.1 0.88 5000005.51268
7.507607999999999 3.78 0.88 5000005.51268
7.507607999999999 4.1 0.86 5000005.51268
24.53898 4.18 0.84 5000033.8983
7.507607999999999 4.1 0.84 5000005.51268
24.53898 4.18 0.82 5000033.8983
24.53898 4.18 0.8 5000033.8983
24.53898 4.18 0.78 5000033.8983
7.599432 4.0 0.78 5000005.66572
24.53898 4.18 0.76 5000033.8983
7.6472880000000005 4.08 0.76 5000005.74548
24.53898 4.18 0.74 5000033.8983
24.53898 4.18 0.72 5000033.8983
7.507607999999999 4.1 0.72 5000005.51268
24.53898 4.18 0.7 5000033.8983
7.507607999999999 4.1 0.7 5000005.51268
24.53898 4.18 0.68 5000033.8983
7.507607999999999 4.1 0.68 5000005.51268
38.9826 2.2 0.68 5000057.971
7.507607999999999 4.1 0.66 5000005.51268
24.53898 4.18 0.64 5000033.8983
7.507607999999999 4.1 0.64 5000005.51268
24.53898 4.18 0.62 5000033.8983
7.507607999999999 4.1 0.62 5000005.51268
38.9826 2.28 0.62 5000057.971
24.53898 4.18 0.6 5000033.8983
7.507607999999999 4.1 0.6 5000005.51268
38.9826 2.28 0.6 5000057.971
24.53898 4.18 0.58 5000033.8983
7.507607999999999 4.1 0.58 5000005.51268
21.64188 1.98 0.58 5000029.0698
24.53898 4.18 0.56 5000033.8983
7.507607999999999 4.1 0.56 5000005.51268
24.53898 4.18 0.54 5000033.8983
7.507607999999999 4.1 0.54 5000005.51268
24.53898 4.18 0.52 5000033.8983
7.507607999999999 4.1 0.52 5000005.51268
64.806 5.88 0.5 5000101.01
84.7368 5.42 0.5 5000134.228
24.53898 4.18 0.5 5000033.8983
7.507607999999999 4.1 0.5 5000005.51268
64.806 5.88 0.48 5000101.01
24.53898 4.18 0.48 5000033.8983
7.507607999999999 4.1 0.48 5000005.51268
21.64188 1.96 0.48 5000029.0698
24.53898 4.18 0.46 5000033.8983
7.507607999999999 4.1 0.46 5000005.51268
34.65684 2.16 0.46 5000050.7614
24.53898 4.18 0.44 5000033.8983
7.507607999999999 4.1 0.44 5000005.51268
7.507607999999999 3.76 0.44 5000005.51268
8.347944 3.12 0.44 5000006.91324
52.78302 5.88 0.42 5000080.9717
7.463532 4.1 0.42 5000005.43922
7.463532 4.1 0.4 5000005.43922
7.507607999999999 3.76 0.4 5000005.51268
8.27886 3.18 0.4 5000006.7981
7.463532 4.1 0.38 5000005.43922
7.507607999999999 3.76 0.38 5000005.51268
8.347944 2.96 0.38 5000006.91324
7.507607999999999 4.1 0.36 5000005.51268
7.507607999999999 3.76 0.36 5000005.51268
8.347944 2.96 0.36 5000006.91324
8.347944 2.94 0.36 5000006.91324
8.419410000000001 2.7 0.36 5000007.03235
8.347944 2.68 0.36 5000006.91324
8.347944 2.62 0.36 5000006.91324
7.507607999999999 4.12 0.34 5000005.51268
7.507607999999999 4.1 0.34 5000005.51268
7.507607999999999 3.76 0.34 5000005.51268
8.347944 2.96 0.34 5000006.91324
8.347944 2.94 0.34 5000006.91324
9.760704 2.86 0.34 5000009.26784
8.347944 2.66 0.34 5000006.91324
24.53898 4.16 0.32 5000033.8983
7.507607999999999 4.1 0.32 5000005.51268
7.507607999999999 3.76 0.32 5000005.51268
8.419410000000001 3.2 0.32 5000007.03235
8.347944 2.66 0.32 5000006.91324
8.347944 2.64 0.32 5000006.91324
24.53898 4.16 0.3 5000033.8983
7.507607999999999 4.1 0.3 5000005.51268
7.507607999999999 3.76 0.3 5000005.51268
8.419410000000001 3.22 0.3 5000007.03235
8.347944 2.64 0.3 5000006.91324
8.347944 2.62 0.3 5000006.91324
24.53898 4.16 0.28 5000033.8983
7.507607999999999 4.1 0.28 5000005.51268
7.507607999999999 3.78 0.28 5000005.51268
7.507607999999999 3.76 0.28 5000005.51268
8.419410000000001 3.24 0.28 5000007.03235
8.347944 2.62 0.28 5000006.91324
8.347944 2.6 0.28 5000006.91324
52.78302 5.88 0.26 5000080.9717
7.507607999999999 4.1 0.26 5000005.51268
7.507607999999999 3.78 0.26 5000005.51268
7.507607999999999 3.76 0.26 5000005.51268
8.419410000000001 3.26 0.26 5000007.03235
8.347944 2.6 0.26 5000006.91324
52.78302 5.88 0.24 5000080.9717
7.507607999999999 4.1 0.24 5000005.51268
8.347944 3.98 0.24 5000006.91324
7.507607999999999 3.76 0.24 5000005.51268
8.419410000000001 3.28 0.24 5000007.03235
8.347944 2.58 0.24 5000006.91324
8.147369999999999 2.52 0.24 5000006.57895
24.53898 4.18 0.22 5000033.8983
7.507607999999999 4.1 0.22 5000005.51268
7.507607999999999 3.76 0.22 5000005.51268
8.419410000000001 3.28 0.22 5000007.03235
8.347944 2.58 0.22 5000006.91324
8.347944 2.56 0.22 5000006.91324
8.27886 2.52 0.22 5000006.7981
7.507607999999999 4.1 0.2 5000005.51268
7.507607999999999 3.76 0.2 5000005.51268
8.419410000000001 3.3 0.2 5000007.03235
8.347944 2.56 0.2 5000006.91324
8.147369999999999 2.5 0.2 5000006.57895
44.74056 1.32 0.2 5000067.5676
44.74056 1.3 0.2 5000067.5676
7.507607999999999 4.1 0.18 5000005.51268
7.507607999999999 3.76 0.18 5000005.51268
8.419410000000001 3.3 0.18 5000007.03235
8.347944 2.56 0.18 5000006.91324
8.347944 2.54 0.18 5000006.91324
7.507607999999999 4.1 0.16 5000005.51268
7.507607999999999 3.76 0.16 5000005.51268
8.347944 2.56 0.16 5000006.91324
8.347944 2.54 0.16 5000006.91324
28.590239999999998 0.06 0.16 5000040.6504
24.53898 4.28 0.14 5000033.8983
7.507607999999999 4.1 0.14 5000005.51268
7.507607999999999 3.76 0.14 5000005.51268
8.419410000000001 3.32 0.14 5000007.03235
8.347944 2.54 0.14 5000006.91324
38.9826 1.82 0.14 5000057.971
34.65684 1.38 0.14 5000050.7614
34.65684 1.36 0.14 5000050.7614
7.463532 4.1 0.12 5000005.43922
7.507607999999999 3.76 0.12 5000005.51268
8.419410000000001 3.32 0.12 5000007.03235
8.347944 2.54 0.12 5000006.91324
8.347944 2.52 0.12 5000006.91324
7.507607999999999 4.1 0.1 5000005.51268
8.419410000000001 3.32 0.1 5000007.03235
8.347944 2.54 0.1 5000006.91324
8.347944 2.52 0.1 5000006.91324
7.463532 4.1 0.08 5000005.43922
7.507607999999999 3.76 0.08 5000005.51268
8.419410000000001 3.32 0.08 5000007.03235
8.347944 2.54 0.08 5000006.91324
8.347944 2.52 0.08 5000006.91324
64.806 5.88 0.06 5000101.01
8.419410000000001 3.32 0.06 5000007.03235
8.347944 2.54 0.06 5000006.91324
8.347944 2.52 0.06 5000006.91324
64.806 5.88 0.04 5000101.01
8.419410000000001 3.32 0.04 5000007.03235
8.347944 2.54 0.04 5000006.91324
8.347944 2.52 0.04 5000006.91324
8.419410000000001 3.36 0.02 5000007.03235
8.419410000000001 3.32 0.02 5000007.03235
8.347944 2.54 0.02 5000006.91324
8.347944 2.52 0.02 5000006.91324
34.65684 0.8 0.02 5000050.7614
8.419410000000001 3.36 0.0 5000007.03235
8.419410000000001 3.32 0.0 5000007.03235
8.347944 2.54 0.0 5000006.91324
8.347944 2.52 0.0 5000006.91324
8.64939 3.36 -0.02 5000007.41565
8.64939 3.32 -0.02 5000007.41565
8.347944 2.54 -0.02 5000006.91324
8.347944 2.52 -0.02 5000006.91324
44.74056 2.06 -0.02 5000067.5676
38.9826 1.82 -0.02 5000057.971
8.64939 3.36 -0.04 5000007.41565
8.419410000000001 3.32 -0.04 5000007.03235
8.347944 2.54 -0.04 5000006.91324
8.347944 2.52 -0.04 5000006.91324
38.9826 1.82 -0.04 5000057.971
7.463532 4.1 -0.06 5000005.43922
7.463532 4.08 -0.06 5000005.43922
8.347944 2.54 -0.06 5000006.91324
44.74056 1.58 -0.06 5000067.5676
7.463532 4.1 -0.08 5000005.43922
8.419410000000001 3.36 -0.08 5000007.03235
8.419410000000001 3.34 -0.08 5000007.03235
8.419410000000001 3.3 -0.08 5000007.03235
8.347944 2.54 -0.08 5000006.91324
7.463532 4.1 -0.1 5000005.43922
7.463532 4.08 -0.1 5000005.43922
8.347944 3.36 -0.1 5000006.91324
8.419410000000001 3.34 -0.1 5000007.03235
8.419410000000001 3.3 -0.1 5000007.03235
8.347944 2.56 -0.1 5000006.91324
8.347944 2.54 -0.1 5000006.91324
7.463532 4.1 -0.12 5000005.43922
7.463532 4.08 -0.12 5000005.43922
8.347944 3.36 -0.12 5000006.91324
8.419410000000001 3.3 -0.12 5000007.03235
8.817162000000001 2.64 -0.12 5000007.69527
8.817162000000001 2.62 -0.12 5000007.69527
8.347944 2.56 -0.12 5000006.91324
7.463532 4.1 -0.14 5000005.43922
7.463532 4.08 -0.14 5000005.43922
8.347944 3.34 -0.14 5000006.91324
8.419410000000001 3.22 -0.14 5000007.03235
8.419410000000001 3.18 -0.14 5000007.03235
8.817162000000001 2.66 -0.14 5000007.69527
7.463532 4.08 -0.16 5000005.43922
8.347944 3.34 -0.16 5000006.91324
8.419410000000001 3.18 -0.16 5000007.03235
8.347944 3.02 -0.16 5000006.91324
8.347944 3.0 -0.16 5000006.91324
8.419410000000001 2.88 -0.16 5000007.03235
8.347944 2.66 -0.16 5000006.91324
44.74056 1.58 -0.16 5000067.5676
7.463532 4.08 -0.18 5000005.43922
8.347944 3.32 -0.18 5000006.91324
8.347944 3.02 -0.18 5000006.91324
8.347944 3.0 -0.18 5000006.91324
8.419410000000001 2.88 -0.18 5000007.03235
31.28802 5.68 -0.2 5000045.1467
7.463532 4.08 -0.2 5000005.43922
8.347944 3.32 -0.2 5000006.91324
8.347944 3.3 -0.2 5000006.91324
8.347944 3.02 -0.2 5000006.91324
8.419410000000001 2.88 -0.2 5000007.03235
8.347944 2.62 -0.2 5000006.91324
8.347944 2.6 -0.2 5000006.91324
31.28802 5.68 -0.22 5000045.1467
7.463532 4.08 -0.22 5000005.43922
8.347944 3.3 -0.22 5000006.91324
8.347944 3.28 -0.22 5000006.91324
8.64939 3.24 -0.22 5000007.41565
8.347944 3.02 -0.22 5000006.91324
8.347944 3.0 -0.22 5000006.91324
8.419410000000001 2.88 -0.22 5000007.03235
8.347944 2.62 -0.22 5000006.91324
8.347944 2.6 -0.22 5000006.91324
31.28802 5.68 -0.24 5000045.1467
7.463532 4.08 -0.24 5000005.43922
8.347944 3.02 -0.24 5000006.91324
8.347944 3.0 -0.24 5000006.91324
8.419410000000001 2.88 -0.24 5000007.03235
8.347944 2.64 -0.24 5000006.91324
8.347944 2.62 -0.24 5000006.91324
21.64188 1.88 -0.24 5000029.0698
31.28802 5.7 -0.26 5000045.1467
24.53898 4.16 -0.26 5000033.8983
7.463532 4.08 -0.26 5000005.43922
8.419410000000001 2.66 -0.26 5000007.03235
8.347944 2.64 -0.26 5000006.91324
31.28802 5.7 -0.28 5000045.1467
24.53898 4.16 -0.28 5000033.8983
7.463532 4.08 -0.28 5000005.43922
8.27886 3.26 -0.28 5000006.7981
8.347944 2.68 -0.28 5000006.91324
8.347944 2.66 -0.28 5000006.91324
24.53898 4.16 -0.3 5000033.8983
7.463532 4.08 -0.3 5000005.43922
8.27886 3.16 -0.3 5000006.7981
8.347944 2.7 -0.3 5000006.91324
8.347944 2.68 -0.3 5000006.91324
24.53898 4.16 -0.32 5000033.8983
7.463532 4.1 -0.32 5000005.43922
7.463532 4.08 -0.32 5000005.43922
8.27886 3.22 -0.32 5000006.7981
8.27886 3.2 -0.32 5000006.7981
8.347944 2.72 -0.32 5000006.91324
8.347944 2.7 -0.32 5000006.91324
24.53898 4.16 -0.34 5000033.8983
8.27886 3.2 -0.34 5000006.7981
8.347944 2.76 -0.34 5000006.91324
8.347944 2.74 -0.34 5000006.91324
31.28802 1.34 -0.34 5000045.1467
44.74056 5.24 -0.36 5000067.5676
24.53898 4.16 -0.36 5000033.8983
8.27886 3.16 -0.36 5000006.7981
44.74056 5.26 -0.38 5000067.5676
24.53898 4.16 -0.38 5000033.8983
7.463532 4.1 -0.38 5000005.43922
7.463532 4.08 -0.38 5000005.43922
7.507607999999999 3.76 -0.38 5000005.51268
8.27886 3.14 -0.38 5000006.7981
8.27886 3.12 -0.38 5000006.7981
52.78302 5.9 -0.4 5000080.9717
24.53898 4.16 -0.4 5000033.8983
7.463532 4.1 -0.4 5000005.43922
7.463532 4.08 -0.4 5000005.43922
7.507607999999999 3.76 -0.4 5000005.51268
8.27886 3.12 -0.4 5000006.7981
8.27886 3.1 -0.4 5000006.7981
52.78302 5.78 -0.42 5000080.9717
24.53898 4.16 -0.42 5000033.8983
7.463532 4.1 -0.42 5000005.43922
7.463532 4.08 -0.42 5000005.43922
7.507607999999999 3.76 -0.42 5000005.51268
8.27886 3.06 -0.42 5000006.7981
8.27886 3.04 -0.42 5000006.7981
8.347944 3.02 -0.42 5000006.91324
52.78302 5.78 -0.44 5000080.9717
44.74056 5.06 -0.44 5000067.5676
7.463532 4.1 -0.44 5000005.43922
7.463532 4.08 -0.44 5000005.43922
7.507607999999999 3.76 -0.44 5000005.51268
8.347944 3.0 -0.44 5000006.91324
8.347944 2.98 -0.44 5000006.91324
8.347944 2.96 -0.44 5000006.91324
8.347944 2.94 -0.44 5000006.91324
8.419410000000001 2.88 -0.44 5000007.03235
8.419410000000001 2.86 -0.44 5000007.03235
24.53898 4.16 -0.46 5000033.8983
7.463532 4.1 -0.46 5000005.43922
7.463532 4.08 -0.46 5000005.43922
7.507607999999999 3.76 -0.46 5000005.51268
8.347944 2.98 -0.46 5000006.91324
8.347944 2.94 -0.46 5000006.91324
8.419410000000001 2.88 -0.46 5000007.03235
8.419410000000001 2.86 -0.46 5000007.03235
7.463532 4.1 -0.48 5000005.43922
8.347944 2.98 -0.48 5000006.91324
8.347944 2.96 -0.48 5000006.91324
8.347944 2.98 -0.5 5000006.91324
8.347944 2.96 -0.5 5000006.91324
44.74056 5.8 -0.52 5000067.5676
7.463532 4.1 -0.52 5000005.43922
7.463532 4.08 -0.52 5000005.43922
7.507607999999999 3.76 -0.52 5000005.51268
8.347944 2.98 -0.52 5000006.91324
8.347944 2.96 -0.52 5000006.91324
8.419410000000001 2.98 -0.54 5000007.03235
44.74056 5.3 -0.56 5000067.5676
34.65684 5.68 -0.58 5000050.7614
44.74056 5.3 -0.58 5000067.5676
7.507607999999999 3.76 -0.58 5000005.51268
8.419410000000001 2.98 -0.58 5000007.03235
34.65684 5.68 -0.6 5000050.7614
38.9826 4.56 -0.6 5000057.971
7.463532 4.1 -0.6 5000005.43922
8.419410000000001 2.98 -0.6 5000007.03235
44.74056 5.28 -0.62 5000067.5676
7.507607999999999 3.76 -0.62 5000005.51268
8.419410000000001 2.96 -0.62 5000007.03235
7.507607999999999 3.76 -0.64 5000005.51268
38.9826 4.52 -0.66 5000057.971
7.463532 4.1 -0.66 5000005.43922
8.347944 2.98 -0.66 5000006.91324
8.347944 2.96 -0.66 5000006.91324
38.9826 4.52 -0.68 5000057.971
7.463532 4.1 -0.68 5000005.43922
7.463532 4.08 -0.68 5000005.43922
8.419410000000001 2.98 -0.68 5000007.03235
7.463532 4.1 -0.7 5000005.43922
7.507607999999999 3.76 -0.7 5000005.51268
8.347944 2.98 -0.7 5000006.91324
8.419410000000001 2.86 -0.7 5000007.03235
22.97934 1.94 -0.7 5000031.2989
22.97934 4.16 -0.72 5000031.2989
7.463532 4.1 -0.72 5000005.43922
7.507607999999999 3.76 -0.72 5000005.51268
8.347944 2.98 -0.72 5000006.91324
8.347944 2.94 -0.72 5000006.91324
8.419410000000001 2.86 -0.72 5000007.03235
22.97934 1.94 -0.72 5000031.2989
22.97934 4.16 -0.74 5000031.2989
7.463532 4.1 -0.74 5000005.43922
8.347944 2.98 -0.74 5000006.91324
8.419410000000001 2.86 -0.74 5000007.03235
22.97934 4.16 -0.76 5000031.2989
7.463532 4.1 -0.76 5000005.43922
7.507607999999999 3.76 -0.76 5000005.51268
34.65684 3.18 -0.76 5000050.7614
8.347944 2.98 -0.76 5000006.91324
8.419410000000001 2.86 -0.76 5000007.03235
7.463532 4.1 -0.78 5000005.43922
7.507607999999999 3.76 -0.78 5000005.51268
34.65684 3.18 -0.78 5000050.7614
8.347944 2.98 -0.78 5000006.91324
8.347944 2.94 -0.78 5000006.91324
8.419410000000001 2.86 -0.78 5000007.03235
7.507607999999999 3.76 -0.8 5000005.51268
8.347944 2.98 -0.8 5000006.91324
8.347944 2.94 -0.8 5000006.91324
8.419410000000001 2.86 -0.8 5000007.03235
34.65684 2.18 -0.8 5000050.7614
22.97934 1.94 -0.8 5000031.2989
31.28802 1.72 -0.8 5000045.1467
8.347944 2.98 -0.82 5000006.91324
8.347944 2.94 -0.82 5000006.91324
8.419410000000001 2.86 -0.82 5000007.03235
31.28802 2.18 -0.82 5000045.1467
28.590239999999998 1.3 -0.82 5000040.6504
28.590239999999998 0.84 -0.82 5000040.6504
28.590239999999998 0.54 -0.82 5000040.6504
8.347944 2.98 -0.84 5000006.91324
8.419410000000001 2.86 -0.84 5000007.03235
31.28802 2.18 -0.84 5000045.1467
31.28802 2.16 -0.84 5000045.1467
22.97934 1.92 -0.84 5000031.2989
31.28802 1.74 -0.84 5000045.1467
31.28802 1.72 -0.84 5000045.1467
28.590239999999998 0.84 -0.84 5000040.6504
31.28802 2.16 -0.86 5000045.1467
31.28802 1.72 -0.86 5000045.1467
31.28802 1.72 -0.88 5000045.1467
28.590239999999998 0.86 -0.88 5000040.6504
7.420614 4.08 -1.02 5000005.36769
7.420614 4.08 -1.04 5000005.36769
8.347944 2.96 -1.04 5000006.91324
8.347944 2.96 -1.06 5000006.91324
7.463532 3.74 -1.18 5000005.43922
7.507607999999999 3.76 -1.2 5000005.51268
7.507607999999999 3.74 -1.2 5000005.51268
7.507607999999999 3.76 -1.22 5000005.51268
7.507607999999999 3.74 -1.22 5000005.51268
7.507607999999999 4.1 -1.24 5000005.51268
7.507607999999999 3.76 -1.24 5000005.51268
7.507607999999999 4.1 -1.26 5000005.51268
7.507607999999999 3.76 -1.26 5000005.51268
7.463532 4.1 -1.28 5000005.43922
7.507607999999999 3.76 -1.28 5000005.51268
8.347944 2.88 -1.28 5000006.91324
8.347944 2.86 -1.28 5000006.91324
8.347944 2.84 -1.28 5000006.91324
7.463532 4.1 -1.3 5000005.43922
7.507607999999999 3.76 -1.3 5000005.51268
8.905884 2.98 -1.3 5000007.84314
8.905884 2.96 -1.3 5000007.84314
8.905884 2.94 -1.3 5000007.84314
8.347944 2.86 -1.3 5000006.91324
8.347944 2.84 -1.3 5000006.91324
17.06172 5.9 -1.32 5000021.4362
7.463532 4.1 -1.32 5000005.43922
7.507607999999999 3.76 -1.32 5000005.51268
8.419410000000001 3.0 -1.32 5000007.03235
8.905884 2.98 -1.32 5000007.84314
8.905884 2.96 -1.32 5000007.84314
8.905884 2.94 -1.32 5000007.84314
8.347944 2.86 -1.32 5000006.91324
8.347944 2.84 -1.32 5000006.91324
17.06172 5.88 -1.34 5000021.4362
7.463532 4.1 -1.34 5000005.43922
7.507607999999999 3.76 -1.34 5000005.51268
8.905884 2.98 -1.34 5000007.84314
8.905884 2.94 -1.34 5000007.84314
8.347944 2.86 -1.34 5000006.91324
8.347944 2.84 -1.34 5000006.91324
7.463532 4.1 -1.36 5000005.43922
7.507607999999999 3.76 -1.36 5000005.51268
16.419959999999996 5.86 -1.38 5000020.3666
7.463532 4.1 -1.38 5000005.43922
7.507607999999999 3.76 -1.38 5000005.51268
8.347944 2.74 -1.38 5000006.91324
15.83916 5.86 -1.4 5000019.3986
7.463532 4.1 -1.4 5000005.43922
7.507607999999999 3.76 -1.4 5000005.51268
8.347944 2.76 -1.4 5000006.91324
8.347944 2.74 -1.4 5000006.91324
8.347944 2.72 -1.4 5000006.91324
15.83916 5.86 -1.42 5000019.3986
7.463532 4.1 -1.42 5000005.43922
7.507607999999999 3.76 -1.42 5000005.51268
8.419410000000001 3.1 -1.42 5000007.03235
8.347944 2.76 -1.42 5000006.91324
8.347944 2.74 -1.42 5000006.91324
8.347944 2.72 -1.42 5000006.91324
15.83916 5.84 -1.44 5000019.3986
7.463532 4.1 -1.44 5000005.43922
7.507607999999999 3.76 -1.44 5000005.51268
8.419410000000001 3.1 -1.44 5000007.03235
8.419410000000001 3.08 -1.44 5000007.03235
8.347944 2.76 -1.44 5000006.91324
8.347944 2.74 -1.44 5000006.91324
8.347944 2.72 -1.44 5000006.91324
15.3111 5.84 -1.46 5000018.5185
7.463532 4.1 -1.46 5000005.43922
7.507607999999999 3.76 -1.46 5000005.51268
8.419410000000001 3.1 -1.46 5000007.03235
8.419410000000001 3.08 -1.46 5000007.03235
8.347944 2.76 -1.46 5000006.91324
8.347944 2.74 -1.46 5000006.91324
8.347944 2.72 -1.46 5000006.91324
7.463532 4.1 -1.48 5000005.43922
7.507607999999999 3.76 -1.48 5000005.51268
8.419410000000001 3.1 -1.48 5000007.03235
8.419410000000001 3.08 -1.48 5000007.03235
8.347944 2.76 -1.48 5000006.91324
8.347944 2.74 -1.48 5000006.91324
8.347944 2.72 -1.48 5000006.91324
14.82888 5.86 -1.5 5000017.7148
7.507607999999999 3.76 -1.5 5000005.51268
7.507607999999999 3.74 -1.5 5000005.51268
8.347944 3.1 -1.5 5000006.91324
8.347944 3.08 -1.5 5000006.91324
8.347944 2.76 -1.5 5000006.91324
8.347944 2.74 -1.5 5000006.91324
8.347944 2.72 -1.5 5000006.91324
13.979940000000001 0.88 -1.5 5000016.2999
14.82888 5.86 -1.52 5000017.7148
7.463532 4.1 -1.52 5000005.43922
7.507607999999999 3.76 -1.52 5000005.51268
8.347944 3.1 -1.52 5000006.91324
8.347944 3.08 -1.52 5000006.91324
8.347944 2.74 -1.52 5000006.91324
8.347944 2.72 -1.52 5000006.91324
13.979940000000001 0.88 -1.52 5000016.2999
14.386740000000001 5.86 -1.54 5000016.9779
7.463532 4.1 -1.54 5000005.43922
7.507607999999999 3.76 -1.54 5000005.51268
8.347944 3.1 -1.54 5000006.91324
8.347944 3.08 -1.54 5000006.91324
8.347944 3.06 -1.54 5000006.91324
14.386740000000001 5.86 -1.56 5000016.9779
7.507607999999999 3.76 -1.56 5000005.51268
8.212038 3.02 -1.56 5000006.68673
7.965294 2.96 -1.56 5000006.27549
13.979940000000001 5.86 -1.58 5000016.2999
7.463532 4.1 -1.58 5000005.43922
7.507607999999999 3.76 -1.58 5000005.51268
13.979940000000001 5.88 -1.6 5000016.2999
7.507607999999999 3.76 -1.6 5000005.51268
8.347944 3.12 -1.6 5000006.91324
8.347944 3.1 -1.6 5000006.91324
8.419410000000001 2.72 -1.6 5000007.03235
13.979940000000001 5.88 -1.62 5000016.2999
7.507607999999999 3.76 -1.62 5000005.51268
8.347944 3.12 -1.62 5000006.91324
8.347944 3.1 -1.62 5000006.91324
8.419410000000001 2.72 -1.62 5000007.03235
12.933599999999998 0.88 -1.62 5000014.556
13.6044 5.88 -1.64 5000015.674
7.507607999999999 3.76 -1.64 5000005.51268
8.347944 3.12 -1.64 5000006.91324
8.347944 3.1 -1.64 5000006.91324
8.419410000000001 2.72 -1.64 5000007.03235
12.933599999999998 0.88 -1.64 5000014.556
7.463532 4.1 -1.66 5000005.43922
7.507607999999999 3.76 -1.66 5000005.51268
8.347944 3.12 -1.66 5000006.91324
8.347944 3.1 -1.66 5000006.91324
8.419410000000001 2.72 -1.66 5000007.03235
12.933599999999998 5.9 -1.68 5000014.556
7.463532 4.1 -1.68 5000005.43922
7.507607999999999 3.76 -1.68 5000005.51268
8.347944 3.12 -1.68 5000006.91324
8.347944 3.1 -1.68 5000006.91324
12.933599999999998 5.92 -1.7 5000014.556
7.463532 4.1 -1.7 5000005.43922
7.507607999999999 3.76 -1.7 5000005.51268
8.347944 3.1 -1.7 5000006.91324
12.933599999999998 5.92 -1.72 5000014.556
7.463532 4.1 -1.72 5000005.43922
7.507607999999999 3.76 -1.72 5000005.51268
9.193757999999999 3.04 -1.72 5000008.32293
9.193757999999999 2.88 -1.72 5000008.32293
9.193757999999999 2.86 -1.72 5000008.32293
8.99808 2.84 -1.72 5000007.9968
8.905884 2.82 -1.72 5000007.84314
8.569992 2.8 -1.72 5000007.28332
8.419410000000001 2.78 -1.72 5000007.03235
8.419410000000001 2.76 -1.72 5000007.03235
8.419410000000001 2.74 -1.72 5000007.03235
8.347944 2.72 -1.72 5000006.91324
12.63288 5.94 -1.74 5000014.0548
7.463532 4.1 -1.74 5000005.43922
7.507607999999999 3.76 -1.74 5000005.51268
8.419410000000001 2.76 -1.74 5000007.03235
8.347944 2.74 -1.74 5000006.91324
8.347944 2.72 -1.74 5000006.91324
7.507607999999999 3.76 -1.76 5000005.51268
8.347944 3.1 -1.76 5000006.91324
8.347944 2.76 -1.76 5000006.91324
8.347944 2.74 -1.76 5000006.91324
8.347944 2.72 -1.76 5000006.91324
7.507607999999999 3.76 -1.78 5000005.51268
8.347944 3.1 -1.78 5000006.91324
8.347944 3.08 -1.78 5000006.91324
8.347944 2.76 -1.78 5000006.91324
8.347944 2.74 -1.78 5000006.91324
8.347944 2.72 -1.78 5000006.91324
11.843340000000001 0.9 -1.78 5000012.7389
7.507607999999999 3.76 -1.8 5000005.51268
8.347944 3.1 -1.8 5000006.91324
8.347944 3.08 -1.8 5000006.91324
8.347944 2.76 -1.8 5000006.91324
8.347944 2.74 -1.8 5000006.91324
8.347944 2.72 -1.8 5000006.91324
7.507607999999999 3.76 -1.82 5000005.51268
8.347944 3.1 -1.82 5000006.91324
8.347944 3.08 -1.82 5000006.91324
8.347944 2.76 -1.82 5000006.91324
8.347944 2.74 -1.82 5000006.91324
8.347944 2.72 -1.82 5000006.91324
7.507607999999999 3.76 -1.84 5000005.51268
8.347944 3.1 -1.84 5000006.91324
8.347944 3.08 -1.84 5000006.91324
8.347944 2.76 -1.84 5000006.91324
8.347944 2.74 -1.84 5000006.91324
8.347944 2.72 -1.84 5000006.91324
11.18892 0.9 -1.84 5000011.6482
7.507607999999999 3.76 -1.86 5000005.51268
8.347944 3.1 -1.86 5000006.91324
8.347944 3.08 -1.86 5000006.91324
8.347944 2.74 -1.86 5000006.91324
8.347944 2.72 -1.86 5000006.91324
7.507607999999999 3.76 -1.88 5000005.51268
8.347944 3.1 -1.88 5000006.91324
8.347944 3.08 -1.88 5000006.91324
8.347944 2.74 -1.88 5000006.91324
8.347944 2.72 -1.88 5000006.91324
7.507607999999999 3.76 -1.9 5000005.51268
8.347944 3.1 -1.9 5000006.91324
8.347944 3.08 -1.9 5000006.91324
7.507607999999999 3.76 -1.92 5000005.51268
8.347944 3.1 -1.92 5000006.91324
8.347944 3.08 -1.92 5000006.91324
8.347944 3.06 -1.92 5000006.91324
7.507607999999999 3.76 -1.94 5000005.51268
8.147369999999999 3.02 -1.94 5000006.57895
8.084754 3.0 -1.94 5000006.47459
8.024094 2.98 -1.94 5000006.37349
8.024094 2.96 -1.94 5000006.37349
8.024094 2.94 -1.94 5000006.37349
7.507607999999999 3.76 -1.96 5000005.51268
7.507607999999999 3.76 -1.98 5000005.51268
8.347944 3.12 -1.98 5000006.91324
8.347944 3.1 -1.98 5000006.91324
7.463532 4.1 -2.0 5000005.43922
7.507607999999999 3.76 -2.0 5000005.51268
8.347944 3.12 -2.0 5000006.91324
8.347944 3.1 -2.0 5000006.91324
7.507607999999999 3.76 -2.02 5000005.51268
8.347944 3.12 -2.02 5000006.91324
8.347944 3.1 -2.02 5000006.91324
8.347944 2.72 -2.02 5000006.91324
7.507607999999999 3.76 -2.04 5000005.51268
8.347944 3.12 -2.04 5000006.91324
8.347944 3.1 -2.04 5000006.91324
7.507607999999999 3.76 -2.06 5000005.51268
8.347944 3.1 -2.06 5000006.91324
7.507607999999999 3.76 -2.08 5000005.51268
8.347944 3.1 -2.08 5000006.91324
9.093966 2.86 -2.08 5000008.15661
8.99808 2.84 -2.08 5000007.9968
8.817162000000001 2.8 -2.08 5000007.69527
7.507607999999999 3.76 -2.1 5000005.51268
8.347944 3.06 -2.1 5000006.91324
8.419410000000001 3.04 -2.1 5000007.03235
8.64939 2.96 -2.1 5000007.41565
8.64939 2.94 -2.1 5000007.41565
9.093966 2.86 -2.1 5000008.15661
8.99808 2.84 -2.1 5000007.9968
8.99808 2.82 -2.1 5000007.9968
8.817162000000001 2.8 -2.1 5000007.69527
8.569992 2.78 -2.1 5000007.28332
8.347944 2.76 -2.1 5000006.91324
8.347944 2.74 -2.1 5000006.91324
8.347944 2.72 -2.1 5000006.91324
7.507607999999999 3.76 -2.12 5000005.51268
8.347944 3.08 -2.12 5000006.91324
8.419410000000001 3.04 -2.12 5000007.03235
8.27886 3.02 -2.12 5000006.7981
8.27886 3.0 -2.12 5000006.7981
8.212038 2.98 -2.12 5000006.68673
8.347944 2.74 -2.12 5000006.91324
8.347944 2.72 -2.12 5000006.91324
10.025244 1.02 -2.12 5000009.70874
10.025244 1.0 -2.12 5000009.70874
7.507607999999999 3.76 -2.14 5000005.51268
8.347944 3.1 -2.14 5000006.91324
8.347944 2.74 -2.14 5000006.91324
8.347944 2.72 -2.14 5000006.91324
10.025244 1.0 -2.14 5000009.70874
10.025244 0.98 -2.14 5000009.70874
9.889902000000001 0.96 -2.14 5000009.48317
9.637241999999999 0.94 -2.14 5000009.06207
9.637241999999999 0.92 -2.14 5000009.06207
9.889902000000001 0.88 -2.14 5000009.48317
7.463532 4.1 -2.16 5000005.43922
7.507607999999999 3.76 -2.16 5000005.51268
8.347944 3.1 -2.16 5000006.91324
8.347944 2.76 -2.16 5000006.91324
8.347944 2.74 -2.16 5000006.91324
8.347944 2.72 -2.16 5000006.91324
9.760704 -4.86 -2.16 5000009.26784
9.760704 -4.88 -2.16 5000009.26784
9.760704 -4.9 -2.16 5000009.26784
7.507607999999999 3.76 -2.18 5000005.51268
8.347944 3.1 -2.18 5000006.91324
8.347944 3.08 -2.18 5000006.91324
8.347944 2.76 -2.18 5000006.91324
8.347944 2.74 -2.18 5000006.91324
8.347944 2.72 -2.18 5000006.91324
7.463532 4.1 -2.2 5000005.43922
7.507607999999999 3.76 -2.2 5000005.51268
8.347944 3.1 -2.2 5000006.91324
8.347944 3.08 -2.2 5000006.91324
8.347944 2.74 -2.2 5000006.91324
7.507607999999999 3.74 -2.22 5000005.51268
8.347944 3.1 -2.22 5000006.91324
8.347944 3.08 -2.22 5000006.91324
8.347944 2.74 -2.22 5000006.91324
8.347944 2.72 -2.22 5000006.91324
7.463532 3.76 -2.24 5000005.43922
8.347944 3.1 -2.24 5000006.91324
8.347944 3.08 -2.24 5000006.91324
8.347944 2.74 -2.24 5000006.91324
8.347944 2.72 -2.24 5000006.91324
7.463532 3.76 -2.26 5000005.43922
7.463532 3.74 -2.26 5000005.43922
8.347944 3.1 -2.26 5000006.91324
8.347944 3.08 -2.26 5000006.91324
8.347944 2.74 -2.26 5000006.91324
8.347944 2.72 -2.26 5000006.91324
7.463532 3.76 -2.28 5000005.43922
8.347944 3.1 -2.28 5000006.91324
7.463532 3.76 -2.3 5000005.43922
8.347944 3.1 -2.3 5000006.91324
8.347944 3.08 -2.3 5000006.91324
8.347944 3.06 -2.3 5000006.91324
8.347944 3.04 -2.3 5000006.91324
9.51915 1.4 -2.3 5000008.86525
9.51915 1.38 -2.3 5000008.86525
7.463532 3.76 -2.32 5000005.43922
7.463532 3.74 -2.32 5000005.43922
8.347944 3.04 -2.32 5000006.91324
8.347944 3.02 -2.32 5000006.91324
8.27886 3.0 -2.32 5000006.7981
8.084754 2.98 -2.32 5000006.47459
8.024094 2.96 -2.32 5000006.37349
8.024094 2.94 -2.32 5000006.37349
8.024094 2.92 -2.32 5000006.37349
9.093966 3.2 -2.34 5000008.15661
7.463532 3.76 -2.36 5000005.43922
8.347944 3.12 -2.36 5000006.91324
8.347944 3.1 -2.36 5000006.91324
7.507607999999999 3.76 -2.38 5000005.51268
8.347944 3.1 -2.38 5000006.91324
7.463532 3.76 -2.4 5000005.43922
8.347944 3.12 -2.4 5000006.91324
8.347944 3.1 -2.4 5000006.91324
9.297708 2.6 -2.4 5000008.49618
7.463532 3.76 -2.42 5000005.43922
8.347944 3.1 -2.42 5000006.91324
9.889902000000001 2.66 -2.42 5000009.48317
9.297708 2.58 -2.42 5000008.49618
7.463532 3.76 -2.44 5000005.43922
8.347944 3.1 -2.44 5000006.91324
8.347944 3.1 -2.46 5000006.91324
9.193757999999999 3.22 -2.48 5000008.32293
9.093966 3.18 -2.48 5000008.15661
9.093966 3.16 -2.48 5000008.15661
8.347944 3.08 -2.48 5000006.91324
8.347944 3.06 -2.48 5000006.91324
8.27886 3.04 -2.48 5000006.7981
8.493384 2.86 -2.48 5000007.15564
8.569992 2.84 -2.48 5000007.28332
8.569992 2.82 -2.48 5000007.28332
8.569992 2.8 -2.48 5000007.28332
8.419410000000001 2.78 -2.48 5000007.03235
8.419410000000001 2.76 -2.48 5000007.03235
8.347944 2.74 -2.48 5000006.91324
8.347944 3.06 -2.5 5000006.91324
8.27886 3.04 -2.5 5000006.7981
8.27886 3.02 -2.5 5000006.7981
8.212038 3.0 -2.5 5000006.68673
8.147369999999999 2.98 -2.5 5000006.57895
8.212038 2.96 -2.5 5000006.68673
8.212038 2.94 -2.5 5000006.68673
8.212038 2.9 -2.5 5000006.68673
8.493384 2.86 -2.5 5000007.15564
8.569992 2.84 -2.5 5000007.28332
8.347944 2.74 -2.5 5000006.91324
8.64939 2.24 -2.5 5000007.41565
8.905884 1.78 -2.5 5000007.84314
7.8529680000000015 4.34 -2.52 5000006.08828
7.8529680000000015 4.32 -2.52 5000006.08828
8.569992 3.56 -2.52 5000007.28332
8.569992 3.54 -2.52 5000007.28332
8.569992 3.38 -2.52 5000007.28332
8.347944 2.74 -2.52 5000006.91324
8.569992 2.24 -2.52 5000007.28332
8.64939 1.74 -2.52 5000007.41565
8.64939 1.72 -2.52 5000007.41565
7.8529680000000015 4.36 -2.54 5000006.08828
8.347944 3.1 -2.54 5000006.91324
8.347944 2.74 -2.54 5000006.91324
8.347944 2.72 -2.54 5000006.91324
8.64939 1.7 -2.54 5000007.41565
8.347944 3.1 -2.56 5000006.91324
8.347944 2.74 -2.56 5000006.91324
8.347944 2.72 -2.56 5000006.91324
8.419410000000001 2.42 -2.56 5000007.03235
8.569992 2.24 -2.56 5000007.28332
8.569992 2.22 -2.56 5000007.28332
8.569992 2.2 -2.56 5000007.28332
8.493384 2.18 -2.56 5000007.15564
