VERSION .7
FIELDS x y z rgb
SIZE 4 4 4 4
TYPE F F F F
COUNT 1 1 1 1
WIDTH 1272
HEIGHT 1
VIEWPOINT 0 0 0 1 0 0 0
POINTS 1272
DATA ascii
22.97934 4.4 0.56 5000031.2989
7.747145999999999 3.88 0.56 5000005.91191
7.7992799999999995 3.86 0.56 5000005.9988
7.747145999999999 3.84 0.56 5000005.91191
21.64188 2.16 0.56 5000029.0698
7.7992799999999995 3.92 0.54 5000005.9988
7.7992799999999995 3.9 0.54 5000005.9988
7.747145999999999 3.88 0.54 5000005.91191
7.7992799999999995 3.94 0.52 5000005.9988
7.7992799999999995 3.92 0.52 5000005.9988
7.747145999999999 3.66 0.52 5000005.91191
6.88998 4.88 0.5 5000004.4833
7.7992799999999995 3.98 0.5 5000005.9988
7.7992799999999995 3.96 0.5 5000005.9988
7.7992799999999995 3.94 0.5 5000005.9988
7.747145999999999 3.66 0.5 5000005.91191
7.747145999999999 3.64 0.5 5000005.91191
7.965294 3.6 0.5 5000006.27549
21.64188 2.14 0.5 5000029.0698
7.747145999999999 4.0 0.48 5000005.91191
7.7992799999999995 3.98 0.48 5000005.9988
7.747145999999999 3.68 0.48 5000005.91191
7.747145999999999 3.66 0.48 5000005.91191
7.7992799999999995 3.56 0.48 5000005.9988
7.747145999999999 3.36 0.48 5000005.91191
28.590239999999998 2.32 0.48 5000040.6504
6.88998 4.88 0.46 5000004.4833
7.747145999999999 4.02 0.46 5000005.91191
7.747145999999999 4.0 0.46 5000005.91191
7.747145999999999 3.68 0.46 5000005.91191
7.747145999999999 3.66 0.46 5000005.91191
7.747145999999999 3.64 0.46 5000005.91191
7.7992799999999995 3.36 0.46 5000005.9988
7.747145999999999 3.34 0.46 5000005.91191
6.88998 4.88 0.44 5000004.4833
7.747145999999999 4.04 0.44 5000005.91191
7.747145999999999 4.02 0.44 5000005.91191
7.7992799999999995 3.94 0.44 5000005.9988
7.747145999999999 3.66 0.44 5000005.91191
7.747145999999999 3.64 0.44 5000005.91191
7.965294 3.6 0.44 5000006.27549
7.7992799999999995 3.34 0.44 5000005.9988
7.747145999999999 3.32 0.44 5000005.91191
20.4822 2.26 0.44 5000027.137
7.747145999999999 4.06 0.42 5000005.91191
7.747145999999999 4.04 0.42 5000005.91191
7.7992799999999995 3.96 0.42 5000005.9988
7.7992799999999995 3.32 0.42 5000005.9988
7.747145999999999 3.3 0.42 5000005.91191
21.64188 2.06 0.42 5000029.0698
7.747145999999999 4.06 0.4 5000005.91191
7.7992799999999995 3.98 0.4 5000005.9988
7.7992799999999995 3.3 0.4 5000005.9988
7.747145999999999 3.28 0.4 5000005.91191
31.28802 2.34 0.4 5000045.1467
20.4822 2.26 0.4 5000027.137
21.64188 2.06 0.4 5000029.0698
7.747145999999999 4.08 0.38 5000005.91191
7.747145999999999 4.06 0.38 5000005.91191
7.747145999999999 3.28 0.38 5000005.91191
7.747145999999999 3.26 0.38 5000005.91191
38.9826 0.9 0.38 5000057.971
7.747145999999999 4.1 0.36 5000005.91191
7.747145999999999 4.08 0.36 5000005.91191
7.7992799999999995 3.28 0.36 5000005.9988
7.747145999999999 3.26 0.36 5000005.91191
7.7992799999999995 3.24 0.36 5000005.9988
31.28802 2.34 0.36 5000045.1467
38.9826 0.9 0.36 5000057.971
6.860754 5.32 0.34 5000004.43459
7.747145999999999 4.1 0.34 5000005.91191
7.747145999999999 3.26 0.34 5000005.91191
7.7992799999999995 3.24 0.34 5000005.9988
7.7992799999999995 3.2 0.34 5000005.9988
38.9826 0.9 0.34 5000057.971
7.747145999999999 4.12 0.32 5000005.91191
7.747145999999999 4.1 0.32 5000005.91191
7.747145999999999 3.24 0.32 5000005.91191
7.747145999999999 3.22 0.32 5000005.91191
7.747145999999999 3.2 0.32 5000005.91191
7.747145999999999 4.12 0.3 5000005.91191
7.747145999999999 3.22 0.3 5000005.91191
7.747145999999999 3.18 0.3 5000005.91191
20.4822 2.24 0.3 5000027.137
7.747145999999999 4.14 0.28 5000005.91191
7.747145999999999 4.12 0.28 5000005.91191
7.747145999999999 3.22 0.28 5000005.91191
7.747145999999999 3.2 0.28 5000005.91191
7.747145999999999 4.14 0.26 5000005.91191
7.747145999999999 3.22 0.26 5000005.91191
7.747145999999999 3.2 0.26 5000005.91191
7.747145999999999 4.16 0.24 5000005.91191
7.747145999999999 4.14 0.24 5000005.91191
7.747145999999999 3.2 0.24 5000005.91191
7.747145999999999 3.18 0.24 5000005.91191
7.747145999999999 3.16 0.24 5000005.91191
38.9826 0.9 0.24 5000057.971
7.747145999999999 4.16 0.22 5000005.91191
7.747145999999999 3.2 0.22 5000005.91191
7.747145999999999 3.18 0.22 5000005.91191
38.9826 0.9 0.22 5000057.971
7.7992799999999995 4.16 0.2 5000005.9988
7.747145999999999 3.2 0.2 5000005.91191
7.747145999999999 3.18 0.2 5000005.91191
34.65684 2.36 0.2 5000050.7614
38.9826 1.42 0.2 5000057.971
44.74056 -3.22 0.2 5000067.5676
44.74056 -3.24 0.2 5000067.5676
7.7992799999999995 4.16 0.18 5000005.9988
7.747145999999999 3.18 0.18 5000005.91191
7.747145999999999 3.16 0.18 5000005.91191
38.9826 1.42 0.18 5000057.971
7.7992799999999995 4.16 0.16 5000005.9988
7.747145999999999 3.18 0.16 5000005.91191
7.747145999999999 3.16 0.16 5000005.91191
34.65684 2.46 0.16 5000050.7614
6.804168 5.3 0.14 5000004.34028
7.7992799999999995 4.16 0.14 5000005.9988
7.747145999999999 4.08 0.14 5000005.91191
7.747145999999999 3.18 0.14 5000005.91191
7.747145999999999 3.16 0.14 5000005.91191
34.65684 2.46 0.14 5000050.7614
34.65684 2.44 0.14 5000050.7614
31.28802 1.48 0.14 5000045.1467
38.9826 0.9 0.14 5000057.971
64.806 0.24 0.14 5000101.01
6.804168 5.3 0.12 5000004.34028
7.747145999999999 3.18 0.12 5000005.91191
7.747145999999999 3.16 0.12 5000005.91191
34.65684 2.46 0.12 5000050.7614
52.78302 1.54 0.12 5000080.9717
31.28802 1.48 0.12 5000045.1467
6.804168 5.3 0.1 5000004.34028
7.7992799999999995 4.18 0.1 5000005.9988
7.747145999999999 3.18 0.1 5000005.91191
7.747145999999999 3.16 0.1 5000005.91191
34.65684 2.46 0.1 5000050.7614
6.804168 5.3 0.08 5000004.34028
7.747145999999999 3.18 0.08 5000005.91191
7.747145999999999 3.16 0.08 5000005.91191
34.65684 2.46 0.08 5000050.7614
38.9826 0.9 0.08 5000057.971
6.804168 5.3 0.06 5000004.34028
7.7992799999999995 4.1 0.06 5000005.9988
7.747145999999999 3.18 0.06 5000005.91191
7.747145999999999 3.16 0.06 5000005.91191
34.65684 2.46 0.06 5000050.7614
38.9826 0.9 0.06 5000057.971
6.804168 5.3 0.04 5000004.34028
7.7992799999999995 4.1 0.04 5000005.9988
7.747145999999999 3.18 0.04 5000005.91191
7.747145999999999 3.16 0.04 5000005.91191
34.65684 2.46 0.04 5000050.7614
38.9826 1.68 0.04 5000057.971
6.804168 5.3 0.02 5000004.34028
7.747145999999999 4.16 0.02 5000005.91191
7.7992799999999995 4.1 0.02 5000005.9988
7.747145999999999 3.18 0.02 5000005.91191
7.747145999999999 3.16 0.02 5000005.91191
34.65684 2.46 0.02 5000050.7614
44.74056 1.94 0.02 5000067.5676
38.9826 1.68 0.02 5000057.971
38.9826 0.9 0.02 5000057.971
7.747145999999999 4.16 0.0 5000005.91191
7.7992799999999995 4.1 0.0 5000005.9988
7.747145999999999 3.18 0.0 5000005.91191
7.747145999999999 3.16 0.0 5000005.91191
34.65684 2.46 0.0 5000050.7614
44.74056 1.94 0.0 5000067.5676
38.9826 1.68 0.0 5000057.971
7.747145999999999 4.16 -0.02 5000005.91191
7.7992799999999995 4.08 -0.02 5000005.9988
7.747145999999999 3.18 -0.02 5000005.91191
7.747145999999999 3.16 -0.02 5000005.91191
34.65684 2.46 -0.02 5000050.7614
44.74056 1.94 -0.02 5000067.5676
38.9826 1.68 -0.02 5000057.971
38.9826 0.9 -0.02 5000057.971
6.832158 5.32 -0.04 5000004.38693
6.832158 5.3 -0.04 5000004.38693
6.860754 4.88 -0.04 5000004.43459
7.747145999999999 4.16 -0.04 5000005.91191
7.747145999999999 4.12 -0.04 5000005.91191
7.7992799999999995 4.08 -0.04 5000005.9988
7.747145999999999 3.2 -0.04 5000005.91191
7.747145999999999 3.18 -0.04 5000005.91191
34.65684 2.46 -0.04 5000050.7614
34.65684 2.18 -0.04 5000050.7614
44.74056 1.94 -0.04 5000067.5676
38.9826 1.68 -0.04 5000057.971
6.832158 5.32 -0.06 5000004.38693
6.832158 5.3 -0.06 5000004.38693
7.747145999999999 4.16 -0.06 5000005.91191
7.747145999999999 4.14 -0.06 5000005.91191
7.747145999999999 4.12 -0.06 5000005.91191
7.7992799999999995 4.08 -0.06 5000005.9988
7.747145999999999 3.2 -0.06 5000005.91191
7.747145999999999 3.18 -0.06 5000005.91191
34.65684 2.46 -0.06 5000050.7614
44.74056 1.94 -0.06 5000067.5676
38.9826 1.68 -0.06 5000057.971
6.804168 5.32 -0.08 5000004.34028
6.804168 5.3 -0.08 5000004.34028
6.860754 4.88 -0.08 5000004.43459
7.747145999999999 4.16 -0.08 5000005.91191
7.747145999999999 4.14 -0.08 5000005.91191
7.747145999999999 4.12 -0.08 5000005.91191
7.7992799999999995 4.08 -0.08 5000005.9988
7.747145999999999 3.2 -0.08 5000005.91191
7.747145999999999 3.18 -0.08 5000005.91191
34.65684 2.46 -0.08 5000050.7614
44.74056 1.94 -0.08 5000067.5676
38.9826 1.68 -0.08 5000057.971
6.804168 5.32 -0.1 5000004.34028
6.804168 5.3 -0.1 5000004.34028
6.860754 4.88 -0.1 5000004.43459
7.747145999999999 4.14 -0.1 5000005.91191
7.7992799999999995 4.08 -0.1 5000005.9988
7.747145999999999 3.32 -0.1 5000005.91191
7.747145999999999 3.3 -0.1 5000005.91191
7.747145999999999 3.28 -0.1 5000005.91191
7.747145999999999 3.2 -0.1 5000005.91191
34.65684 2.46 -0.1 5000050.7614
38.9826 1.68 -0.1 5000057.971
6.804168 5.32 -0.12 5000004.34028
6.804168 5.3 -0.12 5000004.34028
6.860754 4.88 -0.12 5000004.43459
7.747145999999999 4.14 -0.12 5000005.91191
7.747145999999999 4.12 -0.12 5000005.91191
7.507607999999999 4.04 -0.12 5000005.51268
7.507607999999999 4.02 -0.12 5000005.51268
7.507607999999999 4.0 -0.12 5000005.51268
7.7992799999999995 3.98 -0.12 5000005.9988
7.7992799999999995 3.94 -0.12 5000005.9988
7.747145999999999 3.34 -0.12 5000005.91191
7.747145999999999 3.32 -0.12 5000005.91191
7.747145999999999 3.24 -0.12 5000005.91191
7.747145999999999 3.18 -0.12 5000005.91191
34.65684 2.46 -0.12 5000050.7614
34.65684 2.18 -0.12 5000050.7614
38.9826 1.68 -0.12 5000057.971
6.804168 5.32 -0.14 5000004.34028
6.804168 5.3 -0.14 5000004.34028
6.860754 4.88 -0.14 5000004.43459
7.747145999999999 4.14 -0.14 5000005.91191
7.747145999999999 4.12 -0.14 5000005.91191
7.7992799999999995 3.94 -0.14 5000005.9988
7.747145999999999 3.74 -0.14 5000005.91191
7.747145999999999 3.34 -0.14 5000005.91191
7.747145999999999 3.32 -0.14 5000005.91191
34.65684 2.46 -0.14 5000050.7614
44.74056 1.94 -0.14 5000067.5676
38.9826 1.68 -0.14 5000057.971
31.28802 5.92 -0.16 5000045.1467
6.804168 5.32 -0.16 5000004.34028
6.804168 5.3 -0.16 5000004.34028
6.860754 4.88 -0.16 5000004.43459
7.747145999999999 4.12 -0.16 5000005.91191
7.747145999999999 4.1 -0.16 5000005.91191
7.747145999999999 3.76 -0.16 5000005.91191
7.747145999999999 3.74 -0.16 5000005.91191
7.747145999999999 3.72 -0.16 5000005.91191
8.212038 3.68 -0.16 5000006.68673
7.7992799999999995 3.58 -0.16 5000005.9988
7.747145999999999 3.3 -0.16 5000005.91191
34.65684 2.46 -0.16 5000050.7614
44.74056 1.94 -0.16 5000067.5676
38.9826 1.68 -0.16 5000057.971
6.804168 5.32 -0.18 5000004.34028
7.747145999999999 4.1 -0.18 5000005.91191
8.024094 4.06 -0.18 5000006.37349
7.079772 3.82 -0.18 5000004.79962
7.747145999999999 3.76 -0.18 5000005.91191
7.747145999999999 3.74 -0.18 5000005.91191
8.212038 3.68 -0.18 5000006.68673
7.7992799999999995 3.58 -0.18 5000005.9988
7.747145999999999 3.28 -0.18 5000005.91191
7.747145999999999 3.26 -0.18 5000005.91191
34.65684 2.46 -0.18 5000050.7614
38.9826 1.68 -0.18 5000057.971
6.804168 5.32 -0.2 5000004.34028
6.804168 5.3 -0.2 5000004.34028
44.74056 5.12 -0.2 5000067.5676
52.78302 5.02 -0.2 5000080.9717
52.78302 5.0 -0.2 5000080.9717
7.965294 4.06 -0.2 5000006.27549
7.747145999999999 3.76 -0.2 5000005.91191
7.747145999999999 3.74 -0.2 5000005.91191
8.212038 3.68 -0.2 5000006.68673
7.7992799999999995 3.58 -0.2 5000005.9988
7.747145999999999 3.28 -0.2 5000005.91191
7.747145999999999 3.26 -0.2 5000005.91191
34.65684 2.46 -0.2 5000050.7614
31.28802 5.92 -0.22 5000045.1467
6.804168 5.32 -0.22 5000004.34028
6.804168 5.3 -0.22 5000004.34028
44.74056 5.12 -0.22 5000067.5676
52.78302 5.0 -0.22 5000080.9717
6.860754 4.88 -0.22 5000004.43459
7.965294 4.06 -0.22 5000006.27549
7.965294 4.04 -0.22 5000006.27549
7.965294 4.0 -0.22 5000006.27549
7.747145999999999 3.76 -0.22 5000005.91191
7.747145999999999 3.74 -0.22 5000005.91191
7.747145999999999 3.72 -0.22 5000005.91191
8.212038 3.68 -0.22 5000006.68673
7.7992799999999995 3.58 -0.22 5000005.9988
7.747145999999999 3.28 -0.22 5000005.91191
7.747145999999999 3.26 -0.22 5000005.91191
6.804168 5.32 -0.24 5000004.34028
44.74056 5.12 -0.24 5000067.5676
52.78302 5.0 -0.24 5000080.9717
7.965294 4.04 -0.24 5000006.27549
7.747145999999999 3.74 -0.24 5000005.91191
7.747145999999999 3.72 -0.24 5000005.91191
8.212038 3.68 -0.24 5000006.68673
7.7992799999999995 3.58 -0.24 5000005.9988
7.747145999999999 3.3 -0.24 5000005.91191
7.747145999999999 3.28 -0.24 5000005.91191
21.64188 2.06 -0.24 5000029.0698
31.28802 5.92 -0.26 5000045.1467
6.804168 5.32 -0.26 5000004.34028
6.804168 5.3 -0.26 5000004.34028
6.860754 4.88 -0.26 5000004.43459
7.965294 4.06 -0.26 5000006.27549
7.965294 4.02 -0.26 5000006.27549
7.747145999999999 3.32 -0.26 5000005.91191
7.747145999999999 3.3 -0.26 5000005.91191
21.64188 2.06 -0.26 5000029.0698
31.28802 1.48 -0.26 5000045.1467
31.28802 1.46 -0.26 5000045.1467
31.28802 5.94 -0.28 5000045.1467
6.804168 5.32 -0.28 5000004.34028
6.804168 5.3 -0.28 5000004.34028
6.860754 4.88 -0.28 5000004.43459
7.747145999999999 4.04 -0.28 5000005.91191
7.7992799999999995 4.0 -0.28 5000005.9988
7.7992799999999995 3.96 -0.28 5000005.9988
7.747145999999999 3.34 -0.28 5000005.91191
7.747145999999999 3.32 -0.28 5000005.91191
38.9826 1.68 -0.28 5000057.971
31.28802 1.46 -0.28 5000045.1467
6.804168 5.32 -0.3 5000004.34028
6.804168 5.3 -0.3 5000004.34028
6.860754 4.88 -0.3 5000004.43459
7.747145999999999 4.02 -0.3 5000005.91191
7.7992799999999995 3.94 -0.3 5000005.9988
7.747145999999999 3.36 -0.3 5000005.91191
7.747145999999999 3.34 -0.3 5000005.91191
34.65684 2.46 -0.3 5000050.7614
38.9826 1.68 -0.3 5000057.971
6.804168 5.32 -0.32 5000004.34028
6.804168 5.3 -0.32 5000004.34028
6.860754 4.88 -0.32 5000004.43459
7.747145999999999 4.0 -0.32 5000005.91191
7.747145999999999 3.98 -0.32 5000005.91191
7.7992799999999995 3.96 -0.32 5000005.9988
7.7992799999999995 3.92 -0.32 5000005.9988
7.7992799999999995 3.9 -0.32 5000005.9988
7.747145999999999 3.38 -0.32 5000005.91191
7.747145999999999 3.36 -0.32 5000005.91191
38.9826 1.68 -0.32 5000057.971
6.832158 5.32 -0.34 5000004.38693
6.832158 5.3 -0.34 5000004.38693
6.860754 4.88 -0.34 5000004.43459
7.747145999999999 3.98 -0.34 5000005.91191
7.747145999999999 3.96 -0.34 5000005.91191
7.747145999999999 3.42 -0.34 5000005.91191
7.7992799999999995 3.4 -0.34 5000005.9988
7.747145999999999 3.38 -0.34 5000005.91191
34.65684 2.44 -0.34 5000050.7614
38.9826 1.68 -0.34 5000057.971
31.28802 1.46 -0.34 5000045.1467
6.832158 5.32 -0.36 5000004.38693
7.747145999999999 3.96 -0.36 5000005.91191
7.7992799999999995 3.44 -0.36 5000005.9988
7.747145999999999 3.42 -0.36 5000005.91191
38.9826 1.68 -0.36 5000057.971
31.28802 1.46 -0.36 5000045.1467
31.28802 5.88 -0.38 5000045.1467
6.832158 5.32 -0.38 5000004.38693
6.832158 5.3 -0.38 5000004.38693
6.860754 4.9 -0.38 5000004.43459
6.860754 4.88 -0.38 5000004.43459
7.7992799999999995 3.48 -0.38 5000005.9988
7.7992799999999995 3.46 -0.38 5000005.9988
34.65684 2.44 -0.38 5000050.7614
31.28802 1.46 -0.38 5000045.1467
6.832158 5.32 -0.4 5000004.38693
7.747145999999999 3.9 -0.4 5000005.91191
7.747145999999999 3.88 -0.4 5000005.91191
7.7992799999999995 3.52 -0.4 5000005.9988
7.7992799999999995 3.5 -0.4 5000005.9988
6.832158 5.32 -0.42 5000004.38693
22.97934 4.4 -0.42 5000031.2989
7.747145999999999 3.88 -0.42 5000005.91191
7.747145999999999 3.86 -0.42 5000005.91191
7.747145999999999 3.84 -0.42 5000005.91191
44.74056 1.68 -0.42 5000067.5676
6.832158 5.32 -0.44 5000004.38693
6.832158 5.3 -0.44 5000004.38693
7.696506 3.8 -0.44 5000005.82751
7.747145999999999 3.78 -0.44 5000005.91191
6.88998 4.9 -0.46 5000004.4833
6.88998 4.88 -0.46 5000004.4833
22.97934 4.4 -0.46 5000031.2989
7.747145999999999 3.72 -0.46 5000005.91191
7.747145999999999 3.7 -0.46 5000005.91191
7.747145999999999 3.58 -0.46 5000005.91191
6.832158 5.32 -0.48 5000004.38693
6.88998 4.88 -0.48 5000004.4833
7.747145999999999 3.72 -0.48 5000005.91191
7.747145999999999 3.7 -0.48 5000005.91191
7.747145999999999 3.58 -0.48 5000005.91191
7.747145999999999 3.72 -0.5 5000005.91191
7.747145999999999 3.7 -0.5 5000005.91191
7.747145999999999 3.68 -0.5 5000005.91191
7.747145999999999 3.58 -0.5 5000005.91191
7.747145999999999 3.7 -0.52 5000005.91191
7.747145999999999 3.68 -0.52 5000005.91191
6.860754 4.88 -0.54 5000004.43459
7.747145999999999 3.7 -0.54 5000005.91191
7.747145999999999 3.68 -0.54 5000005.91191
20.4822 2.1 -0.54 5000027.137
7.7992799999999995 3.7 -0.56 5000005.9988
44.74056 5.48 -0.58 5000067.5676
6.860754 4.88 -0.58 5000004.43459
44.74056 4.76 -0.58 5000067.5676
31.28802 5.92 -0.6 5000045.1467
44.74056 5.48 -0.6 5000067.5676
6.860754 4.9 -0.6 5000004.43459
6.860754 4.88 -0.6 5000004.43459
21.64188 2.1 -0.6 5000029.0698
6.804168 5.32 -0.62 5000004.34028
6.804168 5.3 -0.62 5000004.34028
21.64188 2.1 -0.62 5000029.0698
6.804168 5.32 -0.64 5000004.34028
6.804168 5.3 -0.64 5000004.34028
34.65684 3.76 -0.64 5000050.7614
6.804168 5.32 -0.66 5000004.34028
34.65684 3.76 -0.66 5000050.7614
7.747145999999999 3.7 -0.66 5000005.91191
6.804168 5.32 -0.68 5000004.34028
6.804168 5.3 -0.68 5000004.34028
38.9826 4.7 -0.68 5000057.971
7.747145999999999 3.7 -0.68 5000005.91191
6.804168 5.32 -0.7 5000004.34028
38.9826 4.7 -0.7 5000057.971
6.804168 5.32 -0.72 5000004.34028
6.88998 4.88 -0.72 5000004.4833
7.747145999999999 3.7 -0.72 5000005.91191
34.65684 2.38 -0.72 5000050.7614
21.64188 2.1 -0.72 5000029.0698
6.88998 4.88 -0.74 5000004.4833
22.97934 4.4 -0.74 5000031.2989
24.53898 4.28 -0.74 5000033.8983
7.747145999999999 3.7 -0.74 5000005.91191
7.747145999999999 3.56 -0.74 5000005.91191
21.64188 2.1 -0.74 5000029.0698
21.64188 2.02 -0.74 5000029.0698
28.590239999999998 1.52 -0.74 5000040.6504
28.590239999999998 0.52 -0.74 5000040.6504
6.832158 5.32 -0.76 5000004.38693
6.88998 4.88 -0.76 5000004.4833
22.97934 4.4 -0.76 5000031.2989
7.747145999999999 3.72 -0.76 5000005.91191
7.747145999999999 3.7 -0.76 5000005.91191
7.747145999999999 3.56 -0.76 5000005.91191
21.64188 2.1 -0.76 5000029.0698
6.88998 4.9 -0.78 5000004.4833
6.88998 4.88 -0.78 5000004.4833
7.747145999999999 3.72 -0.78 5000005.91191
7.747145999999999 3.7 -0.78 5000005.91191
7.747145999999999 3.58 -0.78 5000005.91191
7.747145999999999 3.56 -0.78 5000005.91191
34.65684 3.34 -0.78 5000050.7614
31.28802 1.46 -0.78 5000045.1467
6.860754 4.9 -0.8 5000004.43459
6.860754 4.88 -0.8 5000004.43459
7.747145999999999 3.72 -0.8 5000005.91191
7.747145999999999 3.7 -0.8 5000005.91191
7.747145999999999 3.56 -0.8 5000005.91191
34.65684 3.34 -0.8 5000050.7614
21.64188 2.1 -0.8 5000029.0698
6.832158 5.32 -0.82 5000004.38693
6.860754 4.88 -0.82 5000004.43459
7.696506 3.72 -0.82 5000005.82751
7.696506 3.7 -0.82 5000005.82751
7.747145999999999 3.56 -0.82 5000005.91191
31.28802 2.32 -0.82 5000045.1467
21.64188 2.1 -0.82 5000029.0698
31.28802 1.86 -0.82 5000045.1467
6.860754 4.88 -0.84 5000004.43459
31.28802 2.32 -0.84 5000045.1467
21.64188 2.1 -0.84 5000029.0698
31.28802 1.86 -0.84 5000045.1467
28.590239999999998 1.42 -0.84 5000040.6504
6.860754 4.88 -0.86 5000004.43459
31.28802 2.32 -0.86 5000045.1467
31.28802 2.3 -0.86 5000045.1467
21.64188 2.1 -0.86 5000029.0698
31.28802 1.86 -0.86 5000045.1467
28.590239999999998 1.42 -0.86 5000040.6504
28.590239999999998 0.96 -0.86 5000040.6504
28.590239999999998 0.64 -0.86 5000040.6504
26.38116 -0.26 -0.86 5000036.9686
6.860754 4.88 -0.88 5000004.43459
31.28802 2.3 -0.88 5000045.1467
21.64188 2.1 -0.88 5000029.0698
31.28802 1.86 -0.88 5000045.1467
28.590239999999998 1.42 -0.88 5000040.6504
28.590239999999998 0.96 -0.88 5000040.6504
20.4822 0.88 -0.88 5000027.137
26.38116 -0.84 -0.88 5000036.9686
6.860754 4.88 -0.9 5000004.43459
31.28802 1.86 -0.9 5000045.1467
31.28802 1.84 -0.9 5000045.1467
28.590239999999998 1.44 -0.9 5000040.6504
28.590239999999998 0.96 -0.9 5000040.6504
19.467180000000003 -4.56 -0.9 5000025.4453
19.467180000000003 -4.58 -0.9 5000025.4453
19.467180000000003 -4.6 -0.9 5000025.4453
28.590239999999998 1.42 -0.92 5000040.6504
28.590239999999998 0.96 -0.92 5000040.6504
28.590239999999998 0.52 -0.94 5000040.6504
6.88998 4.88 -1.0 5000004.4833
6.88998 4.88 -1.02 5000004.4833
6.88998 4.9 -1.04 5000004.4833
6.804168 5.32 -1.06 5000004.34028
6.88998 4.9 -1.06 5000004.4833
6.804168 5.32 -1.08 5000004.34028
6.804168 5.32 -1.1 5000004.34028
6.804168 5.32 -1.12 5000004.34028
6.860754 4.86 -1.12 5000004.43459
6.804168 5.32 -1.14 5000004.34028
6.804168 5.32 -1.16 5000004.34028
6.860754 4.88 -1.16 5000004.43459
6.804168 5.32 -1.18 5000004.34028
6.860754 4.88 -1.2 5000004.43459
6.860754 4.88 -1.22 5000004.43459
6.860754 4.88 -1.24 5000004.43459
6.804168 5.32 -1.26 5000004.34028
6.860754 4.88 -1.26 5000004.43459
6.804168 5.32 -1.28 5000004.34028
6.860754 4.88 -1.28 5000004.43459
6.804168 5.32 -1.3 5000004.34028
6.860754 4.88 -1.3 5000004.43459
7.747145999999999 3.7 -1.3 5000005.91191
6.804168 5.32 -1.32 5000004.34028
6.860754 4.88 -1.32 5000004.43459
7.747145999999999 3.7 -1.32 5000005.91191
6.804168 5.32 -1.34 5000004.34028
6.860754 4.88 -1.34 5000004.43459
6.804168 5.32 -1.36 5000004.34028
6.860754 4.9 -1.36 5000004.43459
6.860754 4.88 -1.36 5000004.43459
6.804168 5.32 -1.38 5000004.34028
6.860754 4.9 -1.38 5000004.43459
6.860754 4.88 -1.38 5000004.43459
6.804168 5.32 -1.4 5000004.34028
6.860754 4.9 -1.4 5000004.43459
6.860754 4.88 -1.4 5000004.43459
6.804168 5.32 -1.42 5000004.34028
6.860754 4.9 -1.42 5000004.43459
6.860754 4.88 -1.42 5000004.43459
6.804168 5.32 -1.44 5000004.34028
6.860754 4.9 -1.44 5000004.43459
6.860754 4.88 -1.44 5000004.43459
6.804168 5.32 -1.46 5000004.34028
6.860754 4.9 -1.46 5000004.43459
6.860754 4.88 -1.46 5000004.43459
8.212038 3.66 -1.46 5000006.68673
7.747145999999999 3.58 -1.46 5000005.91191
7.747145999999999 3.56 -1.46 5000005.91191
6.804168 5.32 -1.48 5000004.34028
6.860754 4.88 -1.48 5000004.43459
7.747145999999999 3.72 -1.48 5000005.91191
7.747145999999999 3.68 -1.48 5000005.91191
8.212038 3.66 -1.48 5000006.68673
7.747145999999999 3.58 -1.48 5000005.91191
7.747145999999999 3.56 -1.48 5000005.91191
7.747145999999999 3.54 -1.48 5000005.91191
6.804168 5.32 -1.5 5000004.34028
6.860754 4.88 -1.5 5000004.43459
7.747145999999999 3.72 -1.5 5000005.91191
7.747145999999999 3.7 -1.5 5000005.91191
8.212038 3.66 -1.5 5000006.68673
7.747145999999999 3.56 -1.5 5000005.91191
7.747145999999999 3.54 -1.5 5000005.91191
6.804168 5.32 -1.52 5000004.34028
6.860754 4.88 -1.52 5000004.43459
7.747145999999999 3.72 -1.52 5000005.91191
7.747145999999999 3.7 -1.52 5000005.91191
7.747145999999999 3.56 -1.52 5000005.91191
7.747145999999999 3.54 -1.52 5000005.91191
6.804168 5.32 -1.54 5000004.34028
6.860754 4.88 -1.54 5000004.43459
7.747145999999999 3.72 -1.54 5000005.91191
7.747145999999999 3.7 -1.54 5000005.91191
7.747145999999999 3.56 -1.54 5000005.91191
6.804168 5.32 -1.56 5000004.34028
6.860754 4.88 -1.56 5000004.43459
6.804168 5.32 -1.58 5000004.34028
6.860754 4.88 -1.58 5000004.43459
8.147369999999999 3.5 -1.58 5000006.57895
7.747145999999999 3.42 -1.58 5000005.91191
6.804168 5.32 -1.6 5000004.34028
6.860754 4.88 -1.6 5000004.43459
7.747145999999999 3.44 -1.6 5000005.91191
7.747145999999999 3.42 -1.6 5000005.91191
7.747145999999999 3.4 -1.6 5000005.91191
13.25658 1.06 -1.6 5000015.0943
6.804168 5.32 -1.62 5000004.34028
6.860754 4.88 -1.62 5000004.43459
7.747145999999999 3.86 -1.62 5000005.91191
7.747145999999999 3.84 -1.62 5000005.91191
7.747145999999999 3.44 -1.62 5000005.91191
7.747145999999999 3.42 -1.62 5000005.91191
7.747145999999999 3.4 -1.62 5000005.91191
13.25658 1.06 -1.62 5000015.0943
6.804168 5.32 -1.64 5000004.34028
6.860754 4.88 -1.64 5000004.43459
7.747145999999999 3.86 -1.64 5000005.91191
7.747145999999999 3.84 -1.64 5000005.91191
7.747145999999999 3.44 -1.64 5000005.91191
7.747145999999999 3.42 -1.64 5000005.91191
7.747145999999999 3.4 -1.64 5000005.91191
6.804168 5.32 -1.66 5000004.34028
6.860754 4.88 -1.66 5000004.43459
7.747145999999999 3.86 -1.66 5000005.91191
7.747145999999999 3.84 -1.66 5000005.91191
7.747145999999999 3.44 -1.66 5000005.91191
7.747145999999999 3.42 -1.66 5000005.91191
7.747145999999999 3.4 -1.66 5000005.91191
6.804168 5.32 -1.68 5000004.34028
6.860754 4.88 -1.68 5000004.43459
7.747145999999999 3.86 -1.68 5000005.91191
7.747145999999999 3.84 -1.68 5000005.91191
7.747145999999999 3.44 -1.68 5000005.91191
7.747145999999999 3.42 -1.68 5000005.91191
7.747145999999999 3.4 -1.68 5000005.91191
6.804168 5.32 -1.7 5000004.34028
6.860754 4.88 -1.7 5000004.43459
7.747145999999999 3.86 -1.7 5000005.91191
7.747145999999999 3.84 -1.7 5000005.91191
7.747145999999999 3.44 -1.7 5000005.91191
7.747145999999999 3.42 -1.7 5000005.91191
7.747145999999999 3.4 -1.7 5000005.91191
6.804168 5.32 -1.72 5000004.34028
6.860754 4.88 -1.72 5000004.43459
7.747145999999999 3.86 -1.72 5000005.91191
7.747145999999999 3.84 -1.72 5000005.91191
7.747145999999999 3.44 -1.72 5000005.91191
7.747145999999999 3.42 -1.72 5000005.91191
7.747145999999999 3.4 -1.72 5000005.91191
6.804168 5.32 -1.74 5000004.34028
6.860754 4.88 -1.74 5000004.43459
7.747145999999999 3.86 -1.74 5000005.91191
7.747145999999999 3.84 -1.74 5000005.91191
7.747145999999999 3.42 -1.74 5000005.91191
7.747145999999999 3.4 -1.74 5000005.91191
12.3522 1.08 -1.74 5000013.587
6.804168 5.32 -1.76 5000004.34028
6.860754 4.88 -1.76 5000004.43459
7.747145999999999 3.86 -1.76 5000005.91191
7.747145999999999 3.84 -1.76 5000005.91191
12.3522 1.08 -1.76 5000013.587
6.804168 5.32 -1.78 5000004.34028
6.860754 4.88 -1.78 5000004.43459
7.747145999999999 3.84 -1.78 5000005.91191
7.747145999999999 3.82 -1.78 5000005.91191
7.696506 3.8 -1.78 5000005.82751
7.7992799999999995 3.78 -1.78 5000005.9988
7.965294 3.76 -1.78 5000006.27549
7.965294 3.74 -1.78 5000006.27549
7.965294 3.7 -1.78 5000006.27549
11.843340000000001 -6.1 -1.78 5000012.7389
11.843340000000001 -6.12 -1.78 5000012.7389
6.860754 4.88 -1.8 5000004.43459
6.804168 5.32 -1.82 5000004.34028
6.860754 4.88 -1.82 5000004.43459
7.696506 3.86 -1.82 5000005.82751
7.7992799999999995 3.4 -1.82 5000005.9988
6.804168 5.32 -1.84 5000004.34028
6.860754 4.88 -1.84 5000004.43459
7.747145999999999 3.88 -1.84 5000005.91191
7.747145999999999 3.86 -1.84 5000005.91191
7.7992799999999995 3.4 -1.84 5000005.9988
6.804168 5.32 -1.86 5000004.34028
6.860754 4.9 -1.86 5000004.43459
6.860754 4.88 -1.86 5000004.43459
7.747145999999999 3.88 -1.86 5000005.91191
7.747145999999999 3.86 -1.86 5000005.91191
7.7992799999999995 3.4 -1.86 5000005.9988
6.804168 5.32 -1.88 5000004.34028
6.860754 4.9 -1.88 5000004.43459
6.860754 4.88 -1.88 5000004.43459
7.747145999999999 3.88 -1.88 5000005.91191
7.747145999999999 3.86 -1.88 5000005.91191
7.7992799999999995 3.4 -1.88 5000005.9988
6.804168 5.32 -1.9 5000004.34028
6.860754 4.9 -1.9 5000004.43459
6.860754 4.88 -1.9 5000004.43459
7.747145999999999 3.88 -1.9 5000005.91191
7.747145999999999 3.86 -1.9 5000005.91191
7.7992799999999995 3.4 -1.9 5000005.9988
6.804168 5.32 -1.92 5000004.34028
6.860754 4.9 -1.92 5000004.43459
6.860754 4.88 -1.92 5000004.43459
7.747145999999999 3.88 -1.92 5000005.91191
7.747145999999999 3.86 -1.92 5000005.91191
7.747145999999999 3.4 -1.92 5000005.91191
6.804168 5.32 -1.94 5000004.34028
6.860754 4.9 -1.94 5000004.43459
6.860754 4.88 -1.94 5000004.43459
7.747145999999999 3.86 -1.94 5000005.91191
11.18892 1.12 -1.94 5000011.6482
6.804168 5.32 -1.96 5000004.34028
6.860754 4.88 -1.96 5000004.43459
7.747145999999999 3.86 -1.96 5000005.91191
8.024094 3.74 -1.96 5000006.37349
8.27886 3.56 -1.96 5000006.7981
8.27886 3.54 -1.96 5000006.7981
7.965294 3.48 -1.96 5000006.27549
6.804168 5.32 -1.98 5000004.34028
6.860754 4.88 -1.98 5000004.43459
7.747145999999999 3.82 -1.98 5000005.91191
7.747145999999999 3.8 -1.98 5000005.91191
7.747145999999999 3.78 -1.98 5000005.91191
8.817162000000001 3.7 -1.98 5000007.69527
8.347944 3.6 -1.98 5000006.91324
8.347944 3.58 -1.98 5000006.91324
8.27886 3.56 -1.98 5000006.7981
8.27886 3.54 -1.98 5000006.7981
8.27886 3.52 -1.98 5000006.7981
8.084754 3.5 -1.98 5000006.47459
7.965294 3.48 -1.98 5000006.27549
7.7992799999999995 3.46 -1.98 5000005.9988
7.747145999999999 3.44 -1.98 5000005.91191
7.747145999999999 3.42 -1.98 5000005.91191
7.747145999999999 3.4 -1.98 5000005.91191
6.804168 5.32 -2.0 5000004.34028
6.860754 4.88 -2.0 5000004.43459
7.747145999999999 3.84 -2.0 5000005.91191
7.747145999999999 3.8 -2.0 5000005.91191
7.747145999999999 3.78 -2.0 5000005.91191
7.965294 3.76 -2.0 5000006.27549
7.747145999999999 3.44 -2.0 5000005.91191
7.747145999999999 3.42 -2.0 5000005.91191
7.747145999999999 3.4 -2.0 5000005.91191
10.637759999999998 1.14 -2.0 5000010.7296
6.860754 4.9 -2.02 5000004.43459
6.860754 4.88 -2.02 5000004.43459
7.747145999999999 3.86 -2.02 5000005.91191
7.747145999999999 3.44 -2.02 5000005.91191
7.747145999999999 3.42 -2.02 5000005.91191
7.747145999999999 3.4 -2.02 5000005.91191
10.637759999999998 1.14 -2.02 5000010.7296
10.637759999999998 1.12 -2.02 5000010.7296
10.637759999999998 1.1 -2.02 5000010.7296
6.860754 4.9 -2.04 5000004.43459
6.860754 4.88 -2.04 5000004.43459
7.747145999999999 3.86 -2.04 5000005.91191
7.747145999999999 3.84 -2.04 5000005.91191
7.747145999999999 3.44 -2.04 5000005.91191
7.747145999999999 3.42 -2.04 5000005.91191
7.747145999999999 3.4 -2.04 5000005.91191
6.860754 4.9 -2.06 5000004.43459
6.860754 4.88 -2.06 5000004.43459
7.747145999999999 3.86 -2.06 5000005.91191
7.747145999999999 3.84 -2.06 5000005.91191
7.747145999999999 3.44 -2.06 5000005.91191
7.747145999999999 3.42 -2.06 5000005.91191
7.747145999999999 3.4 -2.06 5000005.91191
6.804168 5.34 -2.08 5000004.34028
6.860754 4.9 -2.08 5000004.43459
6.860754 4.88 -2.08 5000004.43459
7.747145999999999 3.86 -2.08 5000005.91191
7.747145999999999 3.84 -2.08 5000005.91191
7.747145999999999 3.44 -2.08 5000005.91191
7.747145999999999 3.42 -2.08 5000005.91191
7.747145999999999 3.4 -2.08 5000005.91191
6.804168 5.34 -2.1 5000004.34028
6.860754 4.9 -2.1 5000004.43459
6.860754 4.88 -2.1 5000004.43459
7.747145999999999 3.86 -2.1 5000005.91191
7.747145999999999 3.84 -2.1 5000005.91191
7.747145999999999 3.44 -2.1 5000005.91191
7.747145999999999 3.42 -2.1 5000005.91191
7.747145999999999 3.4 -2.1 5000005.91191
6.860754 4.9 -2.12 5000004.43459
6.860754 4.88 -2.12 5000004.43459
7.747145999999999 3.86 -2.12 5000005.91191
7.747145999999999 3.84 -2.12 5000005.91191
7.747145999999999 3.44 -2.12 5000005.91191
7.747145999999999 3.42 -2.12 5000005.91191
7.747145999999999 3.4 -2.12 5000005.91191
6.860754 4.9 -2.14 5000004.43459
6.860754 4.88 -2.14 5000004.43459
7.747145999999999 3.86 -2.14 5000005.91191
7.747145999999999 3.84 -2.14 5000005.91191
7.747145999999999 3.44 -2.14 5000005.91191
7.747145999999999 3.42 -2.14 5000005.91191
7.747145999999999 3.4 -2.14 5000005.91191
6.860754 4.9 -2.16 5000004.43459
6.860754 4.88 -2.16 5000004.43459
7.747145999999999 3.86 -2.16 5000005.91191
7.747145999999999 3.84 -2.16 5000005.91191
7.747145999999999 3.44 -2.16 5000005.91191
7.747145999999999 3.42 -2.16 5000005.91191
7.747145999999999 3.4 -2.16 5000005.91191
6.860754 4.9 -2.18 5000004.43459
6.860754 4.88 -2.18 5000004.43459
7.696506 3.86 -2.18 5000005.82751
7.747145999999999 3.84 -2.18 5000005.91191
7.747145999999999 3.42 -2.18 5000005.91191
7.747145999999999 3.4 -2.18 5000005.91191
6.860754 4.9 -2.2 5000004.43459
6.860754 4.88 -2.2 5000004.43459
7.696506 3.86 -2.2 5000005.82751
7.747145999999999 3.84 -2.2 5000005.91191
6.860754 4.9 -2.22 5000004.43459
6.860754 4.88 -2.22 5000004.43459
7.696506 3.86 -2.22 5000005.82751
7.747145999999999 3.84 -2.22 5000005.91191
7.747145999999999 3.82 -2.22 5000005.91191
7.696506 3.8 -2.22 5000005.82751
7.8529680000000015 3.78 -2.22 5000006.08828
7.908282 3.76 -2.22 5000006.18047
7.908282 3.74 -2.22 5000006.18047
7.908282 3.72 -2.22 5000006.18047
7.908282 3.7 -2.22 5000006.18047
6.860754 4.9 -2.24 5000004.43459
6.860754 4.88 -2.24 5000004.43459
7.8529680000000015 3.78 -2.24 5000006.08828
7.908282 3.76 -2.24 5000006.18047
7.908282 3.72 -2.24 5000006.18047
7.908282 3.7 -2.24 5000006.18047
7.747145999999999 3.4 -2.24 5000005.91191
9.889902000000001 1.24 -2.24 5000009.48317
6.860754 4.9 -2.26 5000004.43459
6.860754 4.88 -2.26 5000004.43459
7.747145999999999 3.4 -2.26 5000005.91191
6.860754 4.9 -2.28 5000004.43459
6.860754 4.88 -2.28 5000004.43459
7.747145999999999 3.88 -2.28 5000005.91191
7.747145999999999 3.86 -2.28 5000005.91191
6.804168 5.34 -2.3 5000004.34028
6.860754 4.9 -2.3 5000004.43459
6.860754 4.88 -2.3 5000004.43459
7.747145999999999 3.88 -2.3 5000005.91191
7.747145999999999 3.86 -2.3 5000005.91191
6.804168 5.34 -2.32 5000004.34028
6.860754 4.9 -2.32 5000004.43459
6.860754 4.88 -2.32 5000004.43459
7.747145999999999 3.86 -2.32 5000005.91191
6.804168 5.34 -2.34 5000004.34028
6.860754 4.9 -2.34 5000004.43459
6.860754 4.88 -2.34 5000004.43459
7.747145999999999 3.88 -2.34 5000005.91191
7.747145999999999 3.86 -2.34 5000005.91191
7.747145999999999 3.4 -2.34 5000005.91191
6.860754 4.9 -2.36 5000004.43459
6.860754 4.88 -2.36 5000004.43459
7.747145999999999 3.86 -2.36 5000005.91191
7.747145999999999 3.4 -2.36 5000005.91191
9.406074 1.3 -2.36 5000008.67679
9.297708 1.28 -2.36 5000008.49618
9.297708 1.18 -2.36 5000008.49618
6.860754 4.9 -2.38 5000004.43459
6.860754 4.88 -2.38 5000004.43459
7.747145999999999 3.86 -2.38 5000005.91191
9.889902000000001 1.34 -2.38 5000009.48317
9.297708 1.28 -2.38 5000008.49618
9.297708 1.26 -2.38 5000008.49618
9.193757999999999 1.24 -2.38 5000008.32293
9.193757999999999 1.22 -2.38 5000008.32293
9.297708 1.16 -2.38 5000008.49618
9.297708 1.14 -2.38 5000008.49618
9.297708 1.12 -2.38 5000008.49618
6.804168 5.34 -2.4 5000004.34028
6.860754 4.9 -2.4 5000004.43459
6.860754 4.88 -2.4 5000004.43459
7.747145999999999 3.86 -2.4 5000005.91191
7.965294 3.48 -2.4 5000006.27549
6.804168 5.34 -2.42 5000004.34028
6.860754 4.9 -2.42 5000004.43459
6.860754 4.88 -2.42 5000004.43459
7.747145999999999 3.84 -2.42 5000005.91191
7.8529680000000015 3.78 -2.42 5000006.08828
7.8529680000000015 3.74 -2.42 5000006.08828
7.8529680000000015 3.72 -2.42 5000006.08828
7.8529680000000015 3.7 -2.42 5000006.08828
7.8529680000000015 3.68 -2.42 5000006.08828
8.27886 3.56 -2.42 5000006.7981
8.27886 3.54 -2.42 5000006.7981
8.147369999999999 3.52 -2.42 5000006.57895
8.084754 3.5 -2.42 5000006.47459
7.965294 3.48 -2.42 5000006.27549
7.7992799999999995 3.46 -2.42 5000005.9988
7.747145999999999 3.44 -2.42 5000005.91191
7.747145999999999 3.42 -2.42 5000005.91191
7.747145999999999 3.4 -2.42 5000005.91191
9.193757999999999 -5.28 -2.42 5000008.32293
9.193757999999999 -5.3 -2.42 5000008.32293
9.193757999999999 -5.32 -2.42 5000008.32293
6.860754 4.9 -2.44 5000004.43459
6.860754 4.88 -2.44 5000004.43459
7.747145999999999 3.82 -2.44 5000005.91191
7.8529680000000015 3.8 -2.44 5000006.08828
7.8529680000000015 3.78 -2.44 5000006.08828
7.8529680000000015 3.76 -2.44 5000006.08828
7.8529680000000015 3.74 -2.44 5000006.08828
7.8529680000000015 3.72 -2.44 5000006.08828
7.8529680000000015 3.7 -2.44 5000006.08828
7.8529680000000015 3.68 -2.44 5000006.08828
7.7992799999999995 3.66 -2.44 5000005.9988
7.7992799999999995 3.64 -2.44 5000005.9988
7.747145999999999 3.62 -2.44 5000005.91191
7.747145999999999 3.6 -2.44 5000005.91191
7.747145999999999 3.44 -2.44 5000005.91191
7.747145999999999 3.42 -2.44 5000005.91191
6.860754 4.9 -2.46 5000004.43459
6.860754 4.88 -2.46 5000004.43459
7.747145999999999 3.86 -2.46 5000005.91191
7.747145999999999 3.44 -2.46 5000005.91191
7.747145999999999 3.42 -2.46 5000005.91191
7.747145999999999 3.4 -2.46 5000005.91191
6.860754 4.9 -2.48 5000004.43459
6.860754 4.88 -2.48 5000004.43459
7.696506 3.86 -2.48 5000005.82751
7.747145999999999 3.44 -2.48 5000005.91191
7.747145999999999 3.42 -2.48 5000005.91191
9.093966 1.88 -2.48 5000008.15661
9.093966 1.86 -2.48 5000008.15661
6.860754 4.9 -2.5 5000004.43459
6.860754 4.88 -2.5 5000004.43459
7.696506 3.86 -2.5 5000005.82751
7.696506 3.84 -2.5 5000005.82751
7.747145999999999 3.44 -2.5 5000005.91191
7.747145999999999 3.42 -2.5 5000005.91191
9.093966 1.86 -2.5 5000008.15661
6.860754 4.9 -2.52 5000004.43459
7.696506 3.86 -2.52 5000005.82751
7.696506 3.84 -2.52 5000005.82751
7.747145999999999 3.44 -2.52 5000005.91191
7.747145999999999 3.42 -2.52 5000005.91191
6.860754 4.9 -2.54 5000004.43459
6.860754 4.88 -2.54 5000004.43459
7.696506 3.86 -2.54 5000005.82751
7.696506 3.84 -2.54 5000005.82751
7.747145999999999 3.44 -2.54 5000005.91191
7.747145999999999 3.42 -2.54 5000005.91191
6.860754 4.9 -2.56 5000004.43459
6.860754 4.88 -2.56 5000004.43459
7.696506 3.86 -2.56 5000005.82751
7.696506 3.84 -2.56 5000005.82751
7.747145999999999 3.44 -2.56 5000005.91191
7.747145999999999 3.42 -2.56 5000005.91191
7.747145999999999 3.4 -2.56 5000005.91191
6.860754 4.9 -2.58 5000004.43459
6.860754 4.88 -2.58 5000004.43459
7.696506 3.86 -2.58 5000005.82751
7.696506 3.84 -2.58 5000005.82751
7.747145999999999 3.44 -2.58 5000005.91191
7.747145999999999 3.42 -2.58 5000005.91191
8.817162000000001 1.76 -2.58 5000007.69527
8.817162000000001 1.74 -2.58 5000007.69527
6.804168 5.34 -2.6 5000004.34028
6.860754 4.9 -2.6 5000004.43459
6.860754 4.88 -2.6 5000004.43459
7.696506 3.86 -2.6 5000005.82751
7.696506 3.84 -2.6 5000005.82751
7.747145999999999 3.44 -2.6 5000005.91191
7.747145999999999 3.42 -2.6 5000005.91191
7.747145999999999 3.4 -2.6 5000005.91191
8.817162000000001 1.74 -2.6 5000007.69527
6.804168 5.34 -2.62 5000004.34028
6.860754 4.88 -2.62 5000004.43459
7.696506 3.86 -2.62 5000005.82751
7.696506 3.84 -2.62 5000005.82751
7.747145999999999 3.48 -2.62 5000005.91191
7.747145999999999 3.42 -2.62 5000005.91191
7.747145999999999 3.4 -2.62 5000005.91191
8.817162000000001 1.22 -2.62 5000007.69527
8.817162000000001 1.2 -2.62 5000007.69527
6.804168 5.34 -2.64 5000004.34028
6.860754 4.88 -2.64 5000004.43459
7.696506 3.86 -2.64 5000005.82751
7.696506 3.84 -2.64 5000005.82751
6.804168 5.34 -2.66 5000004.34028
6.860754 4.88 -2.66 5000004.43459
8.27886 3.94 -2.66 5000006.7981
8.27886 3.92 -2.66 5000006.7981
7.696506 3.86 -2.66 5000005.82751
7.696506 3.84 -2.66 5000005.82751
7.908282 3.56 -2.66 5000006.18047
7.908282 3.52 -2.66 5000006.18047
6.804168 5.34 -2.68 5000004.34028
6.860754 4.88 -2.68 5000004.43459
8.27886 3.96 -2.68 5000006.7981
8.27886 3.92 -2.68 5000006.7981
7.747145999999999 3.84 -2.68 5000005.91191
7.747145999999999 3.82 -2.68 5000005.91191
7.747145999999999 3.8 -2.68 5000005.91191
7.747145999999999 3.78 -2.68 5000005.91191
7.7992799999999995 3.76 -2.68 5000005.9988
7.7992799999999995 3.74 -2.68 5000005.9988
7.7992799999999995 3.72 -2.68 5000005.9988
7.7992799999999995 3.7 -2.68 5000005.9988
7.7992799999999995 3.68 -2.68 5000005.9988
7.7992799999999995 3.66 -2.68 5000005.9988
7.747145999999999 3.42 -2.68 5000005.91191
8.731722000000001 1.46 -2.68 5000007.55287
6.804168 5.34 -2.7 5000004.34028
6.860754 4.88 -2.7 5000004.43459
8.27886 3.96 -2.7 5000006.7981
8.64939 3.16 -2.7 5000007.41565
8.569992 3.04 -2.7 5000007.28332
6.804168 5.34 -2.72 5000004.34028
6.860754 4.88 -2.72 5000004.43459
7.747145999999999 3.88 -2.72 5000005.91191
7.747145999999999 3.86 -2.72 5000005.91191
8.64939 3.14 -2.72 5000007.41565
8.64939 3.12 -2.72 5000007.41565
6.804168 5.34 -2.74 5000004.34028
6.860754 4.88 -2.74 5000004.43459
7.747145999999999 3.88 -2.74 5000005.91191
7.747145999999999 3.86 -2.74 5000005.91191
8.64939 3.12 -2.74 5000007.41565
6.804168 5.34 -2.76 5000004.34028
6.860754 4.88 -2.76 5000004.43459
7.747145999999999 3.88 -2.76 5000005.91191
7.747145999999999 3.86 -2.76 5000005.91191
7.552889999999999 3.8 -2.76 5000005.58815
6.804168 5.34 -2.78 5000004.34028
6.860754 4.88 -2.78 5000004.43459
7.747145999999999 3.88 -2.78 5000005.91191
7.747145999999999 3.86 -2.78 5000005.91191
6.804168 5.34 -2.8 5000004.34028
6.860754 4.88 -2.8 5000004.43459
8.27886 4.0 -2.8 5000006.7981
7.747145999999999 3.86 -2.8 5000005.91191
6.804168 5.34 -2.82 5000004.34028
6.860754 4.88 -2.82 5000004.43459
8.212038 3.34 -2.82 5000006.68673
6.860754 4.88 -2.84 5000004.43459
8.212038 3.96 -2.84 5000006.68673
8.147369999999999 3.94 -2.84 5000006.57895
8.147369999999999 3.92 -2.84 5000006.57895
7.747145999999999 3.86 -2.84 5000005.91191
8.084754 2.92 -2.84 5000006.47459
8.569992 -3.56 -2.84 5000007.28332
8.569992 -3.58 -2.84 5000007.28332
8.569992 -3.6 -2.84 5000007.28332
6.804168 5.34 -2.86 5000004.34028
6.860754 4.88 -2.86 5000004.43459
8.147369999999999 3.96 -2.86 5000006.57895
8.147369999999999 3.94 -2.86 5000006.57895
7.747145999999999 3.88 -2.86 5000005.91191
7.747145999999999 3.86 -2.86 5000005.91191
7.8529680000000015 3.58 -2.86 5000006.08828
7.8529680000000015 3.56 -2.86 5000006.08828
7.8529680000000015 3.52 -2.86 5000006.08828
7.908282 3.5 -2.86 5000006.18047
7.908282 3.48 -2.86 5000006.18047
7.7992799999999995 3.46 -2.86 5000005.9988
8.084754 2.84 -2.86 5000006.47459
8.084754 2.82 -2.86 5000006.47459
8.347944 1.56 -2.86 5000006.91324
8.569992 -3.64 -2.86 5000007.28332
6.804168 5.34 -2.88 5000004.34028
6.860754 4.88 -2.88 5000004.43459
8.084754 4.14 -2.88 5000006.47459
8.084754 4.12 -2.88 5000006.47459
7.747145999999999 3.86 -2.88 5000005.91191
7.747145999999999 3.84 -2.88 5000005.91191
7.747145999999999 3.82 -2.88 5000005.91191
7.747145999999999 3.8 -2.88 5000005.91191
7.908282 3.78 -2.88 5000006.18047
7.908282 3.76 -2.88 5000006.18047
7.965294 3.74 -2.88 5000006.27549
7.965294 3.72 -2.88 5000006.27549
7.908282 3.7 -2.88 5000006.18047
7.696506 3.68 -2.88 5000005.82751
7.696506 3.66 -2.88 5000005.82751
7.8529680000000015 3.58 -2.88 5000006.08828
7.8529680000000015 3.56 -2.88 5000006.08828
7.8529680000000015 3.54 -2.88 5000006.08828
7.8529680000000015 3.52 -2.88 5000006.08828
7.7992799999999995 3.44 -2.88 5000005.9988
7.747145999999999 3.42 -2.88 5000005.91191
8.084754 2.82 -2.88 5000006.47459
8.212038 2.28 -2.88 5000006.68673
8.147369999999999 2.26 -2.88 5000006.57895
8.024094 2.22 -2.88 5000006.37349
6.804168 5.34 -2.9 5000004.34028
7.965294 4.36 -2.9 5000006.27549
7.965294 4.34 -2.9 5000006.27549
7.696506 3.84 -2.9 5000005.82751
7.696506 3.82 -2.9 5000005.82751
7.747145999999999 3.8 -2.9 5000005.91191
7.908282 3.78 -2.9 5000006.18047
7.908282 3.76 -2.9 5000006.18047
7.965294 3.74 -2.9 5000006.27549
7.965294 3.72 -2.9 5000006.27549
7.908282 3.7 -2.9 5000006.18047
7.696506 3.68 -2.9 5000005.82751
7.696506 3.66 -2.9 5000005.82751
7.599432 3.64 -2.9 5000005.66572
7.8529680000000015 3.56 -2.9 5000006.08828
7.8529680000000015 3.54 -2.9 5000006.08828
7.747145999999999 3.44 -2.9 5000005.91191
7.747145999999999 3.42 -2.9 5000005.91191
8.024094 2.7 -2.9 5000006.37349
8.024094 2.22 -2.9 5000006.37349
8.024094 2.2 -2.9 5000006.37349
8.347944 1.58 -2.9 5000006.91324
8.347944 1.56 -2.9 5000006.91324
6.860754 4.88 -2.92 5000004.43459
7.965294 4.34 -2.92 5000006.27549
7.599432 3.64 -2.92 5000005.66572
7.747145999999999 3.44 -2.92 5000005.91191
7.747145999999999 3.42 -2.92 5000005.91191
7.965294 2.82 -2.92 5000006.27549
8.024094 2.18 -2.92 5000006.37349
8.27886 1.58 -2.92 5000006.7981
8.27886 1.56 -2.92 5000006.7981
8.27886 1.54 -2.92 5000006.7981
8.27886 1.48 -2.92 5000006.7981
8.212038 1.46 -2.92 5000006.68673
8.27886 1.4 -2.92 5000006.7981
8.27886 1.38 -2.92 5000006.7981
8.27886 1.36 -2.92 5000006.7981
6.860754 4.88 -2.94 5000004.43459
7.965294 4.14 -2.94 5000006.27549
8.347944 4.02 -2.94 5000006.91324
7.696506 3.86 -2.94 5000005.82751
7.747145999999999 3.44 -2.94 5000005.91191
7.747145999999999 3.42 -2.94 5000005.91191
7.965294 2.82 -2.94 5000006.27549
7.965294 2.8 -2.94 5000006.27549
7.965294 2.12 -2.94 5000006.27549
7.965294 2.1 -2.94 5000006.27549
8.27886 1.58 -2.94 5000006.7981
8.27886 1.56 -2.94 5000006.7981
8.27886 1.42 -2.94 5000006.7981
6.860754 4.88 -2.96 5000004.43459
7.908282 4.6 -2.96 5000006.18047
7.908282 4.58 -2.96 5000006.18047
8.147369999999999 3.96 -2.96 5000006.57895
7.696506 3.86 -2.96 5000005.82751
7.747145999999999 3.44 -2.96 5000005.91191
7.747145999999999 3.42 -2.96 5000005.91191
7.7992799999999995 3.04 -2.96 5000005.9988
7.908282 2.78 -2.96 5000006.18047
7.8529680000000015 2.76 -2.96 5000006.08828
7.8529680000000015 2.74 -2.96 5000006.08828
7.965294 2.1 -2.96 5000006.27549
7.965294 2.08 -2.96 5000006.27549
7.908282 2.06 -2.96 5000006.18047
6.860754 4.88 -2.98 5000004.43459
7.696506 3.86 -2.98 5000005.82751
7.747145999999999 3.44 -2.98 5000005.91191
7.747145999999999 3.42 -2.98 5000005.91191
7.747145999999999 3.4 -2.98 5000005.91191
7.7992799999999995 3.04 -2.98 5000005.9988
7.7992799999999995 3.02 -2.98 5000005.9988
7.8529680000000015 2.76 -2.98 5000006.08828
7.908282 2.04 -2.98 5000006.18047
7.908282 1.74 -2.98 5000006.18047
7.185072 5.46 -3.0 5000004.97512
6.860754 4.88 -3.0 5000004.43459
7.696506 3.86 -3.0 5000005.82751
7.696506 3.84 -3.0 5000005.82751
7.747145999999999 3.44 -3.0 5000005.91191
7.747145999999999 3.42 -3.0 5000005.91191
7.747145999999999 3.4 -3.0 5000005.91191
7.7992799999999995 3.04 -3.0 5000005.9988
7.7992799999999995 3.02 -3.0 5000005.9988
7.908282 2.04 -3.0 5000006.18047
7.908282 2.02 -3.0 5000006.18047
7.908282 2.0 -3.0 5000006.18047
7.185072 5.5 -3.02 5000004.97512
7.965294 3.92 -3.02 5000006.27549
7.747145999999999 3.86 -3.02 5000005.91191
7.747145999999999 3.44 -3.02 5000005.91191
7.747145999999999 3.42 -3.02 5000005.91191
7.7992799999999995 3.02 -3.02 5000005.9988
7.8529680000000015 2.0 -3.02 5000006.08828
7.908282 4.8 -3.04 5000006.18047
7.747145999999999 3.44 -3.04 5000005.91191
7.747145999999999 3.42 -3.04 5000005.91191
7.507607999999999 3.34 -3.04 5000005.51268
7.8529680000000015 2.0 -3.04 5000006.08828
7.908282 4.8 -3.06 5000006.18047
7.696506 3.86 -3.06 5000005.82751
7.747145999999999 3.42 -3.06 5000005.91191
7.747145999999999 3.4 -3.06 5000005.91191
7.7992799999999995 2.0 -3.06 5000005.9988
7.696506 3.86 -3.08 5000005.82751
7.696506 3.82 -3.08 5000005.82751
7.747145999999999 3.28 -3.08 5000005.91191
6.832158 4.88 -3.1 5000004.38693
7.6472880000000005 4.26 -3.1 5000005.74548
7.6472880000000005 4.24 -3.1 5000005.74548
8.084754 3.7 -3.1 5000006.47459
7.696506 3.5 -3.1 5000005.82751
7.747145999999999 3.24 -3.1 5000005.91191
7.8529680000000015 2.88 -3.1 5000006.08828
7.747145999999999 2.26 -3.1 5000005.91191
7.7992799999999995 2.02 -3.1 5000005.9988
7.7992799999999995 2.0 -3.1 5000005.9988
7.6472880000000005 4.56 -3.12 5000005.74548
7.6472880000000005 4.24 -3.12 5000005.74548
7.7992799999999995 3.64 -3.12 5000005.9988
7.599432 3.6 -3.12 5000005.66572
7.599432 3.58 -3.12 5000005.66572
7.6472880000000005 2.82 -3.12 5000005.74548
7.747145999999999 2.0 -3.12 5000005.91191
7.6472880000000005 4.56 -3.14 5000005.74548
7.6472880000000005 4.54 -3.14 5000005.74548
7.599432 3.58 -3.14 5000005.66572
7.6472880000000005 3.08 -3.14 5000005.74548
7.6472880000000005 2.8 -3.14 5000005.74548
7.6472880000000005 4.54 -3.16 5000005.74548
7.599432 3.58 -3.16 5000005.66572
7.6472880000000005 3.06 -3.16 5000005.74548
7.6472880000000005 2.8 -3.16 5000005.74548
7.6472880000000005 2.78 -3.16 5000005.74548
7.599432 2.32 -3.16 5000005.66572
7.185072 4.08 -3.18 5000004.97512
7.599432 3.7 -3.18 5000005.66572
7.599432 2.74 -3.18 5000005.66572
7.599432 2.72 -3.18 5000005.66572
7.599432 2.7 -3.18 5000005.66572
7.552889999999999 2.34 -3.18 5000005.58815
7.599432 2.3 -3.18 5000005.66572
7.298376 4.08 -3.2 5000005.16396
7.599432 3.68 -3.2 5000005.66572
7.599432 2.7 -3.2 5000005.66572
7.599432 2.68 -3.2 5000005.66572
7.908282 2.46 -3.2 5000006.18047
7.908282 2.44 -3.2 5000006.18047
7.552889999999999 4.52 -3.22 5000005.58815
7.747145999999999 3.44 -3.22 5000005.91191
7.747145999999999 3.42 -3.22 5000005.91191
7.552889999999999 3.24 -3.22 5000005.58815
7.599432 2.74 -3.22 5000005.66572
7.599432 2.68 -3.22 5000005.66572
7.552889999999999 2.66 -3.22 5000005.58815
7.552889999999999 2.64 -3.22 5000005.58815
7.908282 2.46 -3.22 5000006.18047
7.507607999999999 2.36 -3.22 5000005.51268
7.507607999999999 2.34 -3.22 5000005.51268
7.8529680000000015 4.66 -3.24 5000006.08828
7.552889999999999 4.6 -3.24 5000005.58815
7.552889999999999 4.58 -3.24 5000005.58815
7.552889999999999 4.56 -3.24 5000005.58815
7.185072 4.06 -3.24 5000004.97512
7.185072 4.04 -3.24 5000004.97512
7.298376 4.0 -3.24 5000005.16396
7.599432 3.66 -3.24 5000005.66572
7.552889999999999 3.22 -3.24 5000005.58815
7.507607999999999 3.02 -3.24 5000005.51268
7.552889999999999 2.64 -3.24 5000005.58815
7.908282 2.5 -3.24 5000006.18047
7.507607999999999 2.34 -3.24 5000005.51268
7.185072 4.1 -3.26 5000004.97512
7.185072 4.08 -3.26 5000004.97512
7.507607999999999 3.0 -3.26 5000005.51268
7.507607999999999 2.98 -3.26 5000005.51268
