VERSION .7
FIELDS x y z rgb
SIZE 4 4 4 4
TYPE F F F F
COUNT 1 1 1 1
WIDTH 913
HEIGHT 1
VIEWPOINT 0 0 0 1 0 0 0
POINTS 913
DATA ascii
6.72366 5.16 -4.22 5000004.2061
6.647982 4.7 -4.22 5000004.07997
6.672695999999999 4.68 -4.22 5000004.12116
6.672695999999999 4.66 -4.22 5000004.12116
6.69792 4.56 -4.22 5000004.1632
6.672695999999999 4.54 -4.22 5000004.12116
6.672695999999999 4.52 -4.22 5000004.12116
6.672695999999999 4.5 -4.22 5000004.12116
6.672695999999999 4.48 -4.22 5000004.12116
6.832158 3.62 -4.22 5000004.38693
6.672695999999999 3.56 -4.22 5000004.12116
6.672695999999999 3.54 -4.22 5000004.12116
6.672695999999999 3.52 -4.22 5000004.12116
6.672695999999999 3.5 -4.22 5000004.12116
6.7499340000000005 3.28 -4.22 5000004.24989
6.860754 -4.96 -4.22 5000004.43459
6.72366 5.16 -4.24 5000004.2061
6.672695999999999 3.56 -4.24 5000004.12116
6.672695999999999 3.54 -4.24 5000004.12116
6.672695999999999 3.52 -4.24 5000004.12116
6.672695999999999 3.5 -4.24 5000004.12116
6.7499340000000005 3.3 -4.24 5000004.24989
6.9504 3.68 -4.26 5000004.584
6.672695999999999 3.54 -4.26 5000004.12116
6.672695999999999 3.52 -4.26 5000004.12116
6.7499340000000005 4.0 -4.28 5000004.24989
6.7499340000000005 3.98 -4.28 5000004.24989
6.860754 3.62 -4.28 5000004.43459
6.647982 3.52 -4.28 5000004.07997
6.647982 3.5 -4.28 5000004.07997
6.647982 3.48 -4.28 5000004.07997
6.623754 5.18 -4.3 5000004.03959
6.623754 4.34 -4.3 5000004.03959
6.860754 3.62 -4.3 5000004.43459
6.647982 3.5 -4.3 5000004.07997
6.647982 3.48 -4.3 5000004.07997
6.647982 3.46 -4.3 5000004.07997
6.647982 3.44 -4.3 5000004.07997
6.832158 -3.7 -4.3 5000004.38693
6.832158 -3.72 -4.3 5000004.38693
6.832158 4.42 -4.32 5000004.38693
6.623754 4.32 -4.32 5000004.03959
6.623754 4.3 -4.32 5000004.03959
6.623754 4.28 -4.32 5000004.03959
6.647982 3.68 -4.32 5000004.07997
6.776765999999999 -3.74 -4.32 5000004.29461
6.776765999999999 -3.76 -4.32 5000004.29461
6.776765999999999 -3.78 -4.32 5000004.29461
6.7499340000000005 -3.8 -4.32 5000004.24989
6.804168 -5.08 -4.32 5000004.34028
6.804168 -5.1 -4.32 5000004.34028
6.69792 5.82 -4.34 5000004.1632
6.69792 3.88 -4.34 5000004.1632
6.69792 3.84 -4.34 5000004.1632
6.623754 3.82 -4.34 5000004.03959
6.7499340000000005 3.74 -4.34 5000004.24989
6.623754 4.54 -4.36 5000004.03959
6.623754 4.52 -4.36 5000004.03959
6.69792 3.88 -4.36 5000004.1632
6.69792 3.86 -4.36 5000004.1632
6.623754 3.8 -4.36 5000004.03959
6.623754 3.78 -4.36 5000004.03959
6.776765999999999 -2.68 -4.36 5000004.29461
6.623754 4.54 -4.38 5000004.03959
6.623754 4.52 -4.38 5000004.03959
6.647982 4.44 -4.38 5000004.07997
6.623754 4.36 -4.38 5000004.03959
6.832158 3.98 -4.38 5000004.38693
6.69792 3.86 -4.38 5000004.1632
6.69792 3.84 -4.38 5000004.1632
6.7499340000000005 2.7 -4.38 5000004.24989
6.7499340000000005 2.68 -4.38 5000004.24989
6.7499340000000005 2.66 -4.38 5000004.24989
6.7499340000000005 -5.16 -4.38 5000004.24989
6.647982 4.48 -4.4 5000004.07997
6.623754 4.36 -4.4 5000004.03959
6.623754 4.34 -4.4 5000004.03959
6.623754 4.32 -4.4 5000004.03959
6.832158 4.04 -4.4 5000004.38693
6.69792 3.88 -4.4 5000004.1632
6.69792 3.84 -4.4 5000004.1632
6.623754 3.8 -4.4 5000004.03959
6.7499340000000005 2.7 -4.4 5000004.24989
6.7499340000000005 2.68 -4.4 5000004.24989
6.7499340000000005 2.66 -4.4 5000004.24989
6.623754 4.96 -4.42 5000004.03959
6.623754 4.94 -4.42 5000004.03959
6.623754 4.92 -4.42 5000004.03959
6.647982 4.48 -4.42 5000004.07997
6.832158 4.02 -4.42 5000004.38693
6.672695999999999 3.92 -4.42 5000004.12116
6.672695999999999 3.88 -4.42 5000004.12116
6.7499340000000005 2.72 -4.42 5000004.24989
6.7499340000000005 2.7 -4.42 5000004.24989
6.7499340000000005 2.68 -4.42 5000004.24989
6.832158 4.02 -4.44 5000004.38693
6.672695999999999 3.92 -4.44 5000004.12116
6.647982 4.46 -4.46 5000004.07997
6.672695999999999 3.94 -4.46 5000004.12116
6.672695999999999 -5.62 -4.48 5000004.12116
6.672695999999999 -5.64 -4.48 5000004.12116
6.72366 3.92 -4.5 5000004.2061
6.69792 -3.3 -4.5 5000004.1632
6.672695999999999 -3.32 -4.5 5000004.12116
6.672695999999999 -3.32 -4.52 5000004.12116
6.672695999999999 -3.34 -4.52 5000004.12116
6.647982 -3.36 -4.52 5000004.07997
6.647982 -3.38 -4.52 5000004.07997
6.647982 4.56 -4.54 5000004.07997
6.623754 3.98 -4.56 5000004.03959
6.832158 3.9 -4.56 5000004.38693
6.832158 3.88 -4.56 5000004.38693
6.623754 5.86 -4.58 5000004.03959
6.860754 4.78 -4.6 5000004.43459
6.623754 4.68 -4.6 5000004.03959
6.623754 4.66 -4.6 5000004.03959
6.623754 -5.42 -4.6 5000004.03959
6.623754 4.66 -4.62 5000004.03959
6.623754 4.64 -4.62 5000004.03959
6.672695999999999 3.86 -4.62 5000004.12116
6.672695999999999 3.84 -4.62 5000004.12116
6.623754 4.64 -4.64 5000004.03959
6.623754 4.02 -4.64 5000004.03959
6.623754 4.0 -4.64 5000004.03959
6.623754 3.98 -4.64 5000004.03959
6.69792 2.48 -4.64 5000004.1632
6.69792 2.46 -4.64 5000004.1632
6.623754 5.44 -4.66 5000004.03959
6.623754 5.22 -4.66 5000004.03959
6.623754 4.0 -4.66 5000004.03959
6.623754 3.98 -4.66 5000004.03959
6.623754 3.76 -4.66 5000004.03959
6.623754 1.92 -4.66 5000004.03959
6.623754 2.52 -4.68 5000004.03959
6.623754 2.5 -4.68 5000004.03959
6.623754 1.92 -4.68 5000004.03959
6.623754 2.5 -4.7 5000004.03959
6.623754 2.48 -4.7 5000004.03959
6.69792 2.4 -4.7 5000004.1632
6.623754 2.52 -4.72 5000004.03959
6.623754 2.46 -4.72 5000004.03959
6.623754 2.5 -4.74 5000004.03959
6.623754 4.18 -5.14 5000004.03959
000004.12116
11.52366 3.92 -4.5 5000004.2061
11.49792 -3.3 -4.5 5000004.1632
11.472696000000001 -3.32 -4.5 5000004.12116
11.472696000000001 -3.32 -4.52 5000004.12116
11.472696000000001 -3.34 -4.52 5000004.12116
11.447982 -3.36 -4.52 5000004.07997
11.447982 -3.38 -4.52 5000004.07997
11.447982 4.56 -4.54 5000004.07997
11.423754 3.98 -4.56 5000004.03959
11.632158 3.9 -4.56 5000004.38693
11.632158 3.88 -4.56 5000004.38693
11.423754 5.86 -4.58 5000004.03959
11.660753999999999 4.78 -4.6 5000004.43459
11.423754 4.68 -4.6 5000004.03959
11.423754 4.66 -4.6 5000004.03959
11.423754 -5.42 -4.6 5000004.03959
11.423754 4.66 -4.62 5000004.03959
11.423754 4.64 -4.62 5000004.03959
11.472696000000001 3.86 -4.62 5000004.12116
11.472696000000001 3.84 -4.62 5000004.12116
11.423754 4.64 -4.64 5000004.03959
11.423754 4.02 -4.64 5000004.03959
11.423754 4.0 -4.64 5000004.03959
11.423754 3.98 -4.64 5000004.03959
11.49792 2.48 -4.64 5000004.1632
11.49792 2.46 -4.64 5000004.1632
11.423754 5.44 -4.66 5000004.03959
11.423754 5.22 -4.66 5000004.03959
11.423754 4.0 -4.66 5000004.03959
11.423754 3.98 -4.66 5000004.03959
11.423754 3.76 -4.66 5000004.03959
11.423754 1.92 -4.66 5000004.03959
11.423754 2.52 -4.68 5000004.03959
11.423754 2.5 -4.68 5000004.03959
11.423754 1.92 -4.68 5000004.03959
11.423754 2.5 -4.7 5000004.03959
11.423754 2.48 -4.7 5000004.03959
11.49792 2.4 -4.7 5000004.1632
11.423754 2.52 -4.72 5000004.03959
11.423754 2.46 -4.72 5000004.03959
11.423754 2.5 -4.74 5000004.03959
11.423754 4.18 -5.14 5000004.03959
58359999999998 -1.48 -4.68 5000004.03959
1.6158359999999998 -1.5 -4.68 5000004.03959
1.6158359999999998 -2.08 -4.68 5000004.03959
1.6158359999999998 -1.5 -4.7 5000004.03959
1.6158359999999998 -1.52 -4.7 5000004.03959
1.6652799999999999 -1.6 -4.7 5000004.1632
1.6158359999999998 -1.48 -4.72 5000004.03959
1.6158359999999998 -1.54 -4.72 5000004.03959
1.6158359999999998 -1.5 -4.74 5000004.03959
1.6158359999999998 0.18 -5.14 5000004.03959
 0.8333333333333334 -1.8 5000004.85673
10.161891 0.8 -1.8 5000004.85673
10.161891 0.7666666666666667 -1.8 5000004.85673
10.215819666666667 -3.466666666666667 -1.8 5000006.47459
10.156311 1.7333333333333334 -1.8333333333333333 5000004.68933
10.161891 0.8333333333333334 -1.8333333333333333 5000004.85673
10.161891 0.8 -1.8333333333333333 5000004.85673
10.161891 0.7666666666666667 -1.8333333333333333 5000004.85673
10.209183 -0.13333333333333333 -1.8333333333333333 5000006.27549
10.212449666666666 -0.2 -1.8333333333333333 5000006.37349
10.209183 -0.23333333333333334 -1.8333333333333333 5000006.27549
10.188857333333333 1.8666666666666667 -1.8666666666666667 5000005.66572
10.156311 1.7333333333333334 -1.8666666666666667 5000004.68933
10.161891 0.8333333333333334 -1.8666666666666667 5000004.85673
10.161891 0.8 -1.8666666666666667 5000004.85673
10.161891 0.7666666666666667 -1.8666666666666667 5000004.85673
10.212449666666666 0.5 -1.8666666666666667 5000006.37349
10.209183 -0.1 -1.8666666666666667 5000006.27549
10.206015666666667 -0.3 -1.8666666666666667 5000006.18047
10.206015666666667 -0.3333333333333333 -1.8666666666666667 5000006.18047
10.215819666666667 -3.433333333333333 -1.8666666666666667 5000006.47459
10.156311 1.7333333333333334 -1.9 5000004.68933
10.161891 0.8 -1.9 5000004.85673
10.161891 0.7666666666666667 -1.9 5000004.85673
10.212449666666666 0.5 -1.9 5000006.37349
10.209183 0.4666666666666667 -1.9 5000006.27549
10.209183 0.43333333333333335 -1.9 5000006.27549
10.206015666666667 0.4 -1.9 5000006.18047
10.206015666666667 0.36666666666666664 -1.9 5000006.18047
10.202942666666667 0.3333333333333333 -1.9 5000006.08828
10.230441333333333 0.03333333333333333 -1.9 5000006.91324
10.209183 -0.1 -1.9 5000006.27549
10.209183 -0.13333333333333333 -1.9 5000006.27549
10.156311 1.7333333333333334 -1.9333333333333333 5000004.68933
10.178923 1.0 -1.9333333333333333 5000005.36769
10.176600333333333 0.9666666666666667 -1.9333333333333333 5000005.29801
10.206015666666667 -0.13333333333333333 -1.9333333333333333 5000006.18047
10.206015666666667 -0.16666666666666666 -1.9333333333333333 5000006.18047
10.206015666666667 -0.2 -1.9333333333333333 5000006.18047
10.156311 1.7333333333333334 -1.9666666666666666 5000004.68933
10.154535666666666 1.7333333333333334 -2.0 5000004.63607
10.172132 0.9 -2.0 5000005.16396
10.172132 0.8666666666666667 -2.0 5000005.16396
10.154535666666666 1.7333333333333334 -2.033333333333333 5000004.63607
10.154535666666666 1.7 -2.033333333333333 5000004.63607
10.156311 1.0333333333333334 -2.033333333333333 5000004.68933
10.156311 1.7 -2.066666666666667 5000004.68933
10.156311 1.6666666666666667 -2.066666666666667 5000004.68933
10.154535666666666 1.6333333333333333 -2.066666666666667 5000004.63607
10.156311 1.6 -2.066666666666667 5000004.68933
10.156311 1.5666666666666667 -2.066666666666667 5000004.68933
10.149443333333334 1.5333333333333334 -2.066666666666667 5000004.4833
10.156311 1.2666666666666666 -2.066666666666667 5000004.68933
10.161891 0.7666666666666667 -2.066666666666667 5000004.85673
10.156311 1.5666666666666667 -2.1 5000004.68933
10.149443333333334 1.5333333333333334 -2.1 5000004.4833
10.149443333333334 1.5 -2.1 5000004.4833
10.149443333333334 1.4666666666666666 -2.1 5000004.4833
10.149443333333334 1.4333333333333333 -2.1 5000004.4833
10.156311 1.3333333333333333 -2.1 5000004.68933
10.161891 0.7666666666666667 -2.1 5000004.85673
10.156311 1.7666666666666666 -2.1333333333333333 5000004.68933
10.156311 1.7333333333333334 -2.1333333333333333 5000004.68933
10.161891 0.7666666666666667 -2.1333333333333333 5000004.85673
10.156311 1.7666666666666666 -2.1666666666666665 5000004.68933
10.156311 1.7333333333333334 -2.1666666666666665 5000004.68933
10.161891 0.7666666666666667 -2.1666666666666665 5000004.85673
10.183756 0.43333333333333335 -2.1666666666666665 5000005.51268
10.156311 1.7666666666666666 -2.2 5000004.68933
10.156311 1.7333333333333334 -2.2 5000004.68933
10.161891 0.7666666666666667 -2.2 5000004.85673
10.183756 0.43333333333333335 -2.2 5000005.51268
10.156311 1.7333333333333334 -2.2333333333333334 5000004.68933
10.161891 0.7666666666666667 -2.2333333333333334 5000004.85673
10.191516 -0.8333333333333334 -2.2333333333333334 5000005.74548
10.181307333333333 -1.6333333333333333 -2.2333333333333334 5000005.43922
10.194250333333333 -3.2 -2.2333333333333334 5000005.82751
10.191516 -13.366666666666667 -2.2333333333333334 5000005.74548
10.191516 -13.4 -2.2333333333333334 5000005.74548
10.191516 -13.433333333333334 -2.2333333333333334 5000005.74548
10.191516 -13.466666666666667 -2.2333333333333334 5000005.74548
10.188857333333333 -13.5 -2.2333333333333334 5000005.66572
10.188857333333333 -13.533333333333333 -2.2333333333333334 5000005.66572
10.188857333333333 -13.566666666666666 -2.2333333333333334 5000005.66572
10.186271666666666 -13.6 -2.2333333333333334 5000005.58815
10.186271666666666 -13.633333333333333 -2.2333333333333334 5000005.58815
10.186271666666666 -13.666666666666666 -2.2333333333333334 5000005.58815
10.186271666666666 -13.7 -2.2333333333333334 5000005.58815
10.186271666666666 -13.733333333333333 -2.2333333333333334 5000005.58815
10.186271666666666 -13.766666666666667 -2.2333333333333334 5000005.58815
10.186271666666666 -13.8 -2.2333333333333334 5000005.58815
10.186271666666666 -13.833333333333334 -2.2333333333333334 5000005.58815
10.156311 1.7333333333333334 -2.2666666666666666 5000004.68933
10.161891 0.7666666666666667 -2.2666666666666666 5000004.85673
10.19996 0.5666666666666667 -2.2666666666666666 5000005.9988
10.19996 0.5333333333333333 -2.2666666666666666 5000005.9988
10.181307333333333 0.43333333333333335 -2.2666666666666666 5000005.43922
10.181307333333333 0.4 -2.2666666666666666 5000005.43922
10.178923 -1.2 -2.2666666666666666 5000005.36769
10.178923 -1.3 -2.2666666666666666 5000005.36769
10.186271666666666 -13.833333333333334 -2.2666666666666666 5000005.58815
10.191516 2.0 -2.3 5000005.74548
10.156311 1.7333333333333334 -2.3 5000004.68933
10.209183 1.3333333333333333 -2.3 5000006.27549
10.161891 0.7666666666666667 -2.3 5000004.85673
10.178923 -0.5333333333333333 -2.3 5000005.36769
10.181307333333333 -1.3333333333333333 -2.3 5000005.43922
10.181307333333333 -1.3666666666666667 -2.3 5000005.43922
10.178923 -1.4 -2.3 5000005.36769
10.158127666666667 1.8333333333333333 -2.3333333333333335 5000004.74383
10.178923 -0.5333333333333333 -2.3333333333333335 5000005.36769
10.178923 -0.5666666666666667 -2.3333333333333335 5000005.36769
10.178923 -0.6 -2.3333333333333335 5000005.36769
10.156311 1.7666666666666666 -2.3666666666666667 5000004.68933
10.181307333333333 -1.6333333333333333 -2.3666666666666667 5000005.43922
10.178923 -1.6666666666666667 -2.3666666666666667 5000005.36769
10.174337666666666 -1.7333333333333334 -2.3666666666666667 5000005.23013
10.186271666666666 -3.1333333333333333 -2.3666666666666667 5000005.58815
10.156311 1.7666666666666666 -2.4 5000004.68933
10.156311 1.7333333333333334 -2.4 5000004.68933
10.172132 0.9333333333333333 -2.4 5000005.16396
10.172132 0.9 -2.4 5000005.16396
10.169981333333334 0.8666666666666667 -2.4 5000005.09944
10.176600333333333 -0.8 -2.4 5000005.29801
10.174337666666666 -1.7333333333333334 -2.4 5000005.23013
10.174337666666666 -1.7666666666666666 -2.4 5000005.23013
10.174337666666666 -1.8 -2.4 5000005.23013
10.176600333333333 -1.8333333333333333 -2.4 5000005.29801
10.186271666666666 -3.1 -2.4 5000005.58815
10.186271666666666 -3.1333333333333333 -2.4 5000005.58815
10.186271666666666 -3.1666666666666665 -2.4 5000005.58815
10.186271666666666 -3.3 -2.4 5000005.58815
10.186271666666666 -3.3333333333333335 -2.4 5000005.58815
10.186271666666666 -3.3666666666666667 -2.4 5000005.58815
10.186271666666666 -3.4 -2.4 5000005.58815
10.186271666666666 -3.433333333333333 -2.4 5000005.58815
10.186271666666666 -3.466666666666667 -2.4 5000005.58815
10.186271666666666 -3.5 -2.4 5000005.58815
10.183756 -3.533333333333333 -2.4 5000005.51268
10.183756 -3.566666666666667 -2.4 5000005.51268
10.181307333333333 -3.6 -2.4 5000005.43922
10.156311 1.7666666666666666 -2.433333333333333 5000004.68933
10.156311 1.7333333333333334 -2.433333333333333 5000004.68933
10.172132 0.9666666666666667 -2.433333333333333 5000005.16396
10.172132 0.9333333333333333 -2.433333333333333 5000005.16396
10.172132 0.9 -2.433333333333333 5000005.16396
10.169981333333334 0.8666666666666667 -2.433333333333333 5000005.09944
10.161891 0.8 -2.433333333333333 5000004.85673
10.161891 0.7666666666666667 -2.433333333333333 5000004.85673
10.176600333333333 -0.8333333333333334 -2.433333333333333 5000005.29801
10.181307333333333 -0.9 -2.433333333333333 5000005.43922
10.176600333333333 -1.8333333333333333 -2.433333333333333 5000005.29801
10.176600333333333 -1.8666666666666667 -2.433333333333333 5000005.29801
10.174337666666666 -1.9 -2.433333333333333 5000005.23013
10.186271666666666 -3.1333333333333333 -2.433333333333333 5000005.58815
10.186271666666666 -3.1666666666666665 -2.433333333333333 5000005.58815
10.156311 1.7333333333333334 -2.466666666666667 5000004.68933
10.156311 1.7 -2.466666666666667 5000004.68933
10.156311 1.6666666666666667 -2.466666666666667 5000004.68933
10.154535666666666 1.6333333333333333 -2.466666666666667 5000004.63607
10.154535666666666 1.2 -2.466666666666667 5000004.63607
10.154535666666666 1.1666666666666667 -2.466666666666667 5000004.63607
10.156311 1.1333333333333333 -2.466666666666667 5000004.68933
10.156311 1.1 -2.466666666666667 5000004.68933
10.154535666666666 1.0666666666666667 -2.466666666666667 5000004.63607
10.156311 1.0333333333333334 -2.466666666666667 5000004.68933
10.174337666666666 1.0 -2.466666666666667 5000005.23013
10.161891 0.8 -2.466666666666667 5000004.85673
10.161891 0.7666666666666667 -2.466666666666667 5000004.85673
10.169981333333334 -0.5333333333333333 -2.466666666666667 5000005.09944
10.172132 -1.9333333333333333 -2.466666666666667 5000005.16396
10.172132 -1.9666666666666666 -2.466666666666667 5000005.16396
10.178923 -2.7666666666666666 -2.466666666666667 5000005.36769
10.178923 -2.8 -2.466666666666667 5000005.36769
10.181307333333333 1.9 -2.5 5000005.43922
10.156311 1.7 -2.5 5000004.68933
10.154535666666666 1.6666666666666667 -2.5 5000004.63607
10.154535666666666 1.6333333333333333 -2.5 5000004.63607
10.154535666666666 1.6 -2.5 5000004.63607
10.154535666666666 1.5666666666666667 -2.5 5000004.63607
10.158127666666667 1.5 -2.5 5000004.74383
10.158127666666667 1.4666666666666666 -2.5 5000004.74383
10.158127666666667 1.4333333333333333 -2.5 5000004.74383
10.158127666666667 1.4 -2.5 5000004.74383
10.156311 1.3666666666666667 -2.5 5000004.68933
10.154535666666666 1.3333333333333333 -2.5 5000004.63607
10.154535666666666 1.3 -2.5 5000004.63607
10.154535666666666 1.2666666666666666 -2.5 5000004.63607
10.154535666666666 1.2333333333333334 -2.5 5000004.63607
10.154535666666666 1.2 -2.5 5000004.63607
10.154535666666666 1.1666666666666667 -2.5 5000004.63607
10.156311 1.1333333333333333 -2.5 5000004.68933
10.156311 1.1 -2.5 5000004.68933
10.161891 0.8 -2.5 5000004.85673
10.161891 0.7666666666666667 -2.5 5000004.85673
10.167883666666667 -0.5333333333333333 -2.5 5000005.03651
10.167883666666667 -0.6 -2.5 5000005.03651
10.167883666666667 -0.6333333333333333 -2.5 5000005.03651
10.174337666666666 -0.7 -2.5 5000005.23013
10.174337666666666 -0.8 -2.5 5000005.23013
10.172132 -1.9666666666666666 -2.5 5000005.16396
10.172132 -2.0 -2.5 5000005.16396
10.154535666666666 1.6333333333333333 -2.533333333333333 5000004.63607
10.154535666666666 1.6 -2.533333333333333 5000004.63607
10.154535666666666 1.5666666666666667 -2.533333333333333 5000004.63607
10.154535666666666 1.5333333333333334 -2.533333333333333 5000004.63607
10.158127666666667 1.5 -2.533333333333333 5000004.74383
10.154535666666666 1.3333333333333333 -2.533333333333333 5000004.63607
10.154535666666666 1.3 -2.533333333333333 5000004.63607
10.161891 0.8 -2.533333333333333 5000004.85673
10.161891 0.7666666666666667 -2.533333333333333 5000004.85673
10.172132 -0.03333333333333333 -2.533333333333333 5000005.16396
10.159987333333333 -0.13333333333333333 -2.533333333333333 5000004.79962
10.181307333333333 -0.43333333333333335 -2.533333333333333 5000005.43922
10.172132 -0.4666666666666667 -2.533333333333333 5000005.16396
10.167883666666667 -0.5333333333333333 -2.533333333333333 5000005.03651
10.167883666666667 -0.5666666666666667 -2.533333333333333 5000005.03651
10.167883666666667 -0.6 -2.533333333333333 5000005.03651
10.172132 -2.0 -2.533333333333333 5000005.16396
10.172132 -2.033333333333333 -2.533333333333333 5000005.16396
10.169981333333334 -2.066666666666667 -2.533333333333333 5000005.09944
10.169981333333334 -2.6666666666666665 -2.533333333333333 5000005.09944
10.159987333333333 0.8333333333333334 -2.566666666666667 5000004.79962
10.159987333333333 0.8 -2.566666666666667 5000004.79962
10.159987333333333 0.7666666666666667 -2.566666666666667 5000004.79962
10.167883666666667 -0.5666666666666667 -2.566666666666667 5000005.03651
10.167883666666667 -0.6 -2.566666666666667 5000005.03651
10.167883666666667 -0.6333333333333333 -2.566666666666667 5000005.03651
10.169981333333334 -2.066666666666667 -2.566666666666667 5000005.09944
10.169981333333334 -2.1 -2.566666666666667 5000005.09944
10.169981333333334 -2.6666666666666665 -2.566666666666667 5000005.09944
10.169981333333334 -2.7 -2.566666666666667 5000005.09944
10.172132 1.8333333333333333 -2.6 5000005.16396
10.154535666666666 1.7333333333333334 -2.6 5000004.63607
10.159987333333333 0.8333333333333334 -2.6 5000004.79962
10.159987333333333 0.8 -2.6 5000004.79962
10.159987333333333 0.7666666666666667 -2.6 5000004.79962
10.178923 0.6333333333333333 -2.6 5000005.36769
10.161891 0.0 -2.6 5000004.85673
10.167883666666667 -0.6 -2.6 5000005.03651
10.167883666666667 -0.6333333333333333 -2.6 5000005.03651
10.169981333333334 -2.1 -2.6 5000005.09944
10.169981333333334 -2.7 -2.6 5000005.09944
10.169981333333334 -2.7333333333333334 -2.6 5000005.09944
10.156311 1.7333333333333334 -2.6333333333333333 5000004.68933
10.159987333333333 0.8333333333333334 -2.6333333333333333 5000004.79962
10.159987333333333 0.8 -2.6333333333333333 5000004.79962
10.159987333333333 0.7666666666666667 -2.6333333333333333 5000004.79962
10.161891 0.03333333333333333 -2.6333333333333333 5000004.85673
10.161891 0.0 -2.6333333333333333 5000004.85673
10.167883666666667 -2.1 -2.6333333333333333 5000005.03651
10.167883666666667 -2.1333333333333333 -2.6333333333333333 5000005.03651
10.169981333333334 -2.7333333333333334 -2.6333333333333333 5000005.09944
10.156311 1.7333333333333334 -2.6666666666666665 5000004.68933
10.159987333333333 0.8333333333333334 -2.6666666666666665 5000004.79962
10.159987333333333 0.8 -2.6666666666666665 5000004.79962
10.159987333333333 0.7666666666666667 -2.6666666666666665 5000004.79962
10.161891 0.03333333333333333 -2.6666666666666665 5000004.85673
10.161891 0.0 -2.6666666666666665 5000004.85673
10.167883666666667 -2.1 -2.6666666666666665 5000005.03651
10.167883666666667 -2.1333333333333333 -2.6666666666666665 5000005.03651
10.167883666666667 -2.1666666666666665 -2.6666666666666665 5000005.03651
10.156311 1.7666666666666666 -2.7 5000004.68933
10.156311 1.7333333333333334 -2.7 5000004.68933
10.159987333333333 0.8333333333333334 -2.7 5000004.79962
10.159987333333333 0.8 -2.7 5000004.79962
10.161891 0.0 -2.7 5000004.85673
10.161891 -0.03333333333333333 -2.7 5000004.85673
10.183756 -1.9666666666666666 -2.7 5000005.51268
10.165837333333334 -2.1333333333333333 -2.7 5000004.97512
10.165837333333334 -2.1666666666666665 -2.7 5000004.97512
10.165837333333334 -2.2 -2.7 5000004.97512
10.156311 1.7666666666666666 -2.7333333333333334 5000004.68933
10.156311 1.7333333333333334 -2.7333333333333334 5000004.68933
10.159987333333333 0.8 -2.7333333333333334 5000004.79962
10.161891 -0.03333333333333333 -2.7333333333333334 5000004.85673
10.161891 -0.06666666666666667 -2.7333333333333334 5000004.85673
10.161891 0.8333333333333334 -2.7666666666666666 5000004.85673
10.159987333333333 0.8 -2.7666666666666666 5000004.79962
10.159987333333333 0.7666666666666667 -2.7666666666666666 5000004.79962
10.165837333333334 -2.1666666666666665 -2.7666666666666666 5000004.97512
10.159987333333333 0.8 -2.8 5000004.79962
10.159987333333333 0.7666666666666667 -2.8 5000004.79962
10.159987333333333 0.7333333333333333 -2.8 5000004.79962
10.159987333333333 0.7 -2.8 5000004.79962
10.163840333333333 -1.9333333333333333 -2.8 5000004.91521
10.163840333333333 -2.1666666666666665 -2.8 5000004.91521
10.158127666666667 0.5666666666666667 -2.8333333333333335 5000004.74383
10.161891 -1.1 -2.8333333333333335 5000004.85673
10.163840333333333 -2.1666666666666665 -2.8333333333333335 5000004.91521
10.154535666666666 1.7333333333333334 -2.8666666666666667 5000004.63607
10.158127666666667 0.5 -2.8666666666666667 5000004.74383
10.161891 -2.1666666666666665 -2.8666666666666667 5000004.85673
10.154535666666666 1.7333333333333334 -2.9 5000004.63607
10.174337666666666 0.9333333333333333 -2.9 5000005.23013
10.158127666666667 0.5 -2.9 5000004.74383
10.156311 0.4666666666666667 -2.9 5000004.68933
10.156311 -0.03333333333333333 -2.9 5000004.68933
10.156311 -0.06666666666666667 -2.9 5000004.68933
10.156311 -0.1 -2.9 5000004.68933
10.159987333333333 -1.4333333333333333 -2.9 5000004.79962
10.159987333333333 -1.4666666666666666 -2.9 5000004.79962
10.161891 -1.6666666666666667 -2.9 5000004.85673
10.161891 -1.7 -2.9 5000004.85673
10.159987333333333 -2.033333333333333 -2.9 5000004.79962
10.174337666666666 -2.7666666666666666 -2.9 5000005.23013
10.154535666666666 1.7333333333333334 -2.933333333333333 5000004.63607
10.154535666666666 1.0333333333333334 -2.933333333333333 5000004.63607
10.156311 0.4666666666666667 -2.933333333333333 5000004.68933
10.156311 0.43333333333333335 -2.933333333333333 5000004.68933
10.159987333333333 -1.4666666666666666 -2.933333333333333 5000004.79962
10.159987333333333 -1.5 -2.933333333333333 5000004.79962
10.159987333333333 -2.1 -2.933333333333333 5000004.79962
10.159987333333333 -2.1333333333333333 -2.933333333333333 5000004.79962
10.151102999999999 1.2666666666666666 -2.966666666666667 5000004.53309
10.154535666666666 -0.4 -2.966666666666667 5000004.63607
10.151102999999999 1.2666666666666666 -3.0 5000004.53309
10.151102999999999 1.2333333333333334 -3.0 5000004.53309
10.154535666666666 0.16666666666666666 -3.0 5000004.63607
10.165837333333334 -0.23333333333333334 -3.0 5000004.97512
10.165837333333334 -0.26666666666666666 -3.0 5000004.97512
10.154535666666666 -0.4 -3.0 5000004.63607
10.154535666666666 -0.43333333333333335 -3.0 5000004.63607
10.167883666666667 -0.6333333333333333 -3.0 5000005.03651
10.165837333333334 -0.6666666666666666 -3.0 5000004.97512
10.158127666666667 -0.7333333333333333 -3.0 5000004.74383
10.1528 -0.7666666666666667 -3.0 5000004.584
10.1528 -0.8 -3.0 5000004.584
10.151102999999999 1.2333333333333334 -3.033333333333333 5000004.53309
10.154535666666666 0.13333333333333333 -3.033333333333333 5000004.63607
10.163840333333333 -0.1 -3.033333333333333 5000004.91521
10.165837333333334 -0.2 -3.033333333333333 5000004.97512
10.154535666666666 -0.4 -3.033333333333333 5000004.63607
10.151102999999999 1.2333333333333334 -3.066666666666667 5000004.53309
10.172132 0.36666666666666664 -3.066666666666667 5000005.16396
10.154535666666666 0.16666666666666666 -3.066666666666667 5000004.63607
10.154535666666666 0.13333333333333333 -3.066666666666667 5000004.63607
10.154535666666666 0.1 -3.066666666666667 5000004.63607
10.154535666666666 -0.43333333333333335 -3.066666666666667 5000004.63607
10.154535666666666 -0.4666666666666667 -3.066666666666667 5000004.63607
10.163840333333333 -9.2 -3.066666666666667 5000004.91521
10.163840333333333 -9.233333333333333 -3.066666666666667 5000004.91521
10.163840333333333 -9.266666666666667 -3.066666666666667 5000004.91521
10.151102999999999 1.2333333333333334 -3.1 5000004.53309
10.151102999999999 1.2 -3.1 5000004.53309
10.172132 0.36666666666666664 -3.1 5000005.16396
10.1528 0.1 -3.1 5000004.584
10.163840333333333 -0.06666666666666667 -3.1 5000004.91521
10.165837333333334 -0.3 -3.1 5000004.97512
10.1528 -0.4666666666666667 -3.1 5000004.584
10.151102999999999 -0.5 -3.1 5000004.53309
10.151102999999999 -0.5333333333333333 -3.1 5000004.53309
10.151102999999999 -0.5666666666666667 -3.1 5000004.53309
10.158127666666667 -1.3333333333333333 -3.1 5000004.74383
10.147819666666667 1.5 -3.1333333333333333 5000004.43459
10.151102999999999 -0.5333333333333333 -3.1333333333333333 5000004.53309
10.151102999999999 -0.5666666666666667 -3.1333333333333333 5000004.53309
10.151102999999999 -0.6 -3.1333333333333333 5000004.53309
10.156311 -1.4 -3.1333333333333333 5000004.68933
10.146231 1.5 -3.1666666666666665 5000004.38693
10.146231 1.4666666666666666 -3.1666666666666665 5000004.38693
10.183756 -0.13333333333333333 -3.1666666666666665 5000005.51268
10.151102999999999 -0.5666666666666667 -3.1666666666666665 5000004.53309
10.151102999999999 -0.6 -3.1666666666666665 5000004.53309
10.151102999999999 -0.6333333333333333 -3.1666666666666665 5000004.53309
10.156311 -1.4666666666666666 -3.1666666666666665 5000004.68933
10.146231 1.4666666666666666 -3.2 5000004.38693
10.146231 1.4333333333333333 -3.2 5000004.38693
10.149443333333334 0.03333333333333333 -3.2 5000004.4833
10.149443333333334 0.0 -3.2 5000004.4833
10.149443333333334 -0.03333333333333333 -3.2 5000004.4833
10.151102999999999 -0.6 -3.2 5000004.53309
10.151102999999999 -0.6333333333333333 -3.2 5000004.53309
10.149443333333334 -0.6666666666666666 -3.2 5000004.4833
10.149443333333334 -0.7 -3.2 5000004.4833
10.149443333333334 -0.7333333333333333 -3.2 5000004.4833
10.158127666666667 -0.9 -3.2 5000004.74383
10.159987333333333 -1.1 -3.2 5000004.79962
10.146231 -1.2666666666666666 -3.2 5000004.38693
10.144676 -1.5666666666666667 -3.2 5000004.34028
10.146231 1.4666666666666666 -3.2333333333333334 5000004.38693
10.146231 1.4333333333333333 -3.2333333333333334 5000004.38693
10.151102999999999 1.0 -3.2333333333333334 5000004.53309
10.159987333333333 0.7 -3.2333333333333334 5000004.79962
10.147819666666667 0.5666666666666667 -3.2333333333333334 5000004.43459
10.183756 -0.2 -3.2333333333333334 5000005.51268
10.149443333333334 -0.6333333333333333 -3.2333333333333334 5000004.4833
10.149443333333334 -0.6666666666666666 -3.2333333333333334 5000004.4833
10.149443333333334 -0.7 -3.2333333333333334 5000004.4833
10.149443333333334 -0.7333333333333333 -3.2333333333333334 5000004.4833
10.151102999999999 -1.0 -3.2333333333333334 5000004.53309
10.159987333333333 -1.1 -3.2333333333333334 5000004.79962
10.159987333333333 -1.1333333333333333 -3.2333333333333334 5000004.79962
10.146231 -1.2666666666666666 -3.2333333333333334 5000004.38693
10.146231 -1.3 -3.2333333333333334 5000004.38693
10.151102999999999 -1.9 -3.2333333333333334 5000004.53309
10.151102999999999 0.9666666666666667 -3.2666666666666666 5000004.53309
10.147819666666667 0.8333333333333334 -3.2666666666666666 5000004.43459
10.149443333333334 0.8 -3.2666666666666666 5000004.4833
10.151102999999999 0.7666666666666667 -3.2666666666666666 5000004.53309
10.147819666666667 0.5666666666666667 -3.2666666666666666 5000004.43459
10.147819666666667 0.5333333333333333 -3.2666666666666666 5000004.43459
10.147819666666667 0.5 -3.2666666666666666 5000004.43459
10.147819666666667 0.4666666666666667 -3.2666666666666666 5000004.43459
10.176600333333333 0.36666666666666664 -3.2666666666666666 5000005.29801
10.149443333333334 -1.0 -3.2666666666666666 5000004.4833
10.151102999999999 -1.0333333333333334 -3.2666666666666666 5000004.53309
10.151102999999999 -1.0666666666666667 -3.2666666666666666 5000004.53309
10.146231 -1.3 -3.2666666666666666 5000004.38693
10.146231 -1.3333333333333333 -3.2666666666666666 5000004.38693
10.146231 -1.3666666666666667 -3.2666666666666666 5000004.38693
10.147819666666667 0.9333333333333333 -3.3 5000004.43459
10.147819666666667 0.9 -3.3 5000004.43459
10.147819666666667 0.8666666666666667 -3.3 5000004.43459
10.147819666666667 0.13333333333333333 -3.3 5000004.43459
10.147819666666667 0.1 -3.3 5000004.43459
10.146231 0.06666666666666667 -3.3 5000004.38693
10.146231 -0.9666666666666667 -3.3 5000004.38693
10.149443333333334 -1.0 -3.3 5000004.4833
10.147819666666667 -1.4333333333333333 -3.3 5000004.43459
10.146231 -1.4666666666666666 -3.3 5000004.38693
10.147819666666667 0.1 -3.3333333333333335 5000004.43459
10.146231 0.06666666666666667 -3.3333333333333335 5000004.38693
10.146231 0.03333333333333333 -3.3333333333333335 5000004.38693
10.146231 0.0 -3.3333333333333335 5000004.38693
10.146231 -0.03333333333333333 -3.3333333333333335 5000004.38693
10.146231 -0.06666666666666667 -3.3333333333333335 5000004.38693
10.134653 -0.8666666666666667 -3.3333333333333335 5000004.03959
10.146231 -0.9666666666666667 -3.3333333333333335 5000004.38693
10.146231 -1.0 -3.3333333333333335 5000004.38693
10.146231 -1.4666666666666666 -3.3333333333333335 5000004.38693
10.156311 -14.566666666666666 -3.3333333333333335 5000004.68933
10.146231 -0.06666666666666667 -3.3666666666666667 5000004.38693
10.146231 -0.1 -3.3666666666666667 5000004.38693
10.146231 -0.13333333333333333 -3.3666666666666667 5000004.38693
10.144676 -1.1 -3.3666666666666667 5000004.34028
10.140203333333334 2.1 -3.4 5000004.2061
10.159987333333333 0.4666666666666667 -3.4 5000004.79962
10.1528 -0.43333333333333335 -3.4 5000004.584
10.144676 -1.0666666666666667 -3.4 5000004.34028
10.144676 -1.1 -3.4 5000004.34028
10.140203333333334 2.066666666666667 -3.433333333333333 5000004.2061
10.159987333333333 0.4666666666666667 -3.433333333333333 5000004.79962
10.151102999999999 0.3 -3.433333333333333 5000004.53309
10.144676 0.2 -3.433333333333333 5000004.34028
10.163840333333333 -0.23333333333333334 -3.433333333333333 5000004.91521
10.165837333333334 -0.26666666666666666 -3.433333333333333 5000004.97512
10.1528 -0.43333333333333335 -3.433333333333333 5000004.584
10.146231 -0.5333333333333333 -3.433333333333333 5000004.38693
10.146231 -0.5666666666666667 -3.433333333333333 5000004.38693
10.146231 -0.6 -3.433333333333333 5000004.38693
10.146231 -0.6333333333333333 -3.433333333333333 5000004.38693
10.144676 -1.0666666666666667 -3.433333333333333 5000004.34028
10.154535666666666 -15.2 -3.433333333333333 5000004.63607
10.154535666666666 -15.233333333333333 -3.433333333333333 5000004.63607
10.154535666666666 1.3666666666666667 -3.466666666666667 5000004.63607
10.144676 0.36666666666666664 -3.466666666666667 5000004.34028
10.151102999999999 0.3 -3.466666666666667 5000004.53309
10.146231 0.26666666666666666 -3.466666666666667 5000004.38693
10.144676 0.2 -3.466666666666667 5000004.34028
10.143153666666667 0.16666666666666666 -3.466666666666667 5000004.29461
10.143153666666667 0.13333333333333333 -3.466666666666667 5000004.29461
10.143153666666667 0.1 -3.466666666666667 5000004.29461
10.141663 0.0 -3.466666666666667 5000004.24989
10.146231 -0.5666666666666667 -3.466666666666667 5000004.38693
10.146231 -0.6 -3.466666666666667 5000004.38693
10.151102999999999 -0.7 -3.466666666666667 5000004.53309
10.1528 1.3333333333333333 -3.5 5000004.584
10.137372 1.1666666666666667 -3.5 5000004.12116
10.137372 1.1333333333333333 -3.5 5000004.12116
10.159987333333333 0.5666666666666667 -3.5 5000004.79962
10.144676 0.36666666666666664 -3.5 5000004.34028
10.151102999999999 0.3333333333333333 -3.5 5000004.53309
10.144676 0.2 -3.5 5000004.34028
10.143153666666667 0.16666666666666666 -3.5 5000004.29461
10.143153666666667 0.13333333333333333 -3.5 5000004.29461
10.143153666666667 0.1 -3.5 5000004.29461
10.143153666666667 0.06666666666666667 -3.5 5000004.29461
10.143153666666667 0.03333333333333333 -3.5 5000004.29461
10.141663 0.0 -3.5 5000004.24989
10.1528 -0.16666666666666666 -3.5 5000004.584
10.135999 1.4666666666666666 -3.533333333333333 5000004.07997
10.135999 1.4333333333333333 -3.533333333333333 5000004.07997
10.141663 1.2666666666666666 -3.533333333333333 5000004.24989
10.137372 1.1333333333333333 -3.533333333333333 5000004.12116
10.137372 1.1 -3.533333333333333 5000004.12116
10.156311 1.0 -3.533333333333333 5000004.68933
10.138773333333333 0.9 -3.533333333333333 5000004.1632
10.138773333333333 -0.3333333333333333 -3.533333333333333 5000004.1632
10.135999 1.4666666666666666 -3.566666666666667 5000004.07997
10.135999 1.4333333333333333 -3.566666666666667 5000004.07997
10.135999 1.4 -3.566666666666667 5000004.07997
10.135999 1.3666666666666667 -3.566666666666667 5000004.07997
10.154535666666666 1.0 -3.566666666666667 5000004.63607
10.141663 -0.06666666666666667 -3.566666666666667 5000004.24989
10.143153666666667 -0.1 -3.566666666666667 5000004.29461
10.135999 1.4 -3.6 5000004.07997
10.135999 1.3666666666666667 -3.6 5000004.07997
10.135999 1.3333333333333333 -3.6 5000004.07997
10.137372 1.3 -3.6 5000004.12116
10.137372 1.2666666666666666 -3.6 5000004.12116
10.137372 1.2333333333333334 -3.6 5000004.12116
10.143153666666667 -0.06666666666666667 -3.6 5000004.29461
10.143153666666667 -0.1 -3.6 5000004.29461
10.138773333333333 -0.9 -3.6 5000004.1632
10.137372 -0.9333333333333333 -3.6 5000004.12116
10.137372 -0.9666666666666667 -3.6 5000004.12116
10.135999 1.3333333333333333 -3.6333333333333333 5000004.07997
10.135999 1.3 -3.6333333333333333 5000004.07997
10.135999 1.2666666666666666 -3.6333333333333333 5000004.07997
10.135999 1.2333333333333334 -3.6333333333333333 5000004.07997
10.135999 1.2 -3.6333333333333333 5000004.07997
10.137372 1.1 -3.6333333333333333 5000004.12116
10.147819666666667 1.0666666666666667 -3.6333333333333333 5000004.43459
10.140203333333334 -0.8 -3.6333333333333333 5000004.2061
10.138773333333333 -0.8333333333333334 -3.6333333333333333 5000004.1632
10.137372 -0.9333333333333333 -3.6333333333333333 5000004.12116
10.137372 -0.9666666666666667 -3.6333333333333333 5000004.12116
10.137372 -1.0 -3.6333333333333333 5000004.12116
10.137372 -1.0333333333333334 -3.6333333333333333 5000004.12116
10.141663 -1.2666666666666666 -3.6333333333333333 5000004.24989
10.141663 -1.3 -3.6333333333333333 5000004.24989
10.135999 1.2333333333333334 -3.6666666666666665 5000004.07997
10.135999 1.2 -3.6666666666666665 5000004.07997
10.135999 1.1666666666666667 -3.6666666666666665 5000004.07997
10.137372 1.1333333333333333 -3.6666666666666665 5000004.12116
10.146231 1.0666666666666667 -3.6666666666666665 5000004.38693
10.147819666666667 1.0333333333333334 -3.6666666666666665 5000004.43459
10.138773333333333 0.9666666666666667 -3.6666666666666665 5000004.1632
10.138773333333333 0.9333333333333333 -3.6666666666666665 5000004.1632
10.137372 0.9 -3.6666666666666665 5000004.12116
10.143153666666667 0.7333333333333333 -3.6666666666666665 5000004.29461
10.146231 -0.6 -3.6666666666666665 5000004.38693
10.146231 -0.6333333333333333 -3.6666666666666665 5000004.38693
10.137372 -0.7666666666666667 -3.6666666666666665 5000004.12116
10.138773333333333 -0.8666666666666667 -3.6666666666666665 5000004.1632
10.141663 -1.3666666666666667 -3.6666666666666665 5000004.24989
10.140203333333334 1.9333333333333333 -3.7 5000004.2061
10.135999 1.1666666666666667 -3.7 5000004.07997
10.137372 1.1333333333333333 -3.7 5000004.12116
10.137372 1.1 -3.7 5000004.12116
10.138773333333333 0.9333333333333333 -3.7 5000004.1632
10.137372 0.9 -3.7 5000004.12116
10.137372 0.8666666666666667 -3.7 5000004.12116
10.137372 0.8333333333333334 -3.7 5000004.12116
10.137372 0.8 -3.7 5000004.12116
10.146231 -0.6333333333333333 -3.7 5000004.38693
10.137372 -0.7333333333333333 -3.7 5000004.12116
10.137372 -0.7666666666666667 -3.7 5000004.12116
10.137372 -0.8 -3.7 5000004.12116
10.137372 -0.8333333333333334 -3.7 5000004.12116
10.141663 -1.2 -3.7 5000004.24989
10.147819666666667 -14.933333333333334 -3.7 5000004.43459
10.140203333333334 1.9333333333333333 -3.7333333333333334 5000004.2061
10.137372 -0.7333333333333333 -3.7333333333333334 5000004.12116
10.137372 -0.7666666666666667 -3.7333333333333334 5000004.12116
10.137372 -0.8 -3.7333333333333334 5000004.12116
10.137372 -0.8333333333333334 -3.7333333333333334 5000004.12116
10.141663 -1.1666666666666667 -3.7333333333333334 5000004.24989
10.1528 -0.5333333333333333 -3.7666666666666666 5000004.584
10.137372 -0.7666666666666667 -3.7666666666666666 5000004.12116
10.137372 -0.8 -3.7666666666666666 5000004.12116
10.141663 0.0 -3.8 5000004.24989
10.141663 -0.03333333333333333 -3.8 5000004.24989
10.147819666666667 -0.6333333333333333 -3.8 5000004.43459
10.135999 -0.8 -3.8 5000004.07997
10.135999 -0.8333333333333334 -3.8 5000004.07997
10.135999 -0.8666666666666667 -3.8 5000004.07997
10.134653 1.9666666666666666 -3.8333333333333335 5000004.03959
10.134653 0.5666666666666667 -3.8333333333333335 5000004.03959
10.147819666666667 -0.6333333333333333 -3.8333333333333335 5000004.43459
10.135999 -0.8333333333333334 -3.8333333333333335 5000004.07997
10.135999 -0.8666666666666667 -3.8333333333333335 5000004.07997
10.135999 -0.9 -3.8333333333333335 5000004.07997
10.135999 -0.9333333333333333 -3.8333333333333335 5000004.07997
10.146231 -12.833333333333334 -3.8333333333333335 5000004.38693
10.146231 -12.866666666666667 -3.8333333333333335 5000004.38693
10.146231 0.7 -3.8666666666666667 5000004.38693
10.134653 0.5333333333333333 -3.8666666666666667 5000004.03959
10.134653 0.5 -3.8666666666666667 5000004.03959
10.134653 0.4666666666666667 -3.8666666666666667 5000004.03959
10.135999 -0.5333333333333333 -3.8666666666666667 5000004.07997
10.143153666666667 -12.9 -3.8666666666666667 5000004.29461
10.143153666666667 -12.933333333333334 -3.8666666666666667 5000004.29461
10.143153666666667 -12.966666666666667 -3.8666666666666667 5000004.29461
10.141663 -13.0 -3.8666666666666667 5000004.24989
10.144676 -15.133333333333333 -3.8666666666666667 5000004.34028
10.144676 -15.166666666666666 -3.8666666666666667 5000004.34028
10.138773333333333 3.033333333333333 -3.9 5000004.1632
10.138773333333333 -0.2 -3.9 5000004.1632
10.138773333333333 -0.26666666666666666 -3.9 5000004.1632
10.134653 -0.3 -3.9 5000004.03959
10.141663 -0.43333333333333335 -3.9 5000004.24989
10.134653 0.9 -3.933333333333333 5000004.03959
10.134653 0.8666666666666667 -3.933333333333333 5000004.03959
10.138773333333333 -0.2 -3.933333333333333 5000004.1632
10.138773333333333 -0.23333333333333334 -3.933333333333333 5000004.1632
10.134653 -0.3333333333333333 -3.933333333333333 5000004.03959
10.134653 -0.36666666666666664 -3.933333333333333 5000004.03959
10.143153666666667 -11.133333333333333 -3.933333333333333 5000004.29461
10.134653 0.9 -3.966666666666667 5000004.03959
10.134653 0.8666666666666667 -3.966666666666667 5000004.03959
10.135999 0.7333333333333333 -3.966666666666667 5000004.07997
10.134653 0.6 -3.966666666666667 5000004.03959
10.146231 -0.03333333333333333 -3.966666666666667 5000004.38693
10.138773333333333 -0.23333333333333334 -3.966666666666667 5000004.1632
10.138773333333333 -0.26666666666666666 -3.966666666666667 5000004.1632
10.141663 -2.1666666666666665 -3.966666666666667 5000004.24989
10.141663 -2.2 -3.966666666666667 5000004.24989
10.141663 -2.2333333333333334 -3.966666666666667 5000004.24989
10.141663 -15.266666666666667 -3.966666666666667 5000004.24989
10.135999 0.8 -4.0 5000004.07997
10.134653 0.6 -4.0 5000004.03959
10.134653 0.5666666666666667 -4.0 5000004.03959
10.134653 0.5333333333333333 -4.0 5000004.03959
10.146231 0.06666666666666667 -4.0 5000004.38693
10.138773333333333 -0.2 -4.0 5000004.1632
10.138773333333333 -0.26666666666666666 -4.0 5000004.1632
10.134653 -0.3333333333333333 -4.0 5000004.03959
10.141663 -2.1666666666666665 -4.0 5000004.24989
10.141663 -2.2 -4.0 5000004.24989
10.141663 -2.2333333333333334 -4.0 5000004.24989
10.134653 1.6 -4.033333333333333 5000004.03959
10.134653 1.5666666666666667 -4.033333333333333 5000004.03959
10.134653 1.5333333333333334 -4.033333333333333 5000004.03959
10.135999 0.8 -4.033333333333333 5000004.07997
10.146231 0.03333333333333333 -4.033333333333333 5000004.38693
10.137372 -0.13333333333333333 -4.033333333333333 5000004.12116
10.137372 -0.2 -4.033333333333333 5000004.12116
10.141663 -2.1333333333333333 -4.033333333333333 5000004.24989
10.141663 -2.1666666666666665 -4.033333333333333 5000004.24989
10.141663 -2.2 -4.033333333333333 5000004.24989
10.146231 0.03333333333333333 -4.066666666666666 5000004.38693
10.137372 -0.13333333333333333 -4.066666666666666 5000004.12116
10.135999 0.7666666666666667 -4.1 5000004.07997
10.137372 -0.1 -4.1 5000004.12116
10.137372 -16.033333333333335 -4.133333333333334 5000004.12116
10.137372 -16.066666666666666 -4.133333333333334 5000004.12116
10.140203333333334 -0.13333333333333333 -4.166666666666667 5000004.2061
10.138773333333333 -12.166666666666666 -4.166666666666667 5000004.1632
10.137372 -12.2 -4.166666666666667 5000004.12116
10.137372 -12.2 -4.2 5000004.12116
10.137372 -12.233333333333333 -4.2 5000004.12116
10.135999 -12.266666666666667 -4.2 5000004.07997
10.135999 -12.3 -4.2 5000004.07997
10.135999 0.9333333333333333 -4.233333333333333 5000004.07997
10.134653 -0.03333333333333333 -4.266666666666667 5000004.03959
10.146231 -0.16666666666666666 -4.266666666666667 5000004.38693
10.146231 -0.2 -4.266666666666667 5000004.38693
10.134653 3.1 -4.3 5000004.03959
10.147819666666667 1.3 -4.333333333333333 5000004.43459
10.134653 1.1333333333333333 -4.333333333333333 5000004.03959
10.134653 1.1 -4.333333333333333 5000004.03959
10.134653 -15.7 -4.333333333333333 5000004.03959
10.134653 1.1 -4.366666666666666 5000004.03959
10.134653 1.0666666666666667 -4.366666666666666 5000004.03959
10.137372 -0.23333333333333334 -4.366666666666666 5000004.12116
10.137372 -0.26666666666666666 -4.366666666666666 5000004.12116
10.134653 1.0666666666666667 -4.4 5000004.03959
10.134653 0.03333333333333333 -4.4 5000004.03959
10.134653 0.0 -4.4 5000004.03959
10.134653 -0.03333333333333333 -4.4 5000004.03959
10.138773333333333 -2.533333333333333 -4.4 5000004.1632
10.138773333333333 -2.566666666666667 -4.4 5000004.1632
10.134653 2.4 -4.433333333333334 5000004.03959
10.134653 2.033333333333333 -4.433333333333334 5000004.03959
10.134653 0.0 -4.433333333333334 5000004.03959
10.134653 -0.03333333333333333 -4.433333333333334 5000004.03959
10.134653 -0.4 -4.433333333333334 5000004.03959
10.134653 -3.466666666666667 -4.433333333333334 5000004.03959
10.134653 -2.466666666666667 -4.466666666666667 5000004.03959
10.134653 -2.5 -4.466666666666667 5000004.03959
10.134653 -3.466666666666667 -4.466666666666667 5000004.03959
10.134653 -2.5 -4.5 5000004.03959
10.134653 -2.533333333333333 -4.5 5000004.03959
10.138773333333333 -2.6666666666666665 -4.5 5000004.1632
10.134653 -2.466666666666667 -4.533333333333333 5000004.03959
10.134653 -2.566666666666667 -4.533333333333333 5000004.03959
10.134653 -2.5 -4.566666666666666 5000004.03959
10.134653 0.3 -5.233333333333333 5000004.03959
653 -5.833333333333333 -4.5 5000004.03959
10.134653 -5.866666666666666 -4.5 5000004.03959
10.138773333333333 -6.0 -4.5 5000004.1632
10.134653 -5.8 -4.533333333333333 5000004.03959
10.134653 -5.9 -4.533333333333333 5000004.03959
10.134653 -5.833333333333333 -4.566666666666666 5000004.03959
10.134653 -3.033333333333333 -5.233333333333333 5000004.03959
33333333333333 -4.533333333333333 5000004.03959
3.4679863333333336 2.5 -4.566666666666666 5000004.03959
3.4679863333333336 5.3 -5.233333333333333 5000004.03959
00004.12116
4.141663 2.033333333333333 -4.033333333333333 5000004.24989
4.141663 2.0 -4.033333333333333 5000004.24989
4.141663 1.9666666666666668 -4.033333333333333 5000004.24989
4.146231 4.2 -4.066666666666666 5000004.38693
4.137372 4.033333333333333 -4.066666666666666 5000004.12116
4.135999 4.933333333333334 -4.1 5000004.07997
4.137372 4.066666666666666 -4.1 5000004.12116
4.137372 -11.866666666666667 -4.133333333333333 5000004.12116
4.137372 -11.899999999999999 -4.133333333333333 5000004.12116
4.140203333333333 4.033333333333333 -4.166666666666666 5000004.2061
4.138773333333333 -8.0 -4.166666666666666 5000004.1632
4.137372 -8.033333333333333 -4.166666666666666 5000004.12116
4.137372 -8.033333333333333 -4.199999999999999 5000004.12116
4.137372 -8.066666666666666 -4.199999999999999 5000004.12116
4.135999 -8.1 -4.199999999999999 5000004.07997
4.135999 -8.133333333333333 -4.199999999999999 5000004.07997
4.135999 5.1 -4.2333333333333325 5000004.07997
4.134653 4.133333333333333 -4.2666666666666675 5000004.03959
4.146231 4.0 -4.2666666666666675 5000004.38693
4.146231 3.966666666666667 -4.2666666666666675 5000004.38693
4.134653 7.266666666666667 -4.300000000000001 5000004.03959
4.147819666666667 5.466666666666667 -4.333333333333334 5000004.43459
4.134653 5.3 -4.333333333333334 5000004.03959
4.134653 5.266666666666667 -4.333333333333334 5000004.03959
4.134653 -11.533333333333335 -4.333333333333334 5000004.03959
4.134653 5.266666666666667 -4.366666666666667 5000004.03959
