VERSION .7
FIELDS x y z rgb
SIZE 4 4 4 4
TYPE F F F F
COUNT 1 1 1 1
WIDTH 1403
HEIGHT 1
VIEWPOINT 0 0 0 1 0 0 0
POINTS 1403
DATA ascii
22.97934 4.96 1.22 31.2989
38.9826 4.6 1.22 57.971
38.9826 3.88 1.22 57.971
38.9826 4.62 1.2 57.971
38.9826 4.6 1.2 57.971
44.74056 5.38 1.18 67.5676
38.9826 4.62 1.18 57.971
38.9826 4.6 1.18 57.971
44.74056 5.58 1.16 67.5676
44.74056 5.38 1.16 67.5676
31.28802 -3.2 1.16 45.1467
44.74056 5.58 1.14 67.5676
44.74056 5.38 1.14 67.5676
38.9826 4.62 1.14 57.971
31.28802 1.5 1.14 45.1467
44.74056 5.58 1.12 67.5676
44.74056 5.4 1.12 67.5676
38.9826 4.62 1.12 57.971
31.28802 1.52 1.12 45.1467
44.74056 5.4 1.1 67.5676
38.9826 4.64 1.1 57.971
26.38116 2.58 1.1 36.9686
31.28802 1.52 1.1 45.1467
44.74056 5.42 1.08 67.5676
26.38116 2.58 1.08 36.9686
44.74056 5.42 1.06 67.5676
21.64188 4.96 1.04 29.0698
22.97934 4.84 1.04 31.2989
38.9826 4.6 1.04 57.971
31.28802 1.54 1.04 45.1467
31.28802 1.52 1.04 45.1467
44.74056 5.42 1.02 67.5676
21.64188 4.96 1.02 29.0698
22.97934 4.84 1.02 31.2989
38.9826 4.6 1.02 57.971
38.9826 3.88 1.02 57.971
31.28802 1.54 1.02 45.1467
21.64188 4.96 1.0 29.0698
22.97934 4.84 1.0 31.2989
38.9826 4.6 1.0 57.971
38.9826 3.88 1.0 57.971
31.28802 2.62 1.0 45.1467
31.28802 1.56 1.0 45.1467
21.64188 4.96 0.98 29.0698
22.97934 4.84 0.98 31.2989
38.9826 4.6 0.98 57.971
38.9826 3.9 0.98 57.971
21.64188 4.96 0.96 29.0698
22.97934 4.84 0.96 31.2989
38.9826 4.6 0.96 57.971
21.64188 4.96 0.94 29.0698
21.64188 4.84 0.94 29.0698
38.9826 4.62 0.94 57.971
21.64188 4.96 0.92 29.0698
21.64188 4.84 0.92 29.0698
38.9826 4.62 0.92 57.971
21.64188 4.96 0.9 29.0698
21.64188 4.84 0.9 29.0698
28.590239999999998 0.14 0.9 40.6504
21.64188 4.96 0.88 29.0698
21.64188 4.84 0.88 29.0698
28.590239999999998 0.16 0.88 40.6504
21.64188 4.96 0.86 29.0698
21.64188 4.84 0.86 29.0698
21.64188 4.96 0.84 29.0698
21.64188 4.84 0.84 29.0698
31.28802 1.54 0.84 45.1467
21.64188 4.96 0.82 29.0698
21.64188 4.84 0.82 29.0698
38.9826 4.58 0.82 57.971
31.28802 1.54 0.82 45.1467
6.623754 5.9 0.8 4.03959
21.64188 4.96 0.8 29.0698
21.64188 4.84 0.8 29.0698
38.9826 4.58 0.8 57.971
19.467180000000003 2.68 0.8 25.4453
31.28802 1.56 0.8 45.1467
21.64188 4.96 0.78 29.0698
21.64188 4.84 0.78 29.0698
34.65684 3.84 0.78 50.7614
19.467180000000003 2.68 0.78 25.4453
19.467180000000003 2.66 0.78 25.4453
31.28802 1.58 0.78 45.1467
6.623754 5.88 0.76 4.03959
21.64188 4.96 0.76 29.0698
21.64188 4.84 0.76 29.0698
34.65684 3.84 0.76 50.7614
19.467180000000003 2.68 0.76 25.4453
21.64188 4.84 0.74 29.0698
44.74056 4.6 0.74 67.5676
34.65684 3.84 0.74 50.7614
19.467180000000003 2.68 0.74 25.4453
31.28802 1.62 0.74 45.1467
6.623754 5.86 0.72 4.03959
21.64188 4.96 0.72 29.0698
21.64188 4.84 0.72 29.0698
44.74056 4.6 0.72 67.5676
34.65684 3.84 0.72 50.7614
31.28802 1.64 0.72 45.1467
31.28802 1.62 0.72 45.1467
21.64188 4.96 0.7 29.0698
21.64188 4.84 0.7 29.0698
44.74056 4.62 0.7 67.5676
44.74056 4.6 0.7 67.5676
34.65684 3.84 0.7 50.7614
20.4822 2.56 0.7 27.137
20.4822 2.54 0.7 27.137
31.28802 1.64 0.7 45.1467
34.65684 1.34 0.7 50.7614
28.590239999999998 0.16 0.7 40.6504
21.64188 -4.0 0.7 29.0698
6.623754 5.84 0.68 4.03959
21.64188 4.96 0.68 29.0698
21.64188 4.84 0.68 29.0698
44.74056 4.62 0.68 67.5676
34.65684 3.84 0.68 50.7614
24.53898 2.72 0.68 33.8983
20.4822 2.56 0.68 27.137
20.4822 2.54 0.68 27.137
34.65684 1.64 0.68 50.7614
21.64188 4.96 0.66 29.0698
21.64188 4.84 0.66 29.0698
24.53898 2.72 0.66 33.8983
20.4822 2.56 0.66 27.137
26.38116 -3.18 0.66 36.9686
21.64188 4.96 0.64 29.0698
21.64188 4.84 0.64 29.0698
20.4822 2.56 0.64 27.137
28.590239999999998 0.18 0.64 40.6504
21.64188 4.96 0.62 29.0698
21.64188 4.84 0.62 29.0698
19.467180000000003 2.66 0.62 25.4453
28.590239999999998 0.18 0.62 40.6504
6.623754 5.82 0.6 4.03959
6.623754 5.8 0.6 4.03959
21.64188 4.96 0.6 29.0698
21.64188 4.84 0.6 29.0698
38.9826 4.62 0.6 57.971
20.4822 2.68 0.6 27.137
19.467180000000003 2.54 0.6 25.4453
6.623754 5.8 0.58 4.03959
21.64188 4.96 0.58 29.0698
21.64188 4.84 0.58 29.0698
38.9826 4.62 0.58 57.971
20.4822 2.68 0.58 27.137
19.467180000000003 2.52 0.58 25.4453
21.64188 4.96 0.56 29.0698
21.64188 4.84 0.56 29.0698
38.9826 4.62 0.56 57.971
20.4822 2.68 0.56 27.137
19.467180000000003 2.5 0.56 25.4453
28.590239999999998 0.14 0.56 40.6504
21.64188 4.96 0.54 29.0698
22.97934 4.84 0.54 31.2989
38.9826 4.64 0.54 57.971
19.467180000000003 2.68 0.54 25.4453
38.9826 2.18 0.54 57.971
28.590239999999998 0.14 0.54 40.6504
21.64188 4.96 0.52 29.0698
22.97934 4.84 0.52 31.2989
19.467180000000003 2.68 0.52 25.4453
19.467180000000003 2.66 0.52 25.4453
44.74056 2.18 0.52 67.5676
6.623754 5.78 0.5 4.03959
21.64188 4.96 0.5 29.0698
22.97934 4.84 0.5 31.2989
19.467180000000003 2.68 0.5 25.4453
19.467180000000003 2.66 0.5 25.4453
20.4822 2.44 0.5 27.137
44.74056 2.18 0.5 67.5676
6.623754 5.78 0.48 4.03959
21.64188 4.96 0.48 29.0698
22.97934 4.84 0.48 31.2989
19.467180000000003 2.68 0.48 25.4453
19.467180000000003 2.66 0.48 25.4453
20.4822 2.44 0.48 27.137
44.74056 2.18 0.48 67.5676
21.64188 4.96 0.46 29.0698
22.97934 4.84 0.46 31.2989
19.467180000000003 2.68 0.46 25.4453
20.4822 2.44 0.46 27.137
21.64188 4.96 0.44 29.0698
22.97934 4.84 0.44 31.2989
38.9826 4.62 0.44 57.971
20.4822 2.68 0.44 27.137
20.4822 2.44 0.44 27.137
6.623754 5.78 0.42 4.03959
21.64188 4.96 0.42 29.0698
22.97934 4.84 0.42 31.2989
20.4822 2.68 0.42 27.137
15.83916 2.6 0.42 19.3986
20.4822 2.44 0.42 27.137
38.9826 1.1 0.42 57.971
6.623754 5.78 0.4 4.03959
21.64188 4.96 0.4 29.0698
22.97934 4.84 0.4 31.2989
34.65684 2.98 0.4 50.7614
20.4822 2.68 0.4 27.137
15.83916 2.6 0.4 19.3986
15.83916 2.56 0.4 19.3986
20.4822 2.44 0.4 27.137
28.590239999999998 0.16 0.4 40.6504
21.64188 4.96 0.38 29.0698
22.97934 4.84 0.38 31.2989
20.4822 2.68 0.38 27.137
20.4822 2.66 0.38 27.137
20.4822 2.44 0.38 27.137
38.9826 2.18 0.38 57.971
38.9826 1.1 0.38 57.971
28.590239999999998 0.16 0.38 40.6504
21.64188 4.96 0.36 29.0698
22.97934 4.84 0.36 31.2989
21.64188 4.96 0.34 29.0698
22.97934 4.84 0.34 31.2989
38.9826 2.18 0.34 57.971
31.28802 1.62 0.34 45.1467
28.590239999999998 0.18 0.34 40.6504
21.64188 4.96 0.32 29.0698
21.64188 4.84 0.32 29.0698
21.64188 4.96 0.3 29.0698
21.64188 4.84 0.3 29.0698
31.28802 2.62 0.3 45.1467
21.64188 4.96 0.28 29.0698
21.64188 4.84 0.28 29.0698
38.9826 3.82 0.28 57.971
38.9826 3.8 0.28 57.971
31.28802 2.62 0.28 45.1467
34.65684 1.62 0.28 50.7614
21.64188 4.96 0.26 29.0698
21.64188 4.84 0.26 29.0698
38.9826 3.82 0.26 57.971
38.9826 3.8 0.26 57.971
34.65684 1.64 0.26 50.7614
34.65684 1.62 0.26 50.7614
34.65684 1.1 0.26 50.7614
21.64188 5.08 0.24 29.0698
21.64188 4.84 0.24 29.0698
38.9826 3.82 0.24 57.971
31.28802 2.64 0.24 45.1467
34.65684 1.64 0.24 50.7614
34.65684 1.1 0.24 50.7614
26.38116 0.3 0.24 36.9686
21.64188 5.08 0.22 29.0698
21.64188 4.84 0.22 29.0698
38.9826 4.16 0.22 57.971
38.9826 3.86 0.22 57.971
38.9826 3.84 0.22 57.971
26.38116 0.32 0.22 36.9686
34.65684 -3.22 0.22 50.7614
21.64188 5.08 0.2 29.0698
21.64188 4.84 0.2 29.0698
34.65684 2.74 0.2 50.7614
28.590239999999998 0.32 0.2 40.6504
34.65684 -3.22 0.2 50.7614
21.64188 5.1 0.18 29.0698
21.64188 5.08 0.18 29.0698
21.64188 4.84 0.18 29.0698
34.65684 2.74 0.18 50.7614
31.28802 1.74 0.18 45.1467
31.28802 1.72 0.18 45.1467
28.590239999999998 0.34 0.18 40.6504
28.590239999999998 0.32 0.18 40.6504
44.74056 -2.26 0.18 67.5676
44.74056 -2.28 0.18 67.5676
21.64188 4.84 0.16 29.0698
34.65684 3.8 0.16 50.7614
34.65684 2.76 0.16 50.7614
34.65684 2.74 0.16 50.7614
38.9826 2.18 0.16 57.971
31.28802 1.74 0.16 45.1467
31.28802 1.72 0.16 45.1467
34.65684 1.1 0.16 50.7614
28.590239999999998 0.34 0.16 40.6504
21.64188 4.84 0.14 29.0698
34.65684 2.76 0.14 50.7614
31.28802 1.8 0.14 45.1467
34.65684 1.1 0.14 50.7614
38.9826 3.88 0.12 57.971
34.65684 2.76 0.12 50.7614
38.9826 1.34 0.12 57.971
34.65684 1.1 0.12 50.7614
34.65684 2.76 0.1 50.7614
38.9826 1.34 0.1 57.971
34.65684 1.1 0.1 50.7614
21.64188 5.08 0.08 29.0698
44.74056 3.12 0.08 67.5676
34.65684 2.76 0.08 50.7614
34.65684 1.34 0.08 50.7614
34.65684 1.1 0.08 50.7614
21.64188 4.84 0.06 29.0698
38.9826 3.94 0.06 57.971
44.74056 3.42 0.06 67.5676
34.65684 2.76 0.06 50.7614
34.65684 1.34 0.06 50.7614
34.65684 1.1 0.06 50.7614
6.672695999999999 5.94 0.04 4.12116
6.672695999999999 5.92 0.04 4.12116
21.64188 5.08 0.04 29.0698
34.65684 2.74 0.04 50.7614
38.9826 2.18 0.04 57.971
34.65684 1.34 0.04 50.7614
34.65684 1.1 0.04 50.7614
38.9826 3.94 0.02 57.971
34.65684 2.74 0.02 50.7614
38.9826 2.18 0.02 57.971
38.9826 1.92 0.02 57.971
38.9826 1.34 0.02 57.971
34.65684 1.1 0.02 50.7614
38.9826 3.94 0.0 57.971
34.65684 2.74 0.0 50.7614
38.9826 2.18 0.0 57.971
38.9826 1.92 0.0 57.971
38.9826 1.64 0.0 57.971
38.9826 1.34 0.0 57.971
34.65684 1.1 0.0 50.7614
34.65684 2.76 -0.02 50.7614
34.65684 2.74 -0.02 50.7614
38.9826 2.18 -0.02 57.971
38.9826 1.64 -0.02 57.971
38.9826 1.34 -0.02 57.971
34.65684 1.1 -0.02 50.7614
21.64188 5.08 -0.04 29.0698
21.64188 4.84 -0.04 29.0698
34.65684 2.76 -0.04 50.7614
34.65684 2.74 -0.04 50.7614
38.9826 2.18 -0.04 57.971
38.9826 1.34 -0.04 57.971
21.64188 5.08 -0.06 29.0698
21.64188 4.84 -0.06 29.0698
38.9826 2.18 -0.06 57.971
38.9826 1.34 -0.06 57.971
21.64188 5.08 -0.08 29.0698
21.64188 4.84 -0.08 29.0698
44.74056 3.9 -0.08 67.5676
34.65684 2.74 -0.08 50.7614
38.9826 1.34 -0.08 57.971
21.64188 5.08 -0.1 29.0698
21.64188 4.84 -0.1 29.0698
44.74056 3.9 -0.1 67.5676
34.65684 2.74 -0.1 50.7614
38.9826 2.18 -0.1 57.971
38.9826 1.34 -0.1 57.971
21.64188 4.84 -0.12 29.0698
31.28802 2.74 -0.12 45.1467
38.9826 2.18 -0.12 57.971
38.9826 1.34 -0.12 57.971
22.97934 4.96 -0.14 31.2989
21.64188 4.84 -0.14 29.0698
38.9826 3.9 -0.14 57.971
31.28802 2.74 -0.14 45.1467
38.9826 2.18 -0.14 57.971
38.9826 1.64 -0.14 57.971
38.9826 1.34 -0.14 57.971
21.64188 4.84 -0.16 29.0698
38.9826 3.9 -0.16 57.971
31.28802 2.74 -0.16 45.1467
38.9826 2.18 -0.16 57.971
38.9826 1.64 -0.16 57.971
64.806 5.46 -0.18 101.01
64.806 5.44 -0.18 101.01
64.806 5.38 -0.18 101.01
52.78302 5.34 -0.18 80.9717
52.78302 5.32 -0.18 80.9717
38.9826 3.9 -0.18 57.971
31.28802 2.74 -0.18 45.1467
38.9826 2.18 -0.18 57.971
64.806 5.46 -0.2 101.01
52.78302 5.34 -0.2 80.9717
52.78302 5.32 -0.2 80.9717
38.9826 3.9 -0.2 57.971
31.28802 2.74 -0.2 45.1467
38.9826 2.18 -0.2 57.971
64.806 5.46 -0.22 101.01
20.4822 2.44 -0.22 27.137
31.28802 1.72 -0.22 45.1467
38.9826 3.9 -0.24 57.971
20.4822 2.44 -0.24 27.137
31.28802 1.72 -0.24 45.1467
21.64188 4.84 -0.26 29.0698
38.9826 3.9 -0.26 57.971
31.28802 1.72 -0.26 45.1467
22.97934 -6.36 -0.26 31.2989
21.64188 4.96 -0.28 29.0698
21.64188 4.84 -0.28 29.0698
38.9826 3.9 -0.28 57.971
34.65684 2.74 -0.28 50.7614
31.28802 1.72 -0.28 45.1467
21.64188 4.96 -0.3 29.0698
21.64188 4.84 -0.3 29.0698
38.9826 3.9 -0.3 57.971
34.65684 2.74 -0.3 50.7614
38.9826 1.92 -0.3 57.971
31.28802 1.72 -0.3 45.1467
22.97934 -6.36 -0.3 31.2989
21.64188 4.96 -0.32 29.0698
21.64188 4.84 -0.32 29.0698
34.65684 2.74 -0.32 50.7614
21.64188 4.96 -0.34 29.0698
21.64188 4.84 -0.34 29.0698
34.65684 2.74 -0.34 50.7614
38.9826 2.18 -0.34 57.971
31.28802 1.72 -0.34 45.1467
21.64188 4.96 -0.36 29.0698
21.64188 4.84 -0.36 29.0698
34.65684 2.74 -0.36 50.7614
28.590239999999998 1.7 -0.36 40.6504
21.64188 4.96 -0.38 29.0698
21.64188 4.84 -0.38 29.0698
34.65684 2.74 -0.38 50.7614
28.590239999999998 1.7 -0.38 40.6504
21.64188 4.96 -0.4 29.0698
21.64188 4.84 -0.4 29.0698
34.65684 2.74 -0.4 50.7614
38.9826 5.62 -0.42 57.971
21.64188 4.96 -0.42 29.0698
21.64188 4.84 -0.42 29.0698
38.9826 5.62 -0.44 57.971
44.74056 5.3 -0.44 67.5676
21.64188 4.96 -0.44 29.0698
21.64188 4.84 -0.44 29.0698
21.64188 4.96 -0.46 29.0698
21.64188 4.84 -0.46 29.0698
24.53898 -6.36 -0.46 33.8983
21.64188 4.96 -0.48 29.0698
21.64188 4.84 -0.48 29.0698
21.64188 4.96 -0.5 29.0698
31.28802 3.08 -0.5 45.1467
38.9826 5.38 -0.52 57.971
31.28802 2.24 -0.52 45.1467
24.53898 -6.36 -0.52 33.8983
24.53898 -6.38 -0.52 33.8983
38.9826 5.38 -0.54 57.971
34.65684 4.78 -0.54 50.7614
38.9826 4.58 -0.54 57.971
34.65684 4.3 -0.54 50.7614
19.467180000000003 2.5 -0.54 25.4453
38.9826 5.88 -0.56 57.971
34.65684 4.78 -0.56 50.7614
34.65684 4.34 -0.56 50.7614
34.65684 4.32 -0.56 50.7614
19.467180000000003 2.5 -0.56 25.4453
24.53898 -6.36 -0.56 33.8983
24.53898 -6.38 -0.56 33.8983
38.9826 5.88 -0.58 57.971
38.9826 5.7 -0.58 57.971
38.9826 5.66 -0.58 57.971
38.9826 5.14 -0.58 57.971
19.467180000000003 2.5 -0.58 25.4453
38.9826 5.88 -0.6 57.971
38.9826 5.66 -0.6 57.971
38.9826 5.12 -0.6 57.971
21.64188 4.84 -0.6 29.0698
19.467180000000003 2.5 -0.6 25.4453
38.9826 5.86 -0.62 57.971
38.9826 5.7 -0.62 57.971
38.9826 5.14 -0.62 57.971
38.9826 5.12 -0.62 57.971
19.467180000000003 2.5 -0.62 25.4453
34.65684 4.12 -0.64 50.7614
34.65684 3.82 -0.64 50.7614
31.28802 3.38 -0.64 45.1467
19.467180000000003 2.5 -0.64 25.4453
28.590239999999998 2.32 -0.64 40.6504
34.65684 5.08 -0.66 50.7614
34.65684 4.12 -0.66 50.7614
34.65684 4.1 -0.66 50.7614
31.28802 3.4 -0.66 45.1467
19.467180000000003 2.52 -0.66 25.4453
28.590239999999998 2.32 -0.66 40.6504
38.9826 5.3 -0.68 57.971
34.65684 5.08 -0.68 50.7614
34.65684 3.5 -0.68 50.7614
31.28802 3.4 -0.68 45.1467
38.9826 5.3 -0.7 57.971
38.9826 5.26 -0.7 57.971
34.65684 5.08 -0.7 50.7614
34.65684 3.5 -0.7 50.7614
38.9826 5.26 -0.72 57.971
34.65684 5.08 -0.72 50.7614
31.28802 2.68 -0.72 45.1467
18.57126 -6.32 -0.72 23.9521
21.64188 4.96 -0.74 29.0698
21.64188 4.84 -0.74 29.0698
19.467180000000003 2.5 -0.74 25.4453
19.467180000000003 2.48 -0.74 25.4453
28.590239999999998 1.8 -0.74 40.6504
28.590239999999998 1.78 -0.74 40.6504
21.64188 4.96 -0.76 29.0698
21.64188 4.84 -0.76 29.0698
34.65684 4.0 -0.76 50.7614
34.65684 3.98 -0.76 50.7614
19.467180000000003 2.5 -0.76 25.4453
19.467180000000003 2.48 -0.76 25.4453
19.467180000000003 2.4 -0.76 25.4453
21.64188 4.96 -0.78 29.0698
21.64188 4.84 -0.78 29.0698
34.65684 4.0 -0.78 50.7614
34.65684 3.98 -0.78 50.7614
31.28802 3.68 -0.78 45.1467
19.467180000000003 2.5 -0.78 25.4453
19.467180000000003 2.48 -0.78 25.4453
28.590239999999998 1.7 -0.78 40.6504
34.65684 4.0 -0.8 50.7614
31.28802 3.68 -0.8 45.1467
31.28802 3.0 -0.8 45.1467
31.28802 2.6 -0.8 45.1467
19.467180000000003 2.5 -0.8 25.4453
28.590239999999998 1.72 -0.8 40.6504
34.65684 4.0 -0.82 50.7614
31.28802 3.68 -0.82 45.1467
34.65684 3.62 -0.82 50.7614
31.28802 2.62 -0.82 45.1467
31.28802 3.68 -0.84 45.1467
34.65684 3.62 -0.84 50.7614
31.28802 2.62 -0.84 45.1467
28.590239999999998 2.14 -0.84 40.6504
31.28802 2.62 -0.86 45.1467
20.4822 2.4 -0.86 27.137
28.590239999999998 2.14 -0.86 40.6504
28.590239999999998 2.04 -0.86 40.6504
28.590239999999998 1.68 -0.86 40.6504
28.590239999999998 1.18 -0.86 40.6504
28.590239999999998 2.62 -0.88 40.6504
20.4822 2.4 -0.88 27.137
28.590239999999998 2.14 -0.88 40.6504
28.590239999999998 1.68 -0.88 40.6504
28.590239999999998 1.18 -0.88 40.6504
26.38116 0.86 -0.88 36.9686
28.590239999999998 2.62 -0.9 40.6504
28.590239999999998 2.6 -0.9 40.6504
26.38116 2.46 -0.9 36.9686
20.4822 2.4 -0.9 27.137
28.590239999999998 2.14 -0.9 40.6504
28.590239999999998 1.7 -0.9 40.6504
26.38116 1.2 -0.9 36.9686
26.38116 0.86 -0.9 36.9686
28.590239999999998 2.14 -0.92 40.6504
28.590239999999998 1.7 -0.92 40.6504
26.38116 1.2 -0.92 36.9686
26.38116 0.68 -0.92 36.9686
28.590239999999998 2.14 -0.94 40.6504
28.590239999999998 2.12 -0.94 40.6504
28.590239999999998 1.7 -0.94 40.6504
26.38116 1.2 -0.94 36.9686
26.38116 1.2 -0.96 36.9686
26.38116 0.72 -0.98 36.9686
19.467180000000003 -5.96 -1.0 25.4453
19.467180000000003 -6.74 -1.18 25.4453
19.467180000000003 -4.86 -1.2 25.4453
19.467180000000003 -6.34 -1.2 25.4453
19.467180000000003 -6.72 -1.2 25.4453
18.57126 2.18 -1.22 23.9521
19.467180000000003 -6.34 -1.22 25.4453
19.467180000000003 -6.46 -1.22 25.4453
19.467180000000003 -6.72 -1.22 25.4453
19.467180000000003 -6.74 -1.22 25.4453
12.08952 1.52 -1.78 13.1492
12.08952 1.52 -1.8 13.1492
12.08952 3.5 -1.82 13.1492
11.843340000000001 1.54 -1.82 12.7389
11.843340000000001 1.52 -1.82 12.7389
11.61198 -5.66 -1.82 12.3533
11.843340000000001 1.54 -1.84 12.7389
11.394240000000002 -5.14 -1.84 11.9904
11.394240000000002 -5.16 -1.84 11.9904
11.843340000000001 -5.84 -1.84 12.7389
11.843340000000001 -5.86 -1.84 12.7389
11.61198 -5.88 -1.84 12.3533
11.61198 -5.9 -1.84 12.3533
11.61198 -5.92 -1.84 12.3533
11.394240000000002 -5.94 -1.84 11.9904
11.843340000000001 1.54 -1.86 12.7389
11.843340000000001 1.52 -1.86 12.7389
10.995 1.44 -1.98 11.325
10.811580000000001 1.6 -2.02 11.0193
10.811580000000001 1.58 -2.02 11.0193
10.811580000000001 1.6 -2.04 11.0193
10.811580000000001 1.6 -2.06 11.0193
10.637759999999998 1.62 -2.08 10.7296
10.637759999999998 1.62 -2.1 10.7296
9.760704 1.72 -2.3 9.26784
9.760704 1.74 -2.32 9.26784
9.760704 1.72 -2.32 9.26784
9.760704 1.74 -2.34 9.26784
9.760704 1.74 -2.36 9.26784
9.297708 1.8 -2.44 8.49618
9.297708 1.8 -2.46 8.49618
9.297708 1.8 -2.48 8.49618
9.297708 1.78 -2.48 8.49618
9.297708 1.76 -2.48 8.49618
9.093966 1.74 -2.48 8.15661
8.817162000000001 1.92 -2.74 7.69527
8.817162000000001 1.9 -2.74 7.69527
8.731722000000001 1.76 -2.74 7.55287
8.731722000000001 1.74 -2.74 7.55287
8.569992 2.0 -2.78 7.28332
8.569992 1.98 -2.78 7.28332
8.569992 2.0 -2.8 7.28332
8.569992 2.02 -2.82 7.28332
8.419410000000001 2.04 -2.84 7.03235
8.419410000000001 2.02 -2.84 7.03235
8.419410000000001 2.04 -2.86 7.03235
8.419410000000001 2.06 -2.88 7.03235
8.419410000000001 2.04 -2.88 7.03235
8.347944 2.06 -2.9 6.91324
8.347944 2.08 -2.92 6.91324
8.347944 2.1 -2.94 6.91324
8.212038 2.1 -2.96 6.68673
8.212038 2.12 -2.98 6.68673
8.212038 2.14 -3.0 6.68673
8.147369999999999 1.88 -3.04 6.57895
8.147369999999999 4.06 -3.06 6.57895
8.147369999999999 4.04 -3.06 6.57895
8.147369999999999 4.0 -3.06 6.57895
8.147369999999999 3.98 -3.06 6.57895
8.084754 2.2 -3.08 6.47459
8.084754 2.18 -3.08 6.47459
8.147369999999999 2.02 -3.08 6.57895
8.147369999999999 2.0 -3.08 6.57895
8.084754 1.98 -3.08 6.47459
8.147369999999999 4.1 -3.1 6.57895
8.147369999999999 4.08 -3.1 6.57895
8.147369999999999 4.06 -3.1 6.57895
8.084754 2.2 -3.1 6.47459
8.084754 2.18 -3.1 6.47459
8.084754 2.16 -3.1 6.47459
8.084754 2.14 -3.1 6.47459
8.147369999999999 2.12 -3.1 6.57895
8.147369999999999 2.1 -3.1 6.57895
8.147369999999999 2.08 -3.1 6.57895
8.147369999999999 2.06 -3.1 6.57895
8.147369999999999 2.04 -3.1 6.57895
8.147369999999999 2.02 -3.1 6.57895
8.147369999999999 2.0 -3.1 6.57895
8.084754 1.98 -3.1 6.47459
8.084754 1.96 -3.1 6.47459
8.084754 1.94 -3.1 6.47459
8.024094 2.26 -3.12 6.37349
8.084754 2.18 -3.12 6.47459
8.024094 2.28 -3.14 6.37349
8.024094 -6.68 -3.14 6.37349
7.965294 -6.72 -3.14 6.27549
7.965294 -6.74 -3.14 6.27549
8.024094 2.28 -3.16 6.37349
7.908282 -6.74 -3.18 6.18047
8.024094 -6.74 -3.2 6.37349
7.696506 3.08 -3.32 5.82751
7.696506 3.06 -3.32 5.82751
7.696506 3.04 -3.32 5.82751
7.696506 3.08 -3.34 5.82751
7.696506 3.06 -3.34 5.82751
7.696506 3.04 -3.34 5.82751
7.696506 3.02 -3.34 5.82751
7.696506 5.14 -3.36 5.82751
7.696506 2.88 -3.46 5.82751
7.507607999999999 2.84 -3.48 5.51268
7.507607999999999 2.82 -3.48 5.51268
7.507607999999999 3.0 -3.5 5.51268
7.507607999999999 3.0 -3.52 5.51268
7.507607999999999 2.98 -3.52 5.51268
7.463532 2.94 -3.52 5.43922
7.463532 2.88 -3.52 5.43922
7.463532 2.86 -3.52 5.43922
7.463532 2.84 -3.52 5.43922
7.507607999999999 2.98 -3.54 5.51268
7.507607999999999 2.96 -3.54 5.51268
7.463532 2.94 -3.54 5.43922
7.463532 2.9 -3.54 5.43922
7.463532 2.88 -3.54 5.43922
7.463532 2.86 -3.54 5.43922
7.507607999999999 2.96 -3.56 5.51268
7.463532 4.46 -3.58 5.43922
7.463532 4.44 -3.58 5.43922
7.463532 2.48 -3.58 5.43922
7.599432 2.34 -3.58 5.66572
7.599432 2.32 -3.58 5.66572
7.599432 2.3 -3.58 5.66572
7.507607999999999 2.28 -3.58 5.51268
7.463532 2.26 -3.58 5.43922
7.420614 2.24 -3.58 5.36769
7.420614 2.22 -3.58 5.36769
7.420614 2.2 -3.58 5.36769
7.463532 2.52 -3.6 5.43922
7.463532 2.5 -3.6 5.43922
7.463532 2.48 -3.6 5.43922
7.463532 2.46 -3.6 5.43922
7.463532 2.44 -3.6 5.43922
7.463532 2.42 -3.6 5.43922
7.463532 2.4 -3.6 5.43922
7.463532 2.38 -3.6 5.43922
7.599432 2.3 -3.6 5.66572
7.507607999999999 2.28 -3.6 5.51268
7.463532 2.26 -3.6 5.43922
7.420614 2.24 -3.6 5.36769
7.420614 2.22 -3.6 5.36769
7.420614 2.2 -3.6 5.36769
7.378806 2.56 -3.64 5.29801
7.338077999999999 2.56 -3.66 5.23013
7.338077999999999 2.58 -3.68 5.23013
7.338077999999999 2.6 -3.7 5.23013
7.338077999999999 2.58 -3.7 5.23013
7.298376 2.6 -3.72 5.16396
7.507607999999999 5.04 -3.74 5.51268
7.298376 5.0 -3.74 5.16396
7.298376 2.62 -3.74 5.16396
7.259664000000001 5.54 -3.76 5.09944
7.507607999999999 5.5 -3.76 5.51268
7.259664000000001 4.98 -3.76 5.09944
7.259664000000001 4.96 -3.76 5.09944
7.259664000000001 4.94 -3.76 5.09944
7.298376 2.64 -3.76 5.16396
7.298376 2.62 -3.76 5.16396
7.221906000000001 5.58 -3.78 5.03651
7.221906000000001 5.56 -3.78 5.03651
7.507607999999999 5.5 -3.78 5.51268
7.185072 5.12 -3.78 4.97512
7.259664000000001 4.96 -3.78 5.09944
7.259664000000001 2.64 -3.78 5.09944
7.221906000000001 5.58 -3.8 5.03651
7.221906000000001 5.56 -3.8 5.03651
7.378806 5.48 -3.8 5.29801
7.185072 5.12 -3.8 4.97512
7.221906000000001 2.66 -3.8 5.03651
7.221906000000001 5.56 -3.82 5.03651
7.185072 5.12 -3.82 4.97512
7.185072 5.1 -3.82 4.97512
7.185072 5.08 -3.82 4.97512
7.221906000000001 2.68 -3.82 5.03651
7.298376 5.7 -3.84 5.16396
7.185072 5.1 -3.84 4.97512
7.185072 2.7 -3.84 4.97512
7.185072 2.68 -3.84 4.97512
7.338077999999999 5.76 -3.86 5.23013
7.185072 2.7 -3.86 4.97512
7.298376 5.74 -3.88 5.16396
7.149126 2.72 -3.88 4.91521
7.149126 2.7 -3.88 4.91521
7.149126 2.74 -3.9 4.91521
7.149126 2.72 -3.9 4.91521
7.114037999999999 2.74 -3.92 4.85673
7.079772 2.78 -3.96 4.79962
7.079772 2.76 -3.96 4.79962
7.046298 2.78 -3.98 4.74383
7.079772 2.42 -3.98 4.79962
7.046298 2.8 -4.0 4.74383
7.046298 3.96 -4.02 4.74383
7.046298 3.94 -4.02 4.74383
7.046298 2.82 -4.02 4.74383
6.981642 2.84 -4.06 4.63607
6.981642 2.86 -4.08 4.63607
7.013598 -5.0 -4.08 4.68933
6.88998 4.14 -4.1 4.4833
6.981642 2.88 -4.1 4.63607
6.981642 2.86 -4.1 4.63607
7.013598 -4.78 -4.1 4.68933
7.013598 -4.8 -4.1 4.68933
7.013598 -4.82 -4.1 4.68933
7.013598 -4.84 -4.1 4.68933
7.013598 -4.86 -4.1 4.68933
7.013598 -4.88 -4.1 4.68933
7.013598 -4.9 -4.1 4.68933
7.013598 -4.92 -4.1 4.68933
7.013598 -4.94 -4.1 4.68933
7.013598 -4.96 -4.1 4.68933
7.013598 -4.98 -4.1 4.68933
7.013598 -5.0 -4.1 4.68933
7.013598 -5.02 -4.1 4.68933
7.013598 -5.04 -4.1 4.68933
7.013598 -5.06 -4.1 4.68933
6.981642 -5.08 -4.1 4.63607
6.981642 -5.1 -4.1 4.63607
6.981642 -5.12 -4.1 4.63607
6.9504 -5.14 -4.1 4.584
6.9504 2.88 -4.12 4.584
6.9504 2.9 -4.14 4.584
6.981642 5.76 -4.16 4.63607
6.72366 4.14 -4.16 4.2061
6.9504 2.92 -4.16 4.584
6.832158 4.66 -4.18 4.38693
6.72366 4.14 -4.18 4.2061
6.832158 4.7 -4.2 4.38693
6.776765999999999 4.54 -4.2 4.29461
6.776765999999999 4.52 -4.2 4.29461
6.804168 4.48 -4.2 4.34028
6.72366 4.12 -4.2 4.2061
6.72366 4.12 -4.22 4.2061
6.72366 4.1 -4.22 4.2061
6.919854 -1.78 -4.22 4.53309
6.919854 -1.8 -4.22 4.53309
6.9504 5.0 -4.24 4.584
6.69792 4.42 -4.24 4.1632
6.72366 4.1 -4.24 4.2061
6.88998 2.98 -4.24 4.4833
6.88998 2.96 -4.24 4.4833
6.88998 2.94 -4.24 4.4833
7.013598 2.92 -4.24 4.68933
7.046298 2.9 -4.24 4.74383
7.046298 2.88 -4.24 4.74383
6.919854 2.68 -4.24 4.53309
6.919854 2.66 -4.24 4.53309
6.919854 2.64 -4.24 4.53309
6.919854 2.62 -4.24 4.53309
6.88998 2.6 -4.24 4.4833
6.7499340000000005 4.28 -4.26 4.24989
6.860754 2.98 -4.26 4.43459
6.860754 2.96 -4.26 4.43459
6.88998 2.94 -4.26 4.4833
6.88998 2.92 -4.26 4.4833
6.9504 2.86 -4.26 4.584
6.919854 2.84 -4.26 4.53309
6.919854 2.82 -4.26 4.53309
6.919854 2.8 -4.26 4.53309
6.919854 2.78 -4.26 4.53309
6.919854 2.76 -4.26 4.53309
6.88998 2.74 -4.26 4.4833
6.88998 2.72 -4.26 4.4833
6.919854 2.7 -4.26 4.53309
6.919854 2.68 -4.26 4.53309
6.919854 2.66 -4.26 4.53309
6.919854 2.64 -4.26 4.53309
6.919854 2.62 -4.26 4.53309
6.88998 2.6 -4.26 4.4833
6.647982 5.06 -4.28 4.07997
6.647982 5.04 -4.28 4.07997
6.804168 4.14 -4.28 4.34028
6.860754 2.98 -4.28 4.43459
6.860754 2.96 -4.28 4.43459
6.919854 2.78 -4.28 4.53309
6.919854 2.76 -4.28 4.53309
6.88998 2.74 -4.28 4.4833
6.919854 2.7 -4.28 4.53309
6.860754 -1.8 -4.28 4.43459
6.860754 -1.82 -4.28 4.43459
6.647982 5.04 -4.3 4.07997
6.623754 4.96 -4.3 4.03959
6.72366 4.22 -4.3 4.2061
6.72366 4.2 -4.3 4.2061
6.804168 4.12 -4.3 4.34028
6.804168 4.1 -4.3 4.34028
6.860754 2.96 -4.3 4.43459
6.860754 2.94 -4.3 4.43459
6.860754 2.92 -4.3 4.43459
6.623754 5.0 -4.32 4.03959
6.623754 4.98 -4.32 4.03959
6.804168 4.1 -4.32 4.34028
6.7499340000000005 4.08 -4.32 4.24989
6.776765999999999 -5.02 -4.32 4.29461
6.672695999999999 4.7 -4.34 4.12116
6.804168 4.14 -4.34 4.34028
6.672695999999999 4.04 -4.34 4.12116
6.832158 4.18 -4.36 4.38693
6.69792 4.06 -4.36 4.1632
6.672695999999999 4.04 -4.36 4.12116
6.647982 4.02 -4.36 4.07997
6.860754 3.38 -4.36 4.43459
6.860754 3.36 -4.36 4.43459
6.7499340000000005 3.3 -4.36 4.24989
6.7499340000000005 3.28 -4.36 4.24989
6.7499340000000005 3.26 -4.36 4.24989
6.88998 4.94 -4.38 4.4833
7.185072 4.36 -4.38 4.97512
6.672695999999999 4.18 -4.38 4.12116
6.776765999999999 4.12 -4.38 4.29461
6.69792 4.06 -4.38 4.1632
6.672695999999999 4.04 -4.38 4.12116
6.647982 4.02 -4.38 4.07997
6.647982 4.0 -4.38 4.07997
6.860754 3.38 -4.38 4.43459
6.860754 3.36 -4.38 4.43459
6.860754 3.34 -4.38 4.43459
6.7499340000000005 3.28 -4.38 4.24989
6.7499340000000005 3.26 -4.38 4.24989
6.88998 4.94 -4.4 4.4833
6.832158 4.18 -4.4 4.38693
6.647982 4.0 -4.4 4.07997
6.623754 3.98 -4.4 4.03959
6.7499340000000005 3.44 -4.4 4.24989
6.860754 3.38 -4.4 4.43459
6.7499340000000005 -4.44 -4.4 4.24989
6.7499340000000005 -4.46 -4.4 4.24989
6.7499340000000005 -4.48 -4.4 4.24989
6.623754 4.86 -4.42 4.03959
6.623754 4.84 -4.42 4.03959
6.672695999999999 4.22 -4.42 4.12116
6.72366 4.06 -4.42 4.2061
6.623754 3.96 -4.42 4.03959
6.7499340000000005 3.44 -4.42 4.24989
6.72366 3.42 -4.42 4.2061
6.7499340000000005 3.4 -4.42 4.24989
6.672695999999999 5.06 -4.44 4.12116
6.623754 4.88 -4.44 4.03959
6.672695999999999 4.36 -4.44 4.12116
6.623754 3.94 -4.44 4.03959
6.623754 3.46 -4.44 4.03959
6.7499340000000005 2.36 -4.44 4.24989
6.672695999999999 5.04 -4.46 4.12116
6.623754 4.88 -4.46 4.03959
6.88998 4.12 -4.46 4.4833
6.88998 4.1 -4.46 4.4833
6.72366 4.02 -4.46 4.2061
6.69792 4.0 -4.46 4.1632
6.623754 3.94 -4.46 4.03959
6.623754 3.92 -4.46 4.03959
6.623754 3.44 -4.46 4.03959
6.832158 4.3 -4.48 4.38693
6.88998 4.16 -4.48 4.4833
6.88998 4.12 -4.48 4.4833
6.88998 4.1 -4.48 4.4833
6.72366 4.0 -4.48 4.2061
6.69792 3.98 -4.48 4.1632
6.623754 3.92 -4.48 4.03959
6.623754 3.9 -4.48 4.03959
6.623754 3.44 -4.48 4.03959
6.623754 3.42 -4.48 4.03959
6.623754 3.4 -4.48 4.03959
6.647982 3.38 -4.48 4.07997
6.832158 4.52 -4.5 4.38693
6.88998 4.16 -4.5 4.4833
6.72366 4.0 -4.5 4.2061
6.69792 3.98 -4.5 4.1632
6.623754 3.42 -4.5 4.03959
6.647982 3.48 -4.54 4.07997
6.72366 4.0 -4.56 4.2061
6.647982 3.48 -4.56 4.07997
6.72366 4.0 -4.58 4.2061
6.647982 3.48 -4.58 4.07997
6.647982 -5.32 -4.58 4.07997
6.647982 -5.34 -4.58 4.07997
6.647982 -5.36 -4.58 4.07997
6.623754 -5.7 -4.58 4.03959
6.776765999999999 4.06 -4.6 4.29461
6.776765999999999 4.1 -4.62 4.29461
6.623754 3.94 -4.62 4.03959
6.623754 3.92 -4.62 4.03959
6.647982 3.36 -4.62 4.07997
6.623754 -5.4 -4.62 4.03959
6.69792 4.02 -4.64 4.1632
6.672695999999999 4.0 -4.64 4.12116
6.623754 3.92 -4.64 4.03959
6.623754 4.18 -4.66 4.03959
6.623754 4.16 -4.66 4.03959
6.623754 4.14 -4.66 4.03959
6.672695999999999 4.0 -4.66 4.12116
6.647982 3.36 -4.66 4.07997
6.623754 4.14 -4.68 4.03959
6.623754 3.36 -4.68 4.03959
6.623754 -1.68 -4.68 4.03959
6.647982 3.98 -4.7 4.07997
6.623754 3.36 -4.7 4.03959
6.623754 3.36 -4.72 4.03959
6.623754 4.72 -4.74 4.03959
6.623754 4.7 -4.74 4.03959
6.623754 4.68 -4.74 4.03959
6.623754 4.18 -4.74 4.03959
6.647982 4.02 -4.74 4.07997
6.623754 3.86 -4.74 4.03959
6.623754 3.36 -4.74 4.03959
6.623754 -1.7 -4.74 4.03959
6.623754 -1.72 -4.74 4.03959
6.623754 4.46 -4.82 4.03959
6.623754 4.44 -4.82 4.03959
6.623754 4.42 -4.82 4.03959
6.623754 -1.72 -4.9 4.03959
6.623754 4.84 -5.06 4.03959
6.623754 4.76 -5.1 4.03959
 -4.24 5000004.53309
6.919854 2.66 -4.24 5000004.53309
6.919854 2.64 -4.24 5000004.53309
6.919854 2.62 -4.24 5000004.53309
6.88998 2.6 -4.24 5000004.4833
6.7499340000000005 4.28 -4.26 5000004.24989
6.860754 2.98 -4.26 5000004.43459
6.860754 2.96 -4.26 5000004.43459
6.88998 2.94 -4.26 5000004.4833
6.88998 2.92 -4.26 5000004.4833
6.9504 2.86 -4.26 5000004.584
6.919854 2.84 -4.26 5000004.53309
6.919854 2.82 -4.26 5000004.53309
6.919854 2.8 -4.26 5000004.53309
6.919854 2.78 -4.26 5000004.53309
6.919854 2.76 -4.26 5000004.53309
6.88998 2.74 -4.26 5000004.4833
6.88998 2.72 -4.26 5000004.4833
6.919854 2.7 -4.26 5000004.53309
6.919854 2.68 -4.26 5000004.53309
6.919854 2.66 -4.26 5000004.53309
6.919854 2.64 -4.26 5000004.53309
6.919854 2.62 -4.26 5000004.53309
6.88998 2.6 -4.26 5000004.4833
6.647982 5.06 -4.28 5000004.07997
6.647982 5.04 -4.28 5000004.07997
6.804168 4.14 -4.28 5000004.34028
6.860754 2.98 -4.28 5000004.43459
6.860754 2.96 -4.28 5000004.43459
6.919854 2.78 -4.28 5000004.53309
6.919854 2.76 -4.28 5000004.53309
6.88998 2.74 -4.28 5000004.4833
6.919854 2.7 -4.28 5000004.53309
6.860754 -1.8 -4.28 5000004.43459
6.860754 -1.82 -4.28 5000004.43459
6.647982 5.04 -4.3 5000004.07997
6.623754 4.96 -4.3 5000004.03959
6.72366 4.22 -4.3 5000004.2061
6.72366 4.2 -4.3 5000004.2061
6.804168 4.12 -4.3 5000004.34028
6.804168 4.1 -4.3 5000004.34028
6.860754 2.96 -4.3 5000004.43459
6.860754 2.94 -4.3 5000004.43459
6.860754 2.92 -4.3 5000004.43459
6.623754 5.0 -4.32 5000004.03959
6.623754 4.98 -4.32 5000004.03959
6.804168 4.1 -4.32 5000004.34028
6.7499340000000005 4.08 -4.32 5000004.24989
6.776765999999999 -5.02 -4.32 5000004.29461
6.672695999999999 4.7 -4.34 5000004.12116
6.804168 4.14 -4.34 5000004.34028
6.672695999999999 4.04 -4.34 5000004.12116
6.832158 4.18 -4.36 5000004.38693
6.69792 4.06 -4.36 5000004.1632
6.672695999999999 4.04 -4.36 5000004.12116
6.647982 4.02 -4.36 5000004.07997
6.860754 3.38 -4.36 5000004.43459
6.860754 3.36 -4.36 5000004.43459
6.7499340000000005 3.3 -4.36 5000004.24989
6.7499340000000005 3.28 -4.36 5000004.24989
6.7499340000000005 3.26 -4.36 5000004.24989
6.88998 4.94 -4.38 5000004.4833
7.185072 4.36 -4.38 5000004.97512
6.672695999999999 4.18 -4.38 5000004.12116
6.776765999999999 4.12 -4.38 5000004.29461
6.69792 4.06 -4.38 5000004.1632
6.672695999999999 4.04 -4.38 5000004.12116
6.647982 4.02 -4.38 5000004.07997
6.647982 4.0 -4.38 5000004.07997
6.860754 3.38 -4.38 5000004.43459
6.860754 3.36 -4.38 5000004.43459
6.860754 3.34 -4.38 5000004.43459
6.7499340000000005 3.28 -4.38 5000004.24989
6.7499340000000005 3.26 -4.38 5000004.24989
6.88998 4.94 -4.4 5000004.4833
6.832158 4.18 -4.4 5000004.38693
6.647982 4.0 -4.4 5000004.07997
6.623754 3.98 -4.4 5000004.03959
6.7499340000000005 3.44 -4.4 5000004.24989
6.860754 3.38 -4.4 5000004.43459
6.7499340000000005 -4.44 -4.4 5000004.24989
6.7499340000000005 -4.46 -4.4 5000004.24989
6.7499340000000005 -4.48 -4.4 5000004.24989
6.623754 4.86 -4.42 5000004.03959
6.623754 4.84 -4.42 5000004.03959
6.672695999999999 4.22 -4.42 5000004.12116
6.72366 4.06 -4.42 5000004.2061
6.623754 3.96 -4.42 5000004.03959
6.7499340000000005 3.44 -4.42 5000004.24989
6.72366 3.42 -4.42 5000004.2061
6.7499340000000005 3.4 -4.42 5000004.24989
6.672695999999999 5.06 -4.44 5000004.12116
6.623754 4.88 -4.44 5000004.03959
6.672695999999999 4.36 -4.44 5000004.12116
6.623754 3.94 -4.44 5000004.03959
6.623754 3.46 -4.44 5000004.03959
6.7499340000000005 2.36 -4.44 5000004.24989
6.672695999999999 5.04 -4.46 5000004.12116
6.623754 4.88 -4.46 5000004.03959
6.88998 4.12 -4.46 5000004.4833
6.88998 4.1 -4.46 5000004.4833
6.72366 4.02 -4.46 5000004.2061
6.69792 4.0 -4.46 5000004.1632
6.623754 3.94 -4.46 5000004.03959
6.623754 3.92 -4.46 5000004.03959
6.623754 3.44 -4.46 5000004.03959
6.832158 4.3 -4.48 5000004.38693
6.88998 4.16 -4.48 5000004.4833
6.88998 4.12 -4.48 5000004.4833
6.88998 4.1 -4.48 5000004.4833
6.72366 4.0 -4.48 5000004.2061
6.69792 3.98 -4.48 5000004.1632
6.623754 3.92 -4.48 5000004.03959
6.623754 3.9 -4.48 5000004.03959
6.623754 3.44 -4.48 5000004.03959
6.623754 3.42 -4.48 5000004.03959
6.623754 3.4 -4.48 5000004.03959
6.647982 3.38 -4.48 5000004.07997
6.832158 4.52 -4.5 5000004.38693
6.88998 4.16 -4.5 5000004.4833
6.72366 4.0 -4.5 5000004.2061
6.69792 3.98 -4.5 5000004.1632
6.623754 3.42 -4.5 5000004.03959
6.647982 3.48 -4.54 5000004.07997
6.72366 4.0 -4.56 5000004.2061
6.647982 3.48 -4.56 5000004.07997
6.72366 4.0 -4.58 5000004.2061
6.647982 3.48 -4.58 5000004.07997
6.647982 -5.32 -4.58 5000004.07997
6.647982 -5.34 -4.58 5000004.07997
6.647982 -5.36 -4.58 5000004.07997
6.623754 -5.7 -4.58 5000004.03959
6.776765999999999 4.06 -4.6 5000004.29461
6.776765999999999 4.1 -4.62 5000004.29461
6.623754 3.94 -4.62 5000004.03959
6.623754 3.92 -4.62 5000004.03959
6.647982 3.36 -4.62 5000004.07997
6.623754 -5.4 -4.62 5000004.03959
6.69792 4.02 -4.64 5000004.1632
6.672695999999999 4.0 -4.64 5000004.12116
6.623754 3.92 -4.64 5000004.03959
6.623754 4.18 -4.66 5000004.03959
6.623754 4.16 -4.66 5000004.03959
6.623754 4.14 -4.66 5000004.03959
6.672695999999999 4.0 -4.66 5000004.12116
6.647982 3.36 -4.66 5000004.07997
6.623754 4.14 -4.68 5000004.03959
6.623754 3.36 -4.68 5000004.03959
6.623754 -1.68 -4.68 5000004.03959
6.647982 3.98 -4.7 5000004.07997
6.623754 3.36 -4.7 5000004.03959
6.623754 3.36 -4.72 5000004.03959
6.623754 4.72 -4.74 5000004.03959
6.623754 4.7 -4.74 5000004.03959
6.623754 4.68 -4.74 5000004.03959
6.623754 4.18 -4.74 5000004.03959
6.647982 4.02 -4.74 5000004.07997
6.623754 3.86 -4.74 5000004.03959
6.623754 3.36 -4.74 5000004.03959
6.623754 -1.7 -4.74 5000004.03959
6.623754 -1.72 -4.74 5000004.03959
6.623754 4.46 -4.82 5000004.03959
6.623754 4.44 -4.82 5000004.03959
6.623754 4.42 -4.82 5000004.03959
6.623754 -1.72 -4.9 5000004.03959
6.623754 4.84 -5.06 5000004.03959
6.623754 4.76 -5.1 5000004.03959
754 3.36 -4.74 5000004.03959
11.423754 -1.7 -4.74 5000004.03959
11.423754 -1.72 -4.74 5000004.03959
11.423754 4.46 -4.82 5000004.03959
11.423754 4.44 -4.82 5000004.03959
11.423754 4.42 -4.82 5000004.03959
11.423754 -1.72 -4.9 5000004.03959
11.423754 4.84 -5.06 5000004.03959
11.423754 4.76 -5.1 5000004.03959
615836 3.42 -4.5 5000004.03959
7.631988 3.48 -4.54 5000004.07997
7.68244 4.0 -4.56 5000004.2061
7.631988 3.48 -4.56 5000004.07997
7.68244 4.0 -4.58 5000004.2061
7.631988 3.48 -4.58 5000004.07997
7.631988 -5.32 -4.58 5000004.07997
7.631988 -5.34 -4.58 5000004.07997
7.631988 -5.36 -4.58 5000004.07997
7.615836 -5.7 -4.58 5000004.03959
7.7178439999999995 4.06 -4.6 5000004.29461
7.7178439999999995 4.1 -4.62 5000004.29461
7.615836 3.94 -4.62 5000004.03959
7.615836 3.92 -4.62 5000004.03959
7.631988 3.36 -4.62 5000004.07997
7.615836 -5.4 -4.62 5000004.03959
7.66528 4.02 -4.64 5000004.1632
7.648464000000001 4.0 -4.64 5000004.12116
7.615836 3.92 -4.64 5000004.03959
7.615836 4.18 -4.66 5000004.03959
7.615836 4.16 -4.66 5000004.03959
7.615836 4.14 -4.66 5000004.03959
7.648464000000001 4.0 -4.66 5000004.12116
7.631988 3.36 -4.66 5000004.07997
7.615836 4.14 -4.68 5000004.03959
7.615836 3.36 -4.68 5000004.03959
7.615836 -1.68 -4.68 5000004.03959
7.631988 3.98 -4.7 5000004.07997
7.615836 3.36 -4.7 5000004.03959
7.615836 3.36 -4.72 5000004.03959
7.615836 4.72 -4.74 5000004.03959
7.615836 4.7 -4.74 5000004.03959
7.615836 4.68 -4.74 5000004.03959
7.615836 4.18 -4.74 5000004.03959
7.631988 4.02 -4.74 5000004.07997
7.615836 3.86 -4.74 5000004.03959
7.615836 3.36 -4.74 5000004.03959
7.615836 -1.7 -4.74 5000004.03959
7.615836 -1.72 -4.74 5000004.03959
7.615836 4.46 -4.82 5000004.03959
7.615836 4.44 -4.82 5000004.03959
7.615836 4.42 -4.82 5000004.03959
7.615836 -1.72 -4.9 5000004.03959
7.615836 4.84 -5.06 5000004.03959
7.615836 4.76 -5.1 5000004.03959
.6158359999999998 3.14 -4.68 5000004.03959
1.6158359999999998 2.36 -4.68 5000004.03959
1.6158359999999998 -2.68 -4.68 5000004.03959
1.631988 2.98 -4.7 5000004.07997
1.6158359999999998 2.36 -4.7 5000004.03959
1.6158359999999998 2.36 -4.72 5000004.03959
1.6158359999999998 3.72 -4.74 5000004.03959
1.6158359999999998 3.7 -4.74 5000004.03959
1.6158359999999998 3.68 -4.74 5000004.03959
1.6158359999999998 3.18 -4.74 5000004.03959
1.631988 3.02 -4.74 5000004.07997
1.6158359999999998 2.86 -4.74 5000004.03959
1.6158359999999998 2.36 -4.74 5000004.03959
1.6158359999999998 -2.7 -4.74 5000004.03959
1.6158359999999998 -2.72 -4.74 5000004.03959
1.6158359999999998 3.46 -4.82 5000004.03959
1.6158359999999998 3.44 -4.82 5000004.03959
1.6158359999999998 3.42 -4.82 5000004.03959
1.6158359999999998 -2.72 -4.9 5000004.03959
1.6158359999999998 3.84 -5.06 5000004.03959
1.6158359999999998 3.76 -5.1 5000004.03959
.74 5000004.03959
1.6158359999999998 0.68 -4.74 5000004.03959
1.6158359999999998 0.18 -4.74 5000004.03959
1.631988 0.02 -4.74 5000004.07997
1.6158359999999998 -0.14 -4.74 5000004.03959
1.6158359999999998 -0.64 -4.74 5000004.03959
1.6158359999999998 -5.7 -4.74 5000004.03959
1.6158359999999998 -5.72 -4.74 5000004.03959
1.6158359999999998 0.46 -4.82 5000004.03959
1.6158359999999998 0.44 -4.82 5000004.03959
1.6158359999999998 0.42 -4.82 5000004.03959
1.6158359999999998 -5.72 -4.9 5000004.03959
1.6158359999999998 0.84 -5.06 5000004.03959
1.6158359999999998 0.76 -5.1 5000004.03959
6666 -1.4333333333333333 5000007.03235
10.234411666666666 -3.2333333333333334 -1.4666666666666666 5000007.03235
10.234411666666666 -3.2666666666666666 -1.4666666666666666 5000007.03235
10.230441333333333 -3.2333333333333334 -1.5 5000006.91324
10.230441333333333 -3.2 -1.5333333333333334 5000006.91324
10.230441333333333 -3.1666666666666665 -1.5666666666666667 5000006.91324
10.222891 -3.1666666666666665 -1.6 5000006.68673
10.222891 -3.1333333333333333 -1.6333333333333333 5000006.68673
10.222891 -3.1 -1.6666666666666667 5000006.68673
10.219298333333333 -3.533333333333333 -1.7333333333333334 5000006.57895
10.219298333333333 0.1 -1.7666666666666666 5000006.57895
10.219298333333333 0.06666666666666667 -1.7666666666666666 5000006.57895
10.219298333333333 0.0 -1.7666666666666666 5000006.57895
10.219298333333333 -0.03333333333333333 -1.7666666666666666 5000006.57895
10.215819666666667 -3.0 -1.8 5000006.47459
10.215819666666667 -3.033333333333333 -1.8 5000006.47459
10.219298333333333 -3.3 -1.8 5000006.57895
10.219298333333333 -3.3333333333333335 -1.8 5000006.57895
10.215819666666667 -3.3666666666666667 -1.8 5000006.47459
10.219298333333333 0.16666666666666666 -1.8333333333333333 5000006.57895
10.219298333333333 0.13333333333333333 -1.8333333333333333 5000006.57895
10.219298333333333 0.1 -1.8333333333333333 5000006.57895
10.215819666666667 -3.0 -1.8333333333333333 5000006.47459
10.215819666666667 -3.033333333333333 -1.8333333333333333 5000006.47459
10.215819666666667 -3.066666666666667 -1.8333333333333333 5000006.47459
10.215819666666667 -3.1 -1.8333333333333333 5000006.47459
10.219298333333333 -3.1333333333333333 -1.8333333333333333 5000006.57895
10.219298333333333 -3.1666666666666665 -1.8333333333333333 5000006.57895
10.219298333333333 -3.2 -1.8333333333333333 5000006.57895
10.219298333333333 -3.2333333333333334 -1.8333333333333333 5000006.57895
10.219298333333333 -3.2666666666666666 -1.8333333333333333 5000006.57895
10.219298333333333 -3.3 -1.8333333333333333 5000006.57895
10.219298333333333 -3.3333333333333335 -1.8333333333333333 5000006.57895
10.215819666666667 -3.3666666666666667 -1.8333333333333333 5000006.47459
10.215819666666667 -3.4 -1.8333333333333333 5000006.47459
10.215819666666667 -3.433333333333333 -1.8333333333333333 5000006.47459
10.212449666666666 -2.9 -1.8666666666666667 5000006.37349
10.215819666666667 -3.033333333333333 -1.8666666666666667 5000006.47459
10.212449666666666 -2.8666666666666667 -1.9 5000006.37349
10.212449666666666 -17.8 -1.9 5000006.37349
10.209183 -17.866666666666667 -1.9 5000006.27549
10.209183 -17.9 -1.9 5000006.27549
10.212449666666666 -2.8666666666666667 -1.9333333333333333 5000006.37349
10.206015666666667 -17.9 -1.9666666666666666 5000006.18047
10.212449666666666 -17.9 -2.0 5000006.37349
10.194250333333333 -1.5333333333333334 -2.2 5000005.82751
10.194250333333333 -1.5666666666666667 -2.2 5000005.82751
10.194250333333333 -1.6 -2.2 5000005.82751
10.194250333333333 -1.5333333333333334 -2.2333333333333334 5000005.82751
10.194250333333333 -1.5666666666666667 -2.2333333333333334 5000005.82751
10.194250333333333 -1.6 -2.2333333333333334 5000005.82751
10.194250333333333 -1.6333333333333333 -2.2333333333333334 5000005.82751
10.194250333333333 1.9 -2.2666666666666666 5000005.82751
10.194250333333333 -1.8666666666666667 -2.433333333333333 5000005.82751
10.183756 -1.9333333333333333 -2.466666666666667 5000005.51268
10.183756 -1.9666666666666666 -2.466666666666667 5000005.51268
10.183756 -1.6666666666666667 -2.5 5000005.51268
10.183756 -1.6666666666666667 -2.533333333333333 5000005.51268
10.183756 -1.7 -2.533333333333333 5000005.51268
10.181307333333333 -1.7666666666666666 -2.533333333333333 5000005.43922
10.181307333333333 -1.8666666666666667 -2.533333333333333 5000005.43922
10.181307333333333 -1.9 -2.533333333333333 5000005.43922
10.181307333333333 -1.9333333333333333 -2.533333333333333 5000005.43922
10.183756 -1.7 -2.566666666666667 5000005.51268
10.183756 -1.7333333333333334 -2.566666666666667 5000005.51268
10.181307333333333 -1.7666666666666666 -2.566666666666667 5000005.43922
10.181307333333333 -1.8333333333333333 -2.566666666666667 5000005.43922
10.181307333333333 -1.8666666666666667 -2.566666666666667 5000005.43922
10.181307333333333 -1.9 -2.566666666666667 5000005.43922
10.183756 -1.7333333333333334 -2.6 5000005.51268
10.181307333333333 0.7666666666666667 -2.6333333333333333 5000005.43922
10.181307333333333 0.7333333333333333 -2.6333333333333333 5000005.43922
10.181307333333333 -2.533333333333333 -2.6333333333333333 5000005.43922
10.188857333333333 -2.7666666666666666 -2.6333333333333333 5000005.66572
10.188857333333333 -2.8 -2.6333333333333333 5000005.66572
10.188857333333333 -2.8333333333333335 -2.6333333333333333 5000005.66572
10.183756 -2.8666666666666667 -2.6333333333333333 5000005.51268
10.181307333333333 -2.9 -2.6333333333333333 5000005.43922
10.178923 -2.933333333333333 -2.6333333333333333 5000005.36769
10.178923 -2.966666666666667 -2.6333333333333333 5000005.36769
10.178923 -3.0 -2.6333333333333333 5000005.36769
10.181307333333333 -2.466666666666667 -2.6666666666666665 5000005.43922
10.181307333333333 -2.5 -2.6666666666666665 5000005.43922
10.181307333333333 -2.533333333333333 -2.6666666666666665 5000005.43922
10.181307333333333 -2.566666666666667 -2.6666666666666665 5000005.43922
10.181307333333333 -2.6 -2.6666666666666665 5000005.43922
10.181307333333333 -2.6333333333333333 -2.6666666666666665 5000005.43922
10.181307333333333 -2.6666666666666665 -2.6666666666666665 5000005.43922
10.181307333333333 -2.7 -2.6666666666666665 5000005.43922
10.188857333333333 -2.8333333333333335 -2.6666666666666665 5000005.66572
10.183756 -2.8666666666666667 -2.6666666666666665 5000005.51268
10.181307333333333 -2.9 -2.6666666666666665 5000005.43922
10.178923 -2.933333333333333 -2.6666666666666665 5000005.36769
10.178923 -2.966666666666667 -2.6666666666666665 5000005.36769
10.178923 -3.0 -2.6666666666666665 5000005.36769
10.176600333333333 -2.4 -2.7333333333333334 5000005.29801
10.174337666666666 -2.4 -2.7666666666666666 5000005.23013
10.174337666666666 -2.3666666666666667 -2.8 5000005.23013
10.174337666666666 -2.3333333333333335 -2.8333333333333335 5000005.23013
10.174337666666666 -2.3666666666666667 -2.8333333333333335 5000005.23013
10.172132 -2.3333333333333335 -2.8666666666666667 5000005.16396
10.183756 1.7333333333333334 -2.9 5000005.51268
10.172132 1.6666666666666667 -2.9 5000005.16396
10.172132 -2.3 -2.9 5000005.16396
10.169981333333334 2.566666666666667 -2.933333333333333 5000005.09944
10.183756 2.5 -2.933333333333333 5000005.51268
10.169981333333334 1.6333333333333333 -2.933333333333333 5000005.09944
10.169981333333334 1.6 -2.933333333333333 5000005.09944
10.169981333333334 1.5666666666666667 -2.933333333333333 5000005.09944
10.172132 -2.2666666666666666 -2.933333333333333 5000005.16396
10.172132 -2.3 -2.933333333333333 5000005.16396
10.167883666666667 2.6333333333333333 -2.966666666666667 5000005.03651
10.167883666666667 2.6 -2.966666666666667 5000005.03651
10.183756 2.5 -2.966666666666667 5000005.51268
10.165837333333334 1.8666666666666667 -2.966666666666667 5000004.97512
10.169981333333334 1.6 -2.966666666666667 5000005.09944
10.169981333333334 -2.2666666666666666 -2.966666666666667 5000005.09944
10.167883666666667 2.6333333333333333 -3.0 5000005.03651
10.167883666666667 2.6 -3.0 5000005.03651
10.176600333333333 2.466666666666667 -3.0 5000005.29801
10.165837333333334 1.8666666666666667 -3.0 5000004.97512
10.167883666666667 -2.2333333333333334 -3.0 5000005.03651
10.167883666666667 2.6 -3.033333333333333 5000005.03651
10.165837333333334 1.8666666666666667 -3.033333333333333 5000004.97512
10.165837333333334 1.8333333333333333 -3.033333333333333 5000004.97512
10.165837333333334 1.8 -3.033333333333333 5000004.97512
10.167883666666667 -2.2 -3.033333333333333 5000005.03651
10.172132 2.8333333333333335 -3.066666666666667 5000005.16396
10.165837333333334 1.8333333333333333 -3.066666666666667 5000004.97512
10.165837333333334 -2.1666666666666665 -3.066666666666667 5000004.97512
10.165837333333334 -2.2 -3.066666666666667 5000004.97512
10.174337666666666 2.933333333333333 -3.1 5000005.23013
10.165837333333334 -2.1666666666666665 -3.1 5000004.97512
10.172132 2.9 -3.1333333333333333 5000005.16396
10.163840333333333 -2.1333333333333333 -3.1333333333333333 5000004.91521
10.163840333333333 -2.1666666666666665 -3.1333333333333333 5000004.91521
10.163840333333333 -2.1 -3.1666666666666665 5000004.91521
10.163840333333333 -2.1333333333333333 -3.1666666666666665 5000004.91521
10.161891 -2.1 -3.2 5000004.85673
10.159987333333333 -2.033333333333333 -3.2666666666666666 5000004.79962
10.159987333333333 -2.066666666666667 -3.2666666666666666 5000004.79962
10.158127666666667 -2.033333333333333 -3.3 5000004.74383
10.159987333333333 -2.6333333333333333 -3.3 5000004.79962
10.158127666666667 -2.0 -3.3333333333333335 5000004.74383
10.158127666666667 -0.06666666666666667 -3.3666666666666667 5000004.74383
10.158127666666667 -0.1 -3.3666666666666667 5000004.74383
10.158127666666667 -1.9666666666666666 -3.3666666666666667 5000004.74383
10.154535666666666 -1.9333333333333333 -3.433333333333333 5000004.63607
10.154535666666666 -1.9 -3.466666666666667 5000004.63607
10.156311 -15.0 -3.466666666666667 5000004.68933
10.149443333333334 0.23333333333333334 -3.5 5000004.4833
10.154535666666666 -1.8666666666666667 -3.5 5000004.63607
10.154535666666666 -1.9 -3.5 5000004.63607
10.156311 -14.633333333333333 -3.5 5000004.68933
10.156311 -14.666666666666666 -3.5 5000004.68933
10.156311 -14.7 -3.5 5000004.68933
10.156311 -14.733333333333333 -3.5 5000004.68933
10.156311 -14.766666666666667 -3.5 5000004.68933
10.156311 -14.8 -3.5 5000004.68933
10.156311 -14.833333333333334 -3.5 5000004.68933
10.156311 -14.866666666666667 -3.5 5000004.68933
10.156311 -14.9 -3.5 5000004.68933
10.156311 -14.933333333333334 -3.5 5000004.68933
10.156311 -14.966666666666667 -3.5 5000004.68933
10.156311 -15.0 -3.5 5000004.68933
10.156311 -15.033333333333333 -3.5 5000004.68933
10.156311 -15.066666666666666 -3.5 5000004.68933
10.156311 -15.1 -3.5 5000004.68933
10.154535666666666 -15.133333333333333 -3.5 5000004.63607
10.154535666666666 -15.166666666666666 -3.5 5000004.63607
10.154535666666666 -15.2 -3.5 5000004.63607
10.1528 -15.233333333333333 -3.5 5000004.584
10.1528 -1.8666666666666667 -3.533333333333333 5000004.584
10.1528 -1.8333333333333333 -3.566666666666667 5000004.584
10.154535666666666 2.933333333333333 -3.6 5000004.63607
10.140203333333334 0.23333333333333334 -3.6 5000004.2061
10.1528 -1.8 -3.6 5000004.584
10.146231 1.1 -3.6333333333333333 5000004.38693
10.140203333333334 0.23333333333333334 -3.6333333333333333 5000004.2061
10.146231 1.1666666666666667 -3.6666666666666665 5000004.38693
10.143153666666667 0.9 -3.6666666666666665 5000004.29461
10.143153666666667 0.8666666666666667 -3.6666666666666665 5000004.29461
