VERSION .7
FIELDS x y z rgb
SIZE 4 4 4 4
TYPE F F F F
COUNT 1 1 1 1
WIDTH 1293
HEIGHT 1
VIEWPOINT 0 0 0 1 0 0 0
POINTS 1293
DATA ascii
28.590239999999998 0.1 1.38 40.6504
44.74056 5.5 1.36 67.5676
21.64188 5.12 1.36 29.0698
21.64188 5.0 1.36 29.0698
38.9826 4.72 1.36 57.971
28.590239999999998 0.1 1.36 40.6504
21.64188 5.12 1.34 29.0698
21.64188 5.0 1.34 29.0698
38.9826 4.72 1.34 57.971
28.590239999999998 0.12 1.34 40.6504
44.74056 5.48 1.32 67.5676
21.64188 5.12 1.32 29.0698
21.64188 5.0 1.32 29.0698
38.9826 4.74 1.32 57.971
38.9826 4.72 1.32 57.971
44.74056 5.48 1.3 67.5676
21.64188 5.12 1.3 29.0698
21.64188 5.0 1.3 29.0698
38.9826 4.76 1.3 57.971
38.9826 4.74 1.3 57.971
34.65684 3.96 1.3 50.7614
21.64188 5.12 1.28 29.0698
21.64188 5.0 1.28 29.0698
38.9826 4.76 1.28 57.971
34.65684 3.96 1.28 50.7614
24.53898 2.66 1.28 33.8983
44.74056 5.48 1.26 67.5676
21.64188 5.0 1.26 29.0698
44.74056 5.48 1.24 67.5676
21.64188 5.0 1.24 29.0698
38.9826 4.7 1.24 57.971
38.9826 4.68 1.24 57.971
21.64188 5.0 1.22 29.0698
38.9826 4.7 1.22 57.971
38.9826 4.68 1.22 57.971
44.74056 5.48 1.2 67.5676
21.64188 5.0 1.2 29.0698
38.9826 4.72 1.2 57.971
38.9826 4.7 1.2 57.971
28.590239999999998 -3.34 1.2 40.6504
28.590239999999998 -3.36 1.2 40.6504
44.74056 5.68 1.18 67.5676
44.74056 5.48 1.18 67.5676
21.64188 5.0 1.18 29.0698
44.74056 5.68 1.16 67.5676
44.74056 5.48 1.16 67.5676
44.74056 5.48 1.14 67.5676
38.9826 4.72 1.14 57.971
31.28802 1.58 1.14 45.1467
52.78302 5.5 1.12 80.9717
38.9826 4.72 1.12 57.971
24.53898 2.66 1.12 33.8983
52.78302 5.5 1.1 80.9717
24.53898 2.66 1.1 33.8983
52.78302 5.5 1.08 80.9717
31.28802 1.58 1.08 45.1467
44.74056 5.7 1.06 67.5676
21.64188 5.12 1.06 29.0698
38.9826 3.96 1.06 57.971
38.9826 3.94 1.06 57.971
31.28802 1.6 1.06 45.1467
31.28802 1.58 1.06 45.1467
21.64188 5.12 1.04 29.0698
21.64188 5.0 1.04 29.0698
38.9826 3.96 1.04 57.971
31.28802 1.6 1.04 45.1467
21.64188 5.12 1.02 29.0698
21.64188 5.0 1.02 29.0698
38.9826 4.68 1.02 57.971
38.9826 3.96 1.02 57.971
21.64188 5.12 1.0 29.0698
21.64188 5.0 1.0 29.0698
38.9826 4.68 1.0 57.971
44.74056 3.96 1.0 67.5676
21.64188 5.12 0.98 29.0698
21.64188 5.0 0.98 29.0698
38.9826 4.7 0.98 57.971
21.64188 5.12 0.96 29.0698
21.64188 5.0 0.96 29.0698
38.9826 4.72 0.96 57.971
38.9826 4.7 0.96 57.971
21.64188 5.12 0.94 29.0698
21.64188 5.0 0.94 29.0698
21.64188 5.12 0.92 29.0698
21.64188 5.0 0.92 29.0698
21.64188 5.12 0.9 29.0698
21.64188 5.0 0.9 29.0698
21.64188 5.12 0.88 29.0698
21.64188 5.0 0.88 29.0698
21.64188 5.12 0.86 29.0698
21.64188 5.0 0.86 29.0698
31.28802 1.6 0.86 45.1467
21.64188 5.12 0.84 29.0698
21.64188 5.0 0.84 29.0698
19.467180000000003 2.8 0.84 25.4453
31.28802 1.6 0.84 45.1467
21.64188 5.12 0.82 29.0698
21.64188 5.0 0.82 29.0698
38.9826 4.68 0.82 57.971
19.467180000000003 2.8 0.82 25.4453
19.467180000000003 2.78 0.82 25.4453
31.28802 1.62 0.82 45.1467
21.64188 5.12 0.8 29.0698
21.64188 5.0 0.8 29.0698
38.9826 4.68 0.8 57.971
34.65684 3.92 0.8 50.7614
19.467180000000003 2.8 0.8 25.4453
19.467180000000003 2.78 0.8 25.4453
21.64188 5.12 0.78 29.0698
21.64188 5.0 0.78 29.0698
34.65684 3.92 0.78 50.7614
19.467180000000003 2.8 0.78 25.4453
19.467180000000003 2.78 0.78 25.4453
21.64188 5.12 0.76 29.0698
21.64188 5.0 0.76 29.0698
38.9826 4.7 0.76 57.971
38.9826 4.68 0.76 57.971
34.65684 3.94 0.76 50.7614
34.65684 3.92 0.76 50.7614
19.467180000000003 2.8 0.76 25.4453
31.28802 1.68 0.76 45.1467
21.64188 5.12 0.74 29.0698
21.64188 5.0 0.74 29.0698
38.9826 4.7 0.74 57.971
34.65684 3.92 0.74 50.7614
19.467180000000003 2.8 0.74 25.4453
19.467180000000003 2.66 0.74 25.4453
31.28802 1.7 0.74 45.1467
31.28802 1.68 0.74 45.1467
21.64188 5.12 0.72 29.0698
38.9826 4.7 0.72 57.971
34.65684 3.92 0.72 50.7614
20.4822 2.8 0.72 27.137
19.467180000000003 2.66 0.72 25.4453
19.467180000000003 2.64 0.72 25.4453
31.28802 1.7 0.72 45.1467
28.590239999999998 0.2 0.72 40.6504
21.64188 5.0 0.7 29.0698
38.9826 4.7 0.7 57.971
19.467180000000003 2.66 0.7 25.4453
21.64188 5.12 0.68 29.0698
21.64188 5.0 0.68 29.0698
19.467180000000003 2.66 0.68 25.4453
21.64188 5.12 0.66 29.0698
21.64188 5.0 0.66 29.0698
19.467180000000003 2.8 0.66 25.4453
19.467180000000003 2.78 0.66 25.4453
19.467180000000003 2.66 0.66 25.4453
21.64188 5.12 0.64 29.0698
21.64188 5.0 0.64 29.0698
19.467180000000003 2.8 0.64 25.4453
19.467180000000003 2.78 0.64 25.4453
21.64188 5.12 0.62 29.0698
21.64188 5.0 0.62 29.0698
38.9826 4.7 0.62 57.971
19.467180000000003 2.8 0.62 25.4453
19.467180000000003 2.78 0.62 25.4453
19.467180000000003 2.64 0.62 25.4453
21.64188 5.12 0.6 29.0698
21.64188 5.0 0.6 29.0698
38.9826 4.72 0.6 57.971
38.9826 4.7 0.6 57.971
19.467180000000003 2.62 0.6 25.4453
21.64188 5.12 0.58 29.0698
21.64188 5.0 0.58 29.0698
38.9826 4.72 0.58 57.971
38.9826 4.7 0.58 57.971
34.65684 3.88 0.58 50.7614
19.467180000000003 2.78 0.58 25.4453
19.467180000000003 2.6 0.58 25.4453
26.38116 0.18 0.58 36.9686
21.64188 5.12 0.56 29.0698
21.64188 5.0 0.56 29.0698
38.9826 4.72 0.56 57.971
19.467180000000003 2.8 0.56 25.4453
19.467180000000003 2.78 0.56 25.4453
26.38116 0.18 0.56 36.9686
21.64188 5.12 0.54 29.0698
21.64188 5.0 0.54 29.0698
38.9826 4.72 0.54 57.971
19.467180000000003 2.8 0.54 25.4453
19.467180000000003 2.78 0.54 25.4453
44.74056 2.24 0.54 67.5676
21.64188 5.12 0.52 29.0698
21.64188 5.0 0.52 29.0698
38.9826 4.72 0.52 57.971
19.467180000000003 2.8 0.52 25.4453
19.467180000000003 2.78 0.52 25.4453
19.467180000000003 2.66 0.52 25.4453
19.467180000000003 2.54 0.52 25.4453
44.74056 2.24 0.52 67.5676
21.64188 5.12 0.5 29.0698
21.64188 5.0 0.5 29.0698
44.74056 3.7 0.5 67.5676
19.467180000000003 2.8 0.5 25.4453
19.467180000000003 2.78 0.5 25.4453
19.467180000000003 2.66 0.5 25.4453
19.467180000000003 2.54 0.5 25.4453
21.64188 5.12 0.48 29.0698
21.64188 5.0 0.48 29.0698
19.467180000000003 2.8 0.48 25.4453
19.467180000000003 2.78 0.48 25.4453
19.467180000000003 2.66 0.48 25.4453
19.467180000000003 2.54 0.48 25.4453
21.64188 5.12 0.46 29.0698
21.64188 5.0 0.46 29.0698
38.9826 4.7 0.46 57.971
19.467180000000003 2.8 0.46 25.4453
19.467180000000003 2.78 0.46 25.4453
19.467180000000003 2.66 0.46 25.4453
19.467180000000003 2.54 0.46 25.4453
21.64188 5.12 0.44 29.0698
21.64188 5.0 0.44 29.0698
38.9826 4.7 0.44 57.971
19.467180000000003 2.8 0.44 25.4453
19.467180000000003 2.78 0.44 25.4453
19.467180000000003 2.66 0.44 25.4453
19.467180000000003 2.54 0.44 25.4453
21.64188 5.12 0.42 29.0698
21.64188 5.0 0.42 29.0698
38.9826 4.7 0.42 57.971
19.467180000000003 2.8 0.42 25.4453
19.467180000000003 2.78 0.42 25.4453
19.467180000000003 2.66 0.42 25.4453
19.467180000000003 2.54 0.42 25.4453
28.590239999999998 0.2 0.42 40.6504
21.64188 5.12 0.4 29.0698
21.64188 5.0 0.4 29.0698
38.9826 4.7 0.4 57.971
19.467180000000003 2.78 0.4 25.4453
28.590239999999998 0.2 0.4 40.6504
21.64188 5.12 0.38 29.0698
21.64188 5.1 0.38 29.0698
21.64188 5.0 0.38 29.0698
38.9826 4.7 0.38 57.971
38.9826 3.9 0.38 57.971
19.467180000000003 2.78 0.38 25.4453
38.9826 2.24 0.38 57.971
21.64188 5.12 0.36 29.0698
21.64188 5.0 0.36 29.0698
21.64188 5.12 0.34 29.0698
21.64188 5.0 0.34 29.0698
38.9826 4.7 0.34 57.971
38.9826 4.68 0.34 57.971
21.64188 5.12 0.32 29.0698
21.64188 5.0 0.32 29.0698
21.64188 5.12 0.3 29.0698
21.64188 5.0 0.3 29.0698
38.9826 3.9 0.3 57.971
38.9826 3.88 0.3 57.971
31.28802 2.7 0.3 45.1467
34.65684 1.68 0.3 50.7614
34.65684 1.66 0.3 50.7614
21.64188 5.12 0.28 29.0698
21.64188 5.0 0.28 29.0698
38.9826 4.72 0.28 57.971
38.9826 3.9 0.28 57.971
34.65684 1.68 0.28 50.7614
34.65684 1.14 0.28 50.7614
21.64188 5.24 0.26 29.0698
21.64188 5.0 0.26 29.0698
38.9826 3.9 0.26 57.971
34.65684 1.68 0.26 50.7614
34.65684 1.16 0.26 50.7614
34.65684 1.14 0.26 50.7614
21.64188 5.24 0.24 29.0698
21.64188 5.0 0.24 29.0698
38.9826 3.92 0.24 57.971
28.590239999999998 0.36 0.24 40.6504
21.64188 5.24 0.22 29.0698
21.64188 5.0 0.22 29.0698
38.9826 4.24 0.22 57.971
38.9826 3.92 0.22 57.971
28.590239999999998 0.38 0.22 40.6504
28.590239999999998 0.36 0.22 40.6504
34.65684 -3.22 0.22 50.7614
34.65684 -3.24 0.22 50.7614
21.64188 5.24 0.2 29.0698
21.64188 5.0 0.2 29.0698
34.65684 2.82 0.2 50.7614
34.65684 2.8 0.2 50.7614
38.9826 -2.26 0.2 57.971
38.9826 -2.28 0.2 57.971
21.64188 5.24 0.18 29.0698
21.64188 5.0 0.18 29.0698
34.65684 2.82 0.18 50.7614
31.28802 1.8 0.18 45.1467
31.28802 1.78 0.18 45.1467
28.590239999999998 0.38 0.18 40.6504
21.64188 5.24 0.16 29.0698
21.64188 5.0 0.16 29.0698
34.65684 2.84 0.16 50.7614
34.65684 2.82 0.16 50.7614
38.9826 2.48 0.16 57.971
31.28802 1.8 0.16 45.1467
31.28802 1.78 0.16 45.1467
28.590239999999998 0.38 0.16 40.6504
21.64188 5.24 0.14 29.0698
21.64188 5.0 0.14 29.0698
34.65684 3.96 0.14 50.7614
34.65684 2.84 0.14 50.7614
34.65684 2.82 0.14 50.7614
21.64188 5.24 0.12 29.0698
31.28802 2.84 0.12 45.1467
31.28802 2.82 0.12 45.1467
21.64188 5.24 0.1 29.0698
34.65684 2.84 0.1 50.7614
34.65684 2.82 0.1 50.7614
21.64188 5.24 0.08 29.0698
21.64188 5.0 0.08 29.0698
38.9826 4.02 0.08 57.971
34.65684 2.82 0.08 50.7614
21.64188 5.24 0.06 29.0698
21.64188 5.0 0.06 29.0698
38.9826 4.02 0.06 57.971
34.65684 2.82 0.06 50.7614
21.64188 5.24 0.04 29.0698
38.9826 4.02 0.04 57.971
44.74056 3.76 0.04 67.5676
34.65684 2.82 0.04 50.7614
38.9826 2.24 0.04 57.971
21.64188 5.24 0.02 29.0698
38.9826 4.02 0.02 57.971
34.65684 2.82 0.02 50.7614
38.9826 2.24 0.02 57.971
21.64188 5.24 0.0 29.0698
38.9826 4.02 0.0 57.971
34.65684 2.82 0.0 50.7614
38.9826 2.24 0.0 57.971
21.64188 5.24 -0.02 29.0698
21.64188 5.0 -0.02 29.0698
34.65684 2.82 -0.02 50.7614
38.9826 2.24 -0.02 57.971
21.64188 5.24 -0.04 29.0698
21.64188 5.0 -0.04 29.0698
52.78302 4.46 -0.04 80.9717
44.74056 3.56 -0.04 67.5676
34.65684 2.82 -0.04 50.7614
38.9826 2.24 -0.04 57.971
34.65684 1.38 -0.04 50.7614
21.64188 5.24 -0.06 29.0698
21.64188 5.0 -0.06 29.0698
34.65684 2.82 -0.06 50.7614
34.65684 1.96 -0.06 50.7614
21.64188 5.24 -0.08 29.0698
21.64188 5.0 -0.08 29.0698
34.65684 2.82 -0.08 50.7614
21.64188 5.24 -0.1 29.0698
21.64188 5.0 -0.1 29.0698
34.65684 2.82 -0.1 50.7614
38.9826 2.24 -0.1 57.971
34.65684 1.96 -0.1 50.7614
21.64188 5.24 -0.12 29.0698
21.64188 5.0 -0.12 29.0698
52.78302 4.2 -0.12 80.9717
34.65684 2.82 -0.12 50.7614
38.9826 2.24 -0.12 57.971
21.64188 5.24 -0.14 29.0698
21.64188 5.0 -0.14 29.0698
34.65684 2.82 -0.14 50.7614
38.9826 2.24 -0.14 57.971
34.65684 1.96 -0.14 50.7614
34.65684 1.68 -0.14 50.7614
26.38116 0.36 -0.14 36.9686
34.65684 2.82 -0.16 50.7614
38.9826 2.22 -0.16 57.971
34.65684 1.96 -0.16 50.7614
52.78302 5.54 -0.18 80.9717
52.78302 5.42 -0.18 80.9717
52.78302 5.4 -0.18 80.9717
34.65684 2.82 -0.18 50.7614
38.9826 2.22 -0.18 57.971
52.78302 5.54 -0.2 80.9717
52.78302 5.4 -0.2 80.9717
34.65684 2.82 -0.2 50.7614
31.28802 1.78 -0.2 45.1467
52.78302 5.54 -0.22 80.9717
34.65684 2.82 -0.22 50.7614
19.467180000000003 2.54 -0.22 25.4453
31.28802 1.78 -0.22 45.1467
34.65684 3.98 -0.24 50.7614
34.65684 2.82 -0.24 50.7614
19.467180000000003 2.54 -0.24 25.4453
31.28802 1.78 -0.24 45.1467
21.64188 5.0 -0.26 29.0698
34.65684 2.82 -0.26 50.7614
31.28802 1.78 -0.26 45.1467
21.64188 5.12 -0.28 29.0698
21.64188 5.1 -0.28 29.0698
21.64188 5.0 -0.28 29.0698
34.65684 2.82 -0.28 50.7614
34.65684 1.96 -0.28 50.7614
31.28802 1.78 -0.28 45.1467
21.64188 5.12 -0.3 29.0698
21.64188 5.0 -0.3 29.0698
34.65684 2.82 -0.3 50.7614
34.65684 1.96 -0.3 50.7614
31.28802 1.78 -0.3 45.1467
22.97934 -6.44 -0.3 31.2989
21.64188 5.12 -0.32 29.0698
21.64188 5.0 -0.32 29.0698
21.64188 5.12 -0.34 29.0698
21.64188 5.0 -0.34 29.0698
34.65684 2.8 -0.34 50.7614
31.28802 1.78 -0.34 45.1467
44.74056 5.92 -0.36 67.5676
21.64188 5.12 -0.36 29.0698
21.64188 5.1 -0.36 29.0698
21.64188 5.0 -0.36 29.0698
34.65684 2.82 -0.36 50.7614
31.28802 1.78 -0.36 45.1467
31.28802 1.76 -0.36 45.1467
21.64188 5.12 -0.38 29.0698
21.64188 5.0 -0.38 29.0698
34.65684 2.82 -0.38 50.7614
31.28802 1.76 -0.38 45.1467
22.97934 -5.6 -0.38 31.2989
22.97934 -6.44 -0.38 31.2989
38.9826 5.72 -0.4 57.971
21.64188 5.12 -0.4 29.0698
21.64188 5.0 -0.4 29.0698
22.97934 -6.44 -0.4 31.2989
38.9826 5.72 -0.42 57.971
21.64188 5.12 -0.42 29.0698
21.64188 5.0 -0.42 29.0698
38.9826 5.72 -0.44 57.971
38.9826 5.38 -0.44 57.971
21.64188 5.12 -0.44 29.0698
21.64188 5.1 -0.44 29.0698
21.64188 5.0 -0.44 29.0698
21.64188 5.12 -0.46 29.0698
21.64188 5.0 -0.46 29.0698
24.53898 -6.44 -0.46 33.8983
24.53898 -6.46 -0.46 33.8983
21.64188 5.12 -0.48 29.0698
21.64188 5.12 -0.5 29.0698
38.9826 5.48 -0.52 57.971
21.64188 5.12 -0.52 29.0698
31.28802 2.32 -0.52 45.1467
22.97934 -6.46 -0.52 31.2989
38.9826 5.48 -0.54 57.971
38.9826 4.88 -0.54 57.971
19.467180000000003 2.6 -0.54 25.4453
38.9826 5.66 -0.56 57.971
38.9826 4.88 -0.56 57.971
34.65684 4.42 -0.56 50.7614
34.65684 3.88 -0.56 50.7614
19.467180000000003 2.6 -0.56 25.4453
22.97934 -6.46 -0.56 31.2989
38.9826 5.8 -0.58 57.971
38.9826 5.76 -0.58 57.971
38.9826 5.66 -0.58 57.971
38.9826 5.24 -0.58 57.971
19.467180000000003 2.6 -0.58 25.4453
22.97934 -6.46 -0.58 31.2989
38.9826 5.22 -0.6 57.971
21.64188 5.0 -0.6 29.0698
19.467180000000003 2.6 -0.6 25.4453
38.9826 5.8 -0.62 57.971
38.9826 5.22 -0.62 57.971
19.467180000000003 2.6 -0.62 25.4453
31.28802 1.92 -0.62 45.1467
34.65684 5.2 -0.64 50.7614
34.65684 4.2 -0.64 50.7614
31.28802 3.48 -0.64 45.1467
31.28802 3.46 -0.64 45.1467
19.467180000000003 2.6 -0.64 25.4453
31.28802 2.4 -0.64 45.1467
31.28802 2.38 -0.64 45.1467
34.65684 5.2 -0.66 50.7614
34.65684 5.18 -0.66 50.7614
34.65684 4.2 -0.66 50.7614
31.28802 3.48 -0.66 45.1467
31.28802 2.7 -0.66 45.1467
19.467180000000003 2.6 -0.66 25.4453
38.9826 5.4 -0.68 57.971
38.9826 5.36 -0.68 57.971
34.65684 5.2 -0.68 50.7614
34.65684 5.18 -0.68 50.7614
34.65684 4.92 -0.68 50.7614
34.65684 3.58 -0.68 50.7614
38.9826 5.4 -0.7 57.971
38.9826 5.36 -0.7 57.971
34.65684 5.18 -0.7 50.7614
38.9826 5.36 -0.72 57.971
34.65684 5.18 -0.72 50.7614
21.64188 5.12 -0.72 29.0698
34.65684 4.9 -0.72 50.7614
31.28802 2.76 -0.72 45.1467
21.64188 5.12 -0.74 29.0698
21.64188 5.1 -0.74 29.0698
21.64188 5.0 -0.74 29.0698
19.467180000000003 2.6 -0.74 25.4453
28.590239999999998 1.86 -0.74 40.6504
21.64188 5.12 -0.76 29.0698
21.64188 5.1 -0.76 29.0698
21.64188 5.0 -0.76 29.0698
34.65684 4.08 -0.76 50.7614
19.467180000000003 2.6 -0.76 25.4453
20.4822 2.52 -0.76 27.137
21.64188 5.0 -0.78 29.0698
34.65684 4.08 -0.78 50.7614
34.65684 4.02 -0.78 50.7614
31.28802 3.76 -0.78 45.1467
19.467180000000003 2.6 -0.78 25.4453
34.65684 4.08 -0.8 50.7614
34.65684 4.02 -0.8 50.7614
31.28802 3.76 -0.8 45.1467
34.65684 3.7 -0.8 50.7614
31.28802 3.08 -0.8 45.1467
28.590239999999998 2.68 -0.8 40.6504
19.467180000000003 2.6 -0.8 25.4453
26.38116 1.78 -0.8 36.9686
31.28802 4.08 -0.82 45.1467
34.65684 4.02 -0.82 50.7614
31.28802 3.78 -0.82 45.1467
31.28802 3.76 -0.82 45.1467
34.65684 3.7 -0.82 50.7614
31.28802 3.76 -0.84 45.1467
34.65684 3.7 -0.84 50.7614
28.590239999999998 2.7 -0.84 40.6504
28.590239999999998 2.2 -0.84 40.6504
28.590239999999998 2.7 -0.86 40.6504
28.590239999999998 2.2 -0.86 40.6504
28.590239999999998 2.1 -0.86 40.6504
28.590239999999998 1.74 -0.86 40.6504
28.590239999999998 2.7 -0.88 40.6504
28.590239999999998 2.68 -0.88 40.6504
28.590239999999998 2.22 -0.88 40.6504
28.590239999999998 1.76 -0.88 40.6504
28.590239999999998 1.74 -0.88 40.6504
26.38116 1.24 -0.88 36.9686
26.38116 0.92 -0.88 36.9686
26.38116 0.9 -0.88 36.9686
28.590239999999998 2.7 -0.9 40.6504
28.590239999999998 2.68 -0.9 40.6504
19.467180000000003 2.5 -0.9 25.4453
28.590239999999998 2.22 -0.9 40.6504
28.590239999999998 1.76 -0.9 40.6504
26.38116 1.24 -0.9 36.9686
19.467180000000003 2.6 -0.92 25.4453
28.590239999999998 2.22 -0.92 40.6504
28.590239999999998 2.2 -0.92 40.6504
28.590239999999998 1.76 -0.92 40.6504
26.38116 1.26 -0.92 36.9686
28.590239999999998 2.2 -0.94 40.6504
28.590239999999998 1.76 -0.94 40.6504
26.38116 1.26 -0.94 36.9686
21.64188 5.1 -0.96 29.0698
26.38116 1.26 -0.96 36.9686
19.467180000000003 -5.4 -0.96 25.4453
19.467180000000003 -5.42 -0.96 25.4453
28.590239999999998 0.78 -0.98 40.6504
19.467180000000003 -4.7 -1.12 25.4453
20.4822 -4.92 -1.22 27.137
20.4822 -4.94 -1.22 27.137
18.57126 -6.38 -1.22 23.9521
19.467180000000003 -6.44 -1.22 25.4453
19.467180000000003 -6.46 -1.22 25.4453
18.57126 2.28 -1.24 23.9521
19.467180000000003 -6.44 -1.24 25.4453
12.3522 2.28 -1.78 13.587
11.843340000000001 1.66 -1.84 12.7389
11.843340000000001 1.66 -1.86 12.7389
11.61198 1.68 -1.9 12.3533
11.18892 -5.9 -1.9 11.6482
11.394240000000002 1.68 -1.92 11.9904
11.18892 -5.34 -1.92 11.6482
11.18892 -5.36 -1.92 11.6482
11.394240000000002 1.68 -1.94 11.9904
10.472879999999998 1.76 -2.1 10.4548
10.472879999999998 1.74 -2.1 10.4548
10.472879999999998 1.76 -2.12 10.4548
10.472879999999998 1.76 -2.14 10.4548
10.316220000000001 1.78 -2.18 10.1937
10.16718 -6.08 -2.26 9.9453
10.025244 -6.16 -2.26 9.70874
9.637241999999999 1.78 -2.4 9.06207
9.297708 1.94 -2.46 8.49618
9.297708 1.94 -2.48 8.49618
9.297708 1.96 -2.5 8.49618
8.905884 2.04 -2.62 7.84314
8.905884 2.02 -2.62 7.84314
8.905884 2.04 -2.64 7.84314
8.905884 2.02 -2.64 7.84314
8.905884 2.0 -2.64 7.84314
8.419410000000001 3.34 -2.9 7.03235
8.347944 2.2 -2.96 6.91324
8.347944 2.18 -2.96 6.91324
8.27886 2.0 -2.96 6.7981
8.27886 1.98 -2.96 6.7981
8.212038 2.28 -3.0 6.68673
8.212038 2.28 -3.02 6.68673
8.212038 2.3 -3.04 6.68673
8.084754 2.32 -3.08 6.47459
8.024094 2.34 -3.1 6.37349
8.024094 2.32 -3.1 6.37349
8.024094 2.34 -3.12 6.37349
8.024094 2.36 -3.14 6.37349
7.908282 2.4 -3.2 6.18047
7.908282 2.42 -3.22 6.18047
7.908282 2.44 -3.24 6.18047
7.908282 2.44 -3.26 6.18047
7.8529680000000015 3.8 -3.28 6.08828
7.965294 4.6 -3.34 6.27549
7.747145999999999 4.58 -3.34 5.91191
7.747145999999999 4.52 -3.34 5.91191
7.965294 4.62 -3.36 6.27549
7.965294 4.6 -3.36 6.27549
7.7992799999999995 4.54 -3.36 5.9988
7.747145999999999 4.52 -3.36 5.91191
7.696506 2.54 -3.38 5.82751
7.696506 2.52 -3.38 5.82751
7.696506 2.5 -3.38 5.82751
7.696506 2.48 -3.38 5.82751
7.747145999999999 2.42 -3.38 5.91191
7.747145999999999 2.4 -3.38 5.91191
7.8529680000000015 2.38 -3.38 6.08828
7.8529680000000015 2.36 -3.38 6.08828
7.7992799999999995 2.34 -3.38 5.9988
7.747145999999999 2.32 -3.38 5.91191
7.696506 2.3 -3.38 5.82751
7.6472880000000005 2.28 -3.38 5.74548
7.6472880000000005 2.26 -3.38 5.74548
7.6472880000000005 2.24 -3.38 5.74548
7.696506 2.54 -3.4 5.82751
7.696506 2.52 -3.4 5.82751
7.696506 2.5 -3.4 5.82751
7.747145999999999 2.46 -3.4 5.91191
7.747145999999999 2.44 -3.4 5.91191
7.747145999999999 2.42 -3.4 5.91191
7.747145999999999 2.4 -3.4 5.91191
7.8529680000000015 2.38 -3.4 6.08828
7.8529680000000015 2.36 -3.4 6.08828
7.7992799999999995 2.34 -3.4 5.9988
7.747145999999999 2.32 -3.4 5.91191
7.696506 2.3 -3.4 5.82751
7.6472880000000005 2.28 -3.4 5.74548
7.6472880000000005 2.26 -3.4 5.74548
7.696506 2.52 -3.42 5.82751
7.599432 2.64 -3.46 5.66572
7.599432 2.62 -3.46 5.66572
7.507607999999999 3.4 -3.6 5.51268
7.463532 3.48 -3.62 5.43922
7.463532 3.46 -3.62 5.43922
7.463532 3.44 -3.62 5.43922
7.378806 3.56 -3.68 5.29801
7.378806 3.54 -3.68 5.29801
7.378806 3.52 -3.68 5.29801
7.298376 3.5 -3.68 5.16396
7.378806 3.54 -3.7 5.29801
7.378806 3.52 -3.7 5.29801
7.298376 3.36 -3.86 5.16396
7.149126 3.92 -3.88 4.91521
7.149126 3.3 -3.88 4.91521
7.149126 3.94 -3.9 4.91521
7.149126 3.92 -3.9 4.91521
7.114037999999999 3.52 -3.92 4.85673
7.114037999999999 3.5 -3.92 4.85673
7.114037999999999 3.44 -3.92 4.85673
7.114037999999999 3.5 -3.94 4.85673
7.114037999999999 3.48 -3.94 4.85673
7.114037999999999 3.46 -3.94 4.85673
7.114037999999999 3.44 -3.94 4.85673
7.149126 3.42 -3.94 4.91521
7.114037999999999 3.38 -3.94 4.85673
7.114037999999999 3.36 -3.94 4.85673
7.114037999999999 3.34 -3.94 4.85673
7.114037999999999 3.48 -3.96 4.85673
7.114037999999999 3.46 -3.96 4.85673
7.114037999999999 3.44 -3.96 4.85673
7.114037999999999 3.38 -3.96 4.85673
7.114037999999999 2.74 -4.0 4.85673
7.114037999999999 2.7 -4.0 4.85673
7.079772 2.68 -4.0 4.79962
7.079772 2.66 -4.0 4.79962
7.149126 2.94 -4.02 4.91521
7.149126 2.92 -4.02 4.91521
7.149126 2.9 -4.02 4.91521
7.149126 2.88 -4.02 4.91521
7.114037999999999 2.86 -4.02 4.85673
7.114037999999999 2.84 -4.02 4.85673
7.114037999999999 2.82 -4.02 4.85673
7.114037999999999 2.8 -4.02 4.85673
7.114037999999999 2.78 -4.02 4.85673
7.114037999999999 2.76 -4.02 4.85673
7.114037999999999 2.74 -4.02 4.85673
7.114037999999999 2.72 -4.02 4.85673
7.114037999999999 2.7 -4.02 4.85673
7.079772 2.68 -4.02 4.79962
7.079772 2.66 -4.02 4.79962
7.079772 2.64 -4.02 4.79962
7.079772 2.62 -4.02 4.79962
7.046298 2.6 -4.02 4.74383
6.9504 3.06 -4.14 4.584
6.9504 3.08 -4.16 4.584
7.013598 5.82 -4.22 4.68933
7.013598 5.82 -4.24 4.68933
6.860754 3.14 -4.24 4.43459
6.860754 3.12 -4.24 4.43459
6.860754 3.14 -4.26 4.43459
6.860754 3.16 -4.28 4.43459
6.981642 5.94 -4.3 4.63607
6.981642 5.94 -4.32 4.63607
6.804168 3.22 -4.36 4.34028
6.7499340000000005 3.28 -4.44 4.24989
6.7499340000000005 3.26 -4.44 4.24989
6.69792 3.32 -4.5 4.1632
6.69792 3.34 -4.52 4.1632
6.69792 4.7 -4.56 4.1632
6.69792 4.7 -4.58 4.1632
6.623754 3.48 -4.68 4.03959
6.623754 3.46 -4.68 4.03959
6.647982 -5.38 -4.68 4.07997
6.647982 -5.4 -4.68 4.07997
6.647982 -5.42 -4.68 4.07997
6.647982 -5.44 -4.68 4.07997
6.647982 -5.46 -4.68 4.07997
6.647982 -5.48 -4.68 4.07997
6.647982 -5.5 -4.68 4.07997
6.647982 -5.52 -4.68 4.07997
6.623754 -5.54 -4.68 4.03959
6.647982 -5.56 -4.68 4.07997
6.647982 -5.58 -4.68 4.07997
6.647982 -5.6 -4.68 4.07997
6.647982 -5.62 -4.68 4.07997
6.647982 -5.64 -4.68 4.07997
6.647982 -5.66 -4.68 4.07997
6.647982 -5.68 -4.68 4.07997
6.623754 -5.7 -4.68 4.03959
6.623754 -5.72 -4.68 4.03959
6.623754 -5.74 -4.68 4.03959
6.623754 -5.76 -4.68 4.03959
6.72366 4.92 -4.7 4.2061
6.72366 4.9 -4.7 4.2061
6.647982 -5.38 -4.7 4.07997
6.647982 -5.4 -4.7 4.07997
6.647982 -5.42 -4.7 4.07997
6.647982 -5.44 -4.7 4.07997
6.647982 -5.46 -4.7 4.07997
6.647982 -5.48 -4.7 4.07997
6.647982 -5.5 -4.7 4.07997
6.647982 -5.52 -4.7 4.07997
6.623754 -5.54 -4.7 4.03959
6.647982 -5.56 -4.7 4.07997
6.647982 -5.66 -4.7 4.07997
6.623754 -5.7 -4.7 4.03959
6.623754 -5.72 -4.7 4.03959
6.623754 -5.74 -4.7 4.03959
6.623754 -5.76 -4.7 4.03959
6.69792 -2.14 -4.72 4.1632
6.69792 -2.18 -4.74 4.1632
6.672695999999999 3.56 -4.84 4.12116
6.647982 3.56 -4.86 4.07997
6.647982 3.54 -4.86 4.07997
6.623754 3.24 -4.86 4.03959
6.623754 3.22 -4.86 4.03959
6.647982 3.58 -4.88 4.07997
6.647982 3.56 -4.88 4.07997
6.647982 3.54 -4.88 4.07997
6.623754 3.46 -4.88 4.03959
6.623754 3.44 -4.88 4.03959
6.623754 3.42 -4.88 4.03959
6.623754 3.4 -4.88 4.03959
6.623754 3.38 -4.88 4.03959
6.623754 3.36 -4.88 4.03959
6.623754 3.34 -4.88 4.03959
6.623754 3.32 -4.88 4.03959
6.623754 3.3 -4.88 4.03959
6.623754 3.28 -4.88 4.03959
6.623754 3.26 -4.88 4.03959
6.623754 3.24 -4.88 4.03959
6.623754 3.22 -4.88 4.03959
6.623754 3.2 -4.88 4.03959
6.623754 3.56 -4.9 4.03959
6.623754 3.54 -4.9 4.03959
6.623754 3.48 -4.9 4.03959
6.623754 3.46 -4.9 4.03959
6.623754 3.44 -4.9 4.03959
6.623754 3.42 -4.9 4.03959
6.623754 3.4 -4.9 4.03959
6.623754 3.38 -4.9 4.03959
6.623754 3.36 -4.9 4.03959
6.623754 3.34 -4.9 4.03959
6.623754 3.32 -4.9 4.03959
6.623754 3.54 -4.92 4.03959
6.623754 3.52 -4.92 4.03959
6.623754 4.14 -5.02 4.03959
6.623754 4.12 -5.02 4.03959
6.623754 4.16 -5.04 4.03959
6.647982 4.0 -5.04 4.07997
6.647982 3.98 -5.04 4.07997
6.623754 4.16 -5.08 4.03959
6.623754 4.94 -5.12 4.03959
0004.85673
7.114037999999999 3.36 -3.94 5000004.85673
7.114037999999999 3.34 -3.94 5000004.85673
7.114037999999999 3.48 -3.96 5000004.85673
7.114037999999999 3.46 -3.96 5000004.85673
7.114037999999999 3.44 -3.96 5000004.85673
7.114037999999999 3.38 -3.96 5000004.85673
7.114037999999999 2.74 -4.0 5000004.85673
7.114037999999999 2.7 -4.0 5000004.85673
7.079772 2.68 -4.0 5000004.79962
7.079772 2.66 -4.0 5000004.79962
7.149126 2.94 -4.02 5000004.91521
7.149126 2.92 -4.02 5000004.91521
7.149126 2.9 -4.02 5000004.91521
7.149126 2.88 -4.02 5000004.91521
7.114037999999999 2.86 -4.02 5000004.85673
7.114037999999999 2.84 -4.02 5000004.85673
7.114037999999999 2.82 -4.02 5000004.85673
7.114037999999999 2.8 -4.02 5000004.85673
7.114037999999999 2.78 -4.02 5000004.85673
7.114037999999999 2.76 -4.02 5000004.85673
7.114037999999999 2.74 -4.02 5000004.85673
7.114037999999999 2.72 -4.02 5000004.85673
7.114037999999999 2.7 -4.02 5000004.85673
7.079772 2.68 -4.02 5000004.79962
7.079772 2.66 -4.02 5000004.79962
7.079772 2.64 -4.02 5000004.79962
7.079772 2.62 -4.02 5000004.79962
7.046298 2.6 -4.02 5000004.74383
6.9504 3.06 -4.14 5000004.584
6.9504 3.08 -4.16 5000004.584
7.013598 5.82 -4.22 5000004.68933
7.013598 5.82 -4.24 5000004.68933
6.860754 3.14 -4.24 5000004.43459
6.860754 3.12 -4.24 5000004.43459
6.860754 3.14 -4.26 5000004.43459
6.860754 3.16 -4.28 5000004.43459
6.981642 5.94 -4.3 5000004.63607
6.981642 5.94 -4.32 5000004.63607
6.804168 3.22 -4.36 5000004.34028
6.7499340000000005 3.28 -4.44 5000004.24989
6.7499340000000005 3.26 -4.44 5000004.24989
6.69792 3.32 -4.5 5000004.1632
6.69792 3.34 -4.52 5000004.1632
6.69792 4.7 -4.56 5000004.1632
6.69792 4.7 -4.58 5000004.1632
6.623754 3.48 -4.68 5000004.03959
6.623754 3.46 -4.68 5000004.03959
6.647982 -5.38 -4.68 5000004.07997
6.647982 -5.4 -4.68 5000004.07997
6.647982 -5.42 -4.68 5000004.07997
6.647982 -5.44 -4.68 5000004.07997
6.647982 -5.46 -4.68 5000004.07997
6.647982 -5.48 -4.68 5000004.07997
6.647982 -5.5 -4.68 5000004.07997
6.647982 -5.52 -4.68 5000004.07997
6.623754 -5.54 -4.68 5000004.03959
6.647982 -5.56 -4.68 5000004.07997
6.647982 -5.58 -4.68 5000004.07997
6.647982 -5.6 -4.68 5000004.07997
6.647982 -5.62 -4.68 5000004.07997
6.647982 -5.64 -4.68 5000004.07997
6.647982 -5.66 -4.68 5000004.07997
6.647982 -5.68 -4.68 5000004.07997
6.623754 -5.7 -4.68 5000004.03959
6.623754 -5.72 -4.68 5000004.03959
6.623754 -5.74 -4.68 5000004.03959
6.623754 -5.76 -4.68 5000004.03959
6.72366 4.92 -4.7 5000004.2061
6.72366 4.9 -4.7 5000004.2061
6.647982 -5.38 -4.7 5000004.07997
6.647982 -5.4 -4.7 5000004.07997
6.647982 -5.42 -4.7 5000004.07997
6.647982 -5.44 -4.7 5000004.07997
6.647982 -5.46 -4.7 5000004.07997
6.647982 -5.48 -4.7 5000004.07997
6.647982 -5.5 -4.7 5000004.07997
6.647982 -5.52 -4.7 5000004.07997
6.623754 -5.54 -4.7 5000004.03959
6.647982 -5.56 -4.7 5000004.07997
6.647982 -5.66 -4.7 5000004.07997
6.623754 -5.7 -4.7 5000004.03959
6.623754 -5.72 -4.7 5000004.03959
6.623754 -5.74 -4.7 5000004.03959
6.623754 -5.76 -4.7 5000004.03959
6.69792 -2.14 -4.72 5000004.1632
6.69792 -2.18 -4.74 5000004.1632
6.672695999999999 3.56 -4.84 5000004.12116
6.647982 3.56 -4.86 5000004.07997
6.647982 3.54 -4.86 5000004.07997
6.623754 3.24 -4.86 5000004.03959
6.623754 3.22 -4.86 5000004.03959
6.647982 3.58 -4.88 5000004.07997
6.647982 3.56 -4.88 5000004.07997
6.647982 3.54 -4.88 5000004.07997
6.623754 3.46 -4.88 5000004.03959
6.623754 3.44 -4.88 5000004.03959
6.623754 3.42 -4.88 5000004.03959
6.623754 3.4 -4.88 5000004.03959
6.623754 3.38 -4.88 5000004.03959
6.623754 3.36 -4.88 5000004.03959
6.623754 3.34 -4.88 5000004.03959
6.623754 3.32 -4.88 5000004.03959
6.623754 3.3 -4.88 5000004.03959
6.623754 3.28 -4.88 5000004.03959
6.623754 3.26 -4.88 5000004.03959
6.623754 3.24 -4.88 5000004.03959
6.623754 3.22 -4.88 5000004.03959
6.623754 3.2 -4.88 5000004.03959
6.623754 3.56 -4.9 5000004.03959
6.623754 3.54 -4.9 5000004.03959
6.623754 3.48 -4.9 5000004.03959
6.623754 3.46 -4.9 5000004.03959
6.623754 3.44 -4.9 5000004.03959
6.623754 3.42 -4.9 5000004.03959
6.623754 3.4 -4.9 5000004.03959
6.623754 3.38 -4.9 5000004.03959
6.623754 3.36 -4.9 5000004.03959
6.623754 3.34 -4.9 5000004.03959
6.623754 3.32 -4.9 5000004.03959
6.623754 3.54 -4.92 5000004.03959
6.623754 3.52 -4.92 5000004.03959
6.623754 4.14 -5.02 5000004.03959
6.623754 4.12 -5.02 5000004.03959
6.623754 4.16 -5.04 5000004.03959
6.647982 4.0 -5.04 5000004.07997
6.647982 3.98 -5.04 5000004.07997
6.623754 4.16 -5.08 5000004.03959
6.623754 4.94 -5.12 5000004.03959
.1632
7.648464000000001 3.56 -4.84 5000004.12116
7.631988 3.56 -4.86 5000004.07997
7.631988 3.54 -4.86 5000004.07997
7.615836 3.24 -4.86 5000004.03959
7.615836 3.22 -4.86 5000004.03959
7.631988 3.58 -4.88 5000004.07997
7.631988 3.56 -4.88 5000004.07997
7.631988 3.54 -4.88 5000004.07997
7.615836 3.46 -4.88 5000004.03959
7.615836 3.44 -4.88 5000004.03959
7.615836 3.42 -4.88 5000004.03959
7.615836 3.4 -4.88 5000004.03959
7.615836 3.38 -4.88 5000004.03959
7.615836 3.36 -4.88 5000004.03959
7.615836 3.34 -4.88 5000004.03959
7.615836 3.32 -4.88 5000004.03959
7.615836 3.3 -4.88 5000004.03959
7.615836 3.28 -4.88 5000004.03959
7.615836 3.26 -4.88 5000004.03959
7.615836 3.24 -4.88 5000004.03959
7.615836 3.22 -4.88 5000004.03959
7.615836 3.2 -4.88 5000004.03959
7.615836 3.56 -4.9 5000004.03959
7.615836 3.54 -4.9 5000004.03959
7.615836 3.48 -4.9 5000004.03959
7.615836 3.46 -4.9 5000004.03959
7.615836 3.44 -4.9 5000004.03959
7.615836 3.42 -4.9 5000004.03959
7.615836 3.4 -4.9 5000004.03959
7.615836 3.38 -4.9 5000004.03959
7.615836 3.36 -4.9 5000004.03959
7.615836 3.34 -4.9 5000004.03959
7.615836 3.32 -4.9 5000004.03959
7.615836 3.54 -4.92 5000004.03959
7.615836 3.52 -4.92 5000004.03959
7.615836 4.14 -5.02 5000004.03959
7.615836 4.12 -5.02 5000004.03959
7.615836 4.16 -5.04 5000004.03959
7.631988 4.0 -5.04 5000004.07997
7.631988 3.98 -5.04 5000004.07997
7.615836 4.16 -5.08 5000004.03959
7.615836 4.94 -5.12 5000004.03959
 5000004.07997
1.6158359999999998 0.16 -5.08 5000004.03959
1.6158359999999998 0.94 -5.12 5000004.03959
76666666667 -2.3333333333333335 2.4 5000025.4453
11.043296666666667 -17.433333333333334 2.4 5000031.2989
11.932366666666667 3.0 2.3666666666666667 5000057.971
11.932366666666667 2.933333333333333 2.3666666666666667 5000057.971
11.932366666666667 2.7666666666666666 2.3666666666666667 5000057.971
11.932366666666667 2.066666666666667 2.3666666666666667 5000057.971
10.848176666666667 -2.3333333333333335 2.3666666666666667 5000025.4453
11.043296666666667 -17.433333333333334 2.3666666666666667 5000031.2989
11.932366666666667 2.033333333333333 2.3333333333333335 5000057.971
10.968993333333334 1.6666666666666667 2.3333333333333335 5000029.0698
10.848176666666667 -2.3333333333333335 2.3333333333333335 5000025.4453
11.932366666666667 3.0 2.3 5000057.971
11.932366666666667 2.033333333333333 2.3 5000057.971
10.848176666666667 -2.3333333333333335 2.3 5000025.4453
11.50489 -3.466666666666667 2.3 5000045.1467
11.692046666666666 2.0 2.2666666666666666 5000050.7614
11.692046666666666 0.3333333333333333 2.2666666666666666 5000050.7614
11.50489 -0.8666666666666667 2.2666666666666666 5000045.1467
11.50489 -0.9 2.2666666666666666 5000045.1467
10.848176666666667 -2.3333333333333335 2.2666666666666666 5000025.4453
11.50489 -2.6666666666666665 2.2666666666666666 5000045.1467
11.50489 -2.7 2.2666666666666666 5000045.1467
11.692046666666666 2.0 2.2333333333333334 5000050.7614
11.692046666666666 1.9666666666666666 2.2333333333333334 5000050.7614
11.692046666666666 0.3333333333333333 2.2333333333333334 5000050.7614
11.50489 -0.8666666666666667 2.2333333333333334 5000045.1467
11.50489 -2.1666666666666665 2.2333333333333334 5000045.1467
10.848176666666667 -2.3333333333333335 2.2333333333333334 5000025.4453
11.932366666666667 2.3333333333333335 2.2 5000057.971
11.932366666666667 2.2666666666666666 2.2 5000057.971
11.692046666666666 2.0 2.2 5000050.7614
11.692046666666666 1.9666666666666666 2.2 5000050.7614
11.692046666666666 1.5333333333333334 2.2 5000050.7614
11.692046666666666 -0.7 2.2 5000050.7614
11.932366666666667 2.3333333333333335 2.1666666666666665 5000057.971
11.932366666666667 2.2666666666666666 2.1666666666666665 5000057.971
11.692046666666666 1.9666666666666666 2.1666666666666665 5000050.7614
11.932366666666667 2.2666666666666666 2.1333333333333333 5000057.971
11.692046666666666 1.9666666666666666 2.1333333333333333 5000050.7614
10.968993333333334 1.8666666666666667 2.1333333333333333 5000029.0698
11.692046666666666 1.5 2.1333333333333333 5000050.7614
11.50489 -2.066666666666667 2.1333333333333333 5000045.1467
10.968993333333334 1.8666666666666667 2.1 5000029.0698
10.968993333333334 1.8333333333333333 2.1 5000029.0698
10.968993333333334 1.6666666666666667 2.1 5000029.0698
10.848176666666667 -2.3333333333333335 2.1 5000025.4453
11.355013333333334 -3.566666666666667 2.1 5000040.6504
10.968993333333334 1.8666666666666667 2.066666666666667 5000029.0698
10.968993333333334 1.8333333333333333 2.066666666666667 5000029.0698
10.968993333333334 1.6666666666666667 2.066666666666667 5000029.0698
11.692046666666666 0.13333333333333333 2.066666666666667 5000050.7614
10.848176666666667 -2.3333333333333335 2.066666666666667 5000025.4453
10.904566666666666 -2.466666666666667 2.066666666666667 5000027.137
10.968993333333334 1.6666666666666667 2.033333333333333 5000029.0698
11.692046666666666 0.13333333333333333 2.033333333333333 5000050.7614
11.692046666666666 0.03333333333333333 2.033333333333333 5000050.7614
11.50489 -0.4 2.033333333333333 5000045.1467
10.848176666666667 -2.3333333333333335 2.033333333333333 5000025.4453
11.692046666666666 0.13333333333333333 2.0 5000050.7614
11.692046666666666 0.03333333333333333 2.0 5000050.7614
11.50489 -0.4 2.0 5000045.1467
11.692046666666666 -0.5 2.0 5000050.7614
11.50489 -1.5333333333333334 2.0 5000045.1467
11.355013333333334 -2.2 2.0 5000040.6504
10.848176666666667 -2.3333333333333335 2.0 5000025.4453
11.232286666666667 -3.7 2.0 5000036.9686
11.50489 0.13333333333333333 1.9666666666666666 5000045.1467
11.692046666666666 0.03333333333333333 1.9666666666666666 5000050.7614
11.50489 -0.36666666666666664 1.9666666666666666 5000045.1467
11.50489 -0.4 1.9666666666666666 5000045.1467
11.692046666666666 -0.5 1.9666666666666666 5000050.7614
11.50489 -0.4 1.9333333333333333 5000045.1467
11.692046666666666 -0.5 1.9333333333333333 5000050.7614
11.355013333333334 -2.1666666666666665 1.9333333333333333 5000040.6504
11.355013333333334 -3.0 1.9333333333333333 5000040.6504
11.355013333333334 -2.1666666666666665 1.9 5000040.6504
11.355013333333334 -3.0 1.9 5000040.6504
11.355013333333334 -3.1666666666666665 1.9 5000040.6504
11.355013333333334 -3.7666666666666666 1.9 5000040.6504
11.355013333333334 -2.1666666666666665 1.8666666666666667 5000040.6504
11.355013333333334 -2.2 1.8666666666666667 5000040.6504
11.355013333333334 -2.966666666666667 1.8666666666666667 5000040.6504
11.355013333333334 -3.7333333333333334 1.8666666666666667 5000040.6504
11.355013333333334 -3.7666666666666666 1.8666666666666667 5000040.6504
11.232286666666667 -4.6 1.8666666666666667 5000036.9686
11.232286666666667 -5.133333333333334 1.8666666666666667 5000036.9686
11.232286666666667 -5.166666666666667 1.8666666666666667 5000036.9686
11.355013333333334 -2.1666666666666665 1.8333333333333333 5000040.6504
11.355013333333334 -2.2 1.8333333333333333 5000040.6504
10.848176666666667 -2.5 1.8333333333333333 5000025.4453
11.355013333333334 -2.966666666666667 1.8333333333333333 5000040.6504
11.355013333333334 -3.7333333333333334 1.8333333333333333 5000040.6504
11.232286666666667 -4.6 1.8333333333333333 5000036.9686
10.848176666666667 -2.3333333333333335 1.8 5000025.4453
11.355013333333334 -2.966666666666667 1.8 5000040.6504
11.355013333333334 -3.0 1.8 5000040.6504
11.355013333333334 -3.7333333333333334 1.8 5000040.6504
11.232286666666667 -4.566666666666666 1.8 5000036.9686
11.355013333333334 -3.0 1.7666666666666666 5000040.6504
11.355013333333334 -3.7333333333333334 1.7666666666666666 5000040.6504
11.232286666666667 -4.566666666666666 1.7666666666666666 5000036.9686
10.968993333333334 1.8333333333333333 1.7333333333333334 5000029.0698
11.232286666666667 -4.566666666666666 1.7333333333333334 5000036.9686
10.848176666666667 -15.666666666666666 1.7333333333333334 5000025.4453
10.848176666666667 -15.7 1.7333333333333334 5000025.4453
11.355013333333334 -5.366666666666666 1.7 5000040.6504
10.848176666666667 -14.5 1.4666666666666666 5000025.4453
10.904566666666666 -14.866666666666667 1.3 5000027.137
10.904566666666666 -14.9 1.3 5000027.137
10.798403333333333 -17.3 1.3 5000023.9521
10.848176666666667 -17.4 1.3 5000025.4453
10.848176666666667 -17.433333333333334 1.3 5000025.4453
10.798403333333333 -2.8666666666666667 1.2666666666666666 5000023.9521
10.848176666666667 -17.4 1.2666666666666666 5000025.4453
10.4529 -2.8666666666666667 0.36666666666666664 5000013.587
10.42463 -3.9 0.26666666666666666 5000012.7389
10.42463 -3.9 0.23333333333333334 5000012.7389
10.411776666666666 -3.8666666666666667 0.16666666666666666 5000012.3533
10.388273333333334 -16.5 0.16666666666666666 5000011.6482
10.39968 -3.8666666666666667 0.13333333333333333 5000011.9904
10.388273333333334 -15.566666666666666 0.13333333333333333 5000011.6482
10.388273333333334 -15.6 0.13333333333333333 5000011.6482
10.39968 -3.8666666666666667 0.1 5000011.9904
10.348493333333334 -3.7333333333333334 -0.16666666666666666 5000010.4548
10.348493333333334 -3.7666666666666666 -0.16666666666666666 5000010.4548
10.348493333333334 -3.7333333333333334 -0.2 5000010.4548
10.348493333333334 -3.7333333333333334 -0.23333333333333334 5000010.4548
10.33979 -3.7 -0.3 5000010.1937
10.33151 -16.8 -0.43333333333333335 5000009.9453
10.323624666666667 -16.933333333333334 -0.43333333333333335 5000009.70874
10.302069 -3.7 -0.6666666666666666 5000009.06207
10.283206 -3.433333333333333 -0.7666666666666667 5000008.49618
10.283206 -3.433333333333333 -0.8 5000008.49618
10.283206 -3.4 -0.8333333333333334 5000008.49618
10.261438 -3.2666666666666666 -1.0333333333333334 5000007.84314
10.261438 -3.3 -1.0333333333333334 5000007.84314
10.261438 -3.2666666666666666 -1.0666666666666667 5000007.84314
10.261438 -3.3 -1.0666666666666667 5000007.84314
10.261438 -3.3333333333333335 -1.0666666666666667 5000007.84314
10.234411666666666 -1.1 -1.5 5000007.03235
10.230441333333333 -3.0 -1.6 5000006.91324
10.230441333333333 -3.033333333333333 -1.6 5000006.91324
10.226603333333333 -3.3333333333333335 -1.6 5000006.7981
10.226603333333333 -3.3666666666666667 -1.6 5000006.7981
10.222891 -2.8666666666666667 -1.6666666666666667 5000006.68673
10.222891 -2.8666666666666667 -1.7 5000006.68673
10.222891 -2.8333333333333335 -1.7333333333333334 5000006.68673
10.215819666666667 -2.8 -1.8 5000006.47459
10.212449666666666 -2.7666666666666666 -1.8333333333333333 5000006.37349
10.212449666666666 -2.8 -1.8333333333333333 5000006.37349
10.212449666666666 -2.7666666666666666 -1.8666666666666667 5000006.37349
10.212449666666666 -2.7333333333333334 -1.9 5000006.37349
10.206015666666667 -2.6666666666666665 -2.0 5000006.18047
10.206015666666667 -2.6333333333333333 -2.033333333333333 5000006.18047
10.206015666666667 -2.6 -2.066666666666667 5000006.18047
10.206015666666667 -2.6 -2.1 5000006.18047
10.202942666666667 -0.3333333333333333 -2.1333333333333333 5000006.08828
10.209183 1.0 -2.2333333333333334 5000006.27549
10.197063666666667 0.9666666666666667 -2.2333333333333334 5000005.91191
10.197063666666667 0.8666666666666667 -2.2333333333333334 5000005.91191
10.209183 1.0333333333333334 -2.2666666666666666 5000006.27549
10.209183 1.0 -2.2666666666666666 5000006.27549
10.19996 0.9 -2.2666666666666666 5000005.9988
10.197063666666667 0.8666666666666667 -2.2666666666666666 5000005.91191
10.194250333333333 -2.433333333333333 -2.3 5000005.82751
10.194250333333333 -2.466666666666667 -2.3 5000005.82751
10.194250333333333 -2.5 -2.3 5000005.82751
10.194250333333333 -2.533333333333333 -2.3 5000005.82751
10.197063666666667 -2.6333333333333333 -2.3 5000005.91191
10.197063666666667 -2.6666666666666665 -2.3 5000005.91191
10.202942666666667 -2.7 -2.3 5000006.08828
10.202942666666667 -2.7333333333333334 -2.3 5000006.08828
10.19996 -2.7666666666666666 -2.3 5000005.9988
10.197063666666667 -2.8 -2.3 5000005.91191
10.194250333333333 -2.8333333333333335 -2.3 5000005.82751
10.191516 -2.8666666666666667 -2.3 5000005.74548
10.191516 -2.9 -2.3 5000005.74548
10.191516 -2.933333333333333 -2.3 5000005.74548
10.194250333333333 -2.433333333333333 -2.3333333333333335 5000005.82751
10.194250333333333 -2.466666666666667 -2.3333333333333335 5000005.82751
10.194250333333333 -2.5 -2.3333333333333335 5000005.82751
10.197063666666667 -2.566666666666667 -2.3333333333333335 5000005.91191
10.197063666666667 -2.6 -2.3333333333333335 5000005.91191
10.197063666666667 -2.6333333333333333 -2.3333333333333335 5000005.91191
10.197063666666667 -2.6666666666666665 -2.3333333333333335 5000005.91191
10.202942666666667 -2.7 -2.3333333333333335 5000006.08828
10.202942666666667 -2.7333333333333334 -2.3333333333333335 5000006.08828
10.19996 -2.7666666666666666 -2.3333333333333335 5000005.9988
10.197063666666667 -2.8 -2.3333333333333335 5000005.91191
10.194250333333333 -2.8333333333333335 -2.3333333333333335 5000005.82751
10.191516 -2.8666666666666667 -2.3333333333333335 5000005.74548
10.191516 -2.9 -2.3333333333333335 5000005.74548
10.194250333333333 -2.466666666666667 -2.3666666666666667 5000005.82751
10.188857333333333 -2.2666666666666666 -2.433333333333333 5000005.66572
10.188857333333333 -2.3 -2.433333333333333 5000005.66572
10.183756 -1.0 -2.6666666666666665 5000005.51268
10.181307333333333 -0.8666666666666667 -2.7 5000005.43922
10.181307333333333 -0.9 -2.7 5000005.43922
10.181307333333333 -0.9333333333333333 -2.7 5000005.43922
10.176600333333333 -0.7333333333333333 -2.8 5000005.29801
10.176600333333333 -0.7666666666666667 -2.8 5000005.29801
10.176600333333333 -0.8 -2.8 5000005.29801
10.172132 -0.8333333333333334 -2.8 5000005.16396
10.176600333333333 -0.7666666666666667 -2.8333333333333335 5000005.29801
10.176600333333333 -0.8 -2.8333333333333335 5000005.29801
10.172132 -1.0666666666666667 -3.1 5000005.16396
10.163840333333333 -0.13333333333333333 -3.1333333333333333 5000004.91521
10.163840333333333 -1.1666666666666667 -3.1333333333333333 5000004.91521
10.163840333333333 -0.1 -3.1666666666666665 5000004.91521
10.163840333333333 -0.13333333333333333 -3.1666666666666665 5000004.91521
10.161891 -0.8 -3.2 5000004.85673
10.161891 -0.8333333333333334 -3.2 5000004.85673
10.161891 -0.9333333333333333 -3.2 5000004.85673
10.161891 -0.8333333333333334 -3.2333333333333334 5000004.85673
10.161891 -0.8666666666666667 -3.2333333333333334 5000004.85673
10.161891 -0.9 -3.2333333333333334 5000004.85673
10.161891 -0.9333333333333333 -3.2333333333333334 5000004.85673
10.163840333333333 -0.9666666666666667 -3.2333333333333334 5000004.91521
10.161891 -1.0333333333333334 -3.2333333333333334 5000004.85673
10.161891 -1.0666666666666667 -3.2333333333333334 5000004.85673
10.161891 -1.1 -3.2333333333333334 5000004.85673
10.161891 -0.8666666666666667 -3.2666666666666666 5000004.85673
10.161891 -0.9 -3.2666666666666666 5000004.85673
10.161891 -0.9333333333333333 -3.2666666666666666 5000004.85673
10.161891 -1.0333333333333334 -3.2666666666666666 5000004.85673
10.161891 -2.1 -3.3333333333333335 5000004.85673
10.161891 -2.1666666666666665 -3.3333333333333335 5000004.85673
10.159987333333333 -2.2 -3.3333333333333335 5000004.79962
10.159987333333333 -2.2333333333333334 -3.3333333333333335 5000004.79962
10.163840333333333 -1.7666666666666666 -3.3666666666666667 5000004.91521
10.163840333333333 -1.8 -3.3666666666666667 5000004.91521
10.163840333333333 -1.8333333333333333 -3.3666666666666667 5000004.91521
10.163840333333333 -1.8666666666666667 -3.3666666666666667 5000004.91521
10.161891 -1.9 -3.3666666666666667 5000004.85673
10.161891 -1.9333333333333333 -3.3666666666666667 5000004.85673
10.161891 -1.9666666666666666 -3.3666666666666667 5000004.85673
10.161891 -2.0 -3.3666666666666667 5000004.85673
10.161891 -2.033333333333333 -3.3666666666666667 5000004.85673
10.161891 -2.066666666666667 -3.3666666666666667 5000004.85673
10.161891 -2.1 -3.3666666666666667 5000004.85673
10.161891 -2.1333333333333333 -3.3666666666666667 5000004.85673
10.161891 -2.1666666666666665 -3.3666666666666667 5000004.85673
10.159987333333333 -2.2 -3.3666666666666667 5000004.79962
10.159987333333333 -2.2333333333333334 -3.3666666666666667 5000004.79962
10.159987333333333 -2.2666666666666666 -3.3666666666666667 5000004.79962
10.159987333333333 -2.3 -3.3666666666666667 5000004.79962
10.158127666666667 -2.3333333333333335 -3.3666666666666667 5000004.74383
10.1528 -1.5666666666666667 -3.566666666666667 5000004.584
10.1528 -1.5333333333333334 -3.6 5000004.584
10.156311 3.033333333333333 -3.7 5000004.68933
10.156311 3.033333333333333 -3.7333333333333334 5000004.68933
10.147819666666667 -1.4333333333333333 -3.7333333333333334 5000004.43459
10.147819666666667 -1.4666666666666666 -3.7333333333333334 5000004.43459
10.147819666666667 -1.4333333333333333 -3.7666666666666666 5000004.43459
10.147819666666667 -1.4 -3.8 5000004.43459
10.154535666666666 3.2333333333333334 -3.8333333333333335 5000004.63607
10.154535666666666 3.2333333333333334 -3.8666666666666667 5000004.63607
10.144676 -1.3 -3.933333333333333 5000004.34028
10.141663 -1.2 -4.066666666666666 5000004.24989
10.141663 -1.2333333333333334 -4.066666666666666 5000004.24989
10.138773333333333 -1.1333333333333333 -4.166666666666667 5000004.1632
10.138773333333333 -1.1 -4.2 5000004.1632
10.138773333333333 1.1666666666666667 -4.266666666666667 5000004.1632
10.138773333333333 1.1666666666666667 -4.3 5000004.1632
10.134653 -0.8666666666666667 -4.466666666666667 5000004.03959
10.134653 -0.9 -4.466666666666667 5000004.03959
10.135999 -15.633333333333333 -4.466666666666667 5000004.07997
10.135999 -15.666666666666666 -4.466666666666667 5000004.07997
10.135999 -15.7 -4.466666666666667 5000004.07997
10.135999 -15.733333333333333 -4.466666666666667 5000004.07997
10.135999 -15.766666666666667 -4.466666666666667 5000004.07997
10.135999 -15.8 -4.466666666666667 5000004.07997
10.135999 -15.833333333333334 -4.466666666666667 5000004.07997
10.135999 -15.866666666666667 -4.466666666666667 5000004.07997
10.134653 -15.9 -4.466666666666667 5000004.03959
10.135999 -15.933333333333334 -4.466666666666667 5000004.07997
10.135999 -15.966666666666667 -4.466666666666667 5000004.07997
10.135999 -16.0 -4.466666666666667 5000004.07997
10.135999 -16.033333333333335 -4.466666666666667 5000004.07997
10.135999 -16.066666666666666 -4.466666666666667 5000004.07997
10.135999 -16.1 -4.466666666666667 5000004.07997
10.135999 -16.133333333333333 -4.466666666666667 5000004.07997
10.134653 -16.166666666666668 -4.466666666666667 5000004.03959
10.134653 -16.2 -4.466666666666667 5000004.03959
10.134653 -16.233333333333334 -4.466666666666667 5000004.03959
10.134653 -16.266666666666666 -4.466666666666667 5000004.03959
10.140203333333334 1.5333333333333334 -4.5 5000004.2061
10.140203333333334 1.5 -4.5 5000004.2061
10.135999 -15.633333333333333 -4.5 5000004.07997
10.135999 -15.666666666666666 -4.5 5000004.07997
10.135999 -15.7 -4.5 5000004.07997
10.135999 -15.733333333333333 -4.5 5000004.07997
10.135999 -15.766666666666667 -4.5 5000004.07997
10.135999 -15.8 -4.5 5000004.07997
10.135999 -15.833333333333334 -4.5 5000004.07997
10.135999 -15.866666666666667 -4.5 5000004.07997
10.134653 -15.9 -4.5 5000004.03959
10.135999 -15.933333333333334 -4.5 5000004.07997
10.135999 -16.1 -4.5 5000004.07997
10.134653 -16.166666666666668 -4.5 5000004.03959
10.134653 -16.2 -4.5 5000004.03959
10.134653 -16.233333333333334 -4.5 5000004.03959
10.134653 -16.266666666666666 -4.5 5000004.03959
10.138773333333333 -10.233333333333333 -4.533333333333333 5000004.1632
10.138773333333333 -10.3 -4.566666666666666 5000004.1632
10.137372 -0.7333333333333333 -4.733333333333333 5000004.12116
10.135999 -0.7333333333333333 -4.766666666666667 5000004.07997
10.135999 -0.7666666666666667 -4.766666666666667 5000004.07997
10.134653 -1.2666666666666666 -4.766666666666667 5000004.03959
10.134653 -1.3 -4.766666666666667 5000004.03959
10.135999 -0.7 -4.8 5000004.07997
10.135999 -0.7333333333333333 -4.8 5000004.07997
10.135999 -0.7666666666666667 -4.8 5000004.07997
10.134653 -0.9 -4.8 5000004.03959
10.134653 -0.9333333333333333 -4.8 5000004.03959
10.134653 -0.9666666666666667 -4.8 5000004.03959
10.134653 -1.0 -4.8 5000004.03959
10.134653 -1.0333333333333334 -4.8 5000004.03959
10.134653 -1.0666666666666667 -4.8 5000004.03959
10.134653 -1.1 -4.8 5000004.03959
10.134653 -1.1333333333333333 -4.8 5000004.03959
10.134653 -1.1666666666666667 -4.8 5000004.03959
10.134653 -1.2 -4.8 5000004.03959
10.134653 -1.2333333333333334 -4.8 5000004.03959
