VERSION .7
FIELDS x y z rgb
SIZE 4 4 4 4
TYPE F F F F
COUNT 1 1 1 1
WIDTH 1146
HEIGHT 1
VIEWPOINT 0 0 0 1 0 0 0
POINTS 1146
DATA ascii
19.467180000000003 2.9 0.84 5000025.4453
20.4822 5.28 0.82 5000027.137
21.64188 5.16 0.82 5000029.0698
34.65684 4.0 0.82 5000050.7614
19.467180000000003 2.92 0.82 5000025.4453
19.467180000000003 2.9 0.82 5000025.4453
20.4822 5.28 0.8 5000027.137
21.64188 5.16 0.8 5000029.0698
38.9826 4.78 0.8 5000057.971
34.65684 4.02 0.8 5000050.7614
34.65684 4.0 0.8 5000050.7614
19.467180000000003 2.92 0.8 5000025.4453
19.467180000000003 2.9 0.8 5000025.4453
31.28802 1.74 0.8 5000045.1467
34.65684 1.44 0.8 5000050.7614
20.4822 5.28 0.78 5000027.137
21.64188 5.16 0.78 5000029.0698
38.9826 4.78 0.78 5000057.971
34.65684 4.02 0.78 5000050.7614
34.65684 4.0 0.78 5000050.7614
19.467180000000003 2.92 0.78 5000025.4453
19.467180000000003 2.9 0.78 5000025.4453
19.467180000000003 2.78 0.78 5000025.4453
19.467180000000003 2.76 0.78 5000025.4453
31.28802 1.74 0.78 5000045.1467
34.65684 1.44 0.78 5000050.7614
21.64188 -4.08 0.78 5000029.0698
21.64188 -4.1 0.78 5000029.0698
20.4822 5.28 0.76 5000027.137
21.64188 5.16 0.76 5000029.0698
38.9826 4.78 0.76 5000057.971
34.65684 4.0 0.76 5000050.7614
18.57126 2.92 0.76 5000023.9521
18.57126 2.9 0.76 5000023.9521
19.467180000000003 2.78 0.76 5000025.4453
19.467180000000003 2.76 0.76 5000025.4453
31.28802 1.74 0.76 5000045.1467
34.65684 1.44 0.76 5000050.7614
21.64188 -4.1 0.76 5000029.0698
20.4822 5.28 0.74 5000027.137
21.64188 5.16 0.74 5000029.0698
38.9826 4.78 0.74 5000057.971
34.65684 4.0 0.74 5000050.7614
18.57126 2.92 0.74 5000023.9521
18.57126 2.9 0.74 5000023.9521
19.467180000000003 2.78 0.74 5000025.4453
20.4822 5.28 0.72 5000027.137
38.9826 4.78 0.72 5000057.971
18.57126 2.92 0.72 5000023.9521
18.57126 2.9 0.72 5000023.9521
19.467180000000003 2.78 0.72 5000025.4453
34.65684 1.44 0.72 5000050.7614
20.4822 5.28 0.7 5000027.137
21.64188 5.16 0.7 5000029.0698
38.9826 4.8 0.7 5000057.971
18.57126 2.92 0.7 5000023.9521
18.57126 2.9 0.7 5000023.9521
19.467180000000003 2.78 0.7 5000025.4453
34.65684 -3.14 0.7 5000050.7614
20.4822 5.28 0.68 5000027.137
21.64188 5.16 0.68 5000029.0698
18.57126 2.92 0.68 5000023.9521
18.57126 2.9 0.68 5000023.9521
34.65684 1.44 0.68 5000050.7614
20.4822 5.28 0.66 5000027.137
21.64188 5.16 0.66 5000029.0698
19.467180000000003 2.92 0.66 5000025.4453
19.467180000000003 2.9 0.66 5000025.4453
19.467180000000003 2.76 0.66 5000025.4453
31.28802 1.72 0.66 5000045.1467
20.4822 5.28 0.64 5000027.137
21.64188 5.16 0.64 5000029.0698
38.9826 4.8 0.64 5000057.971
38.9826 4.78 0.64 5000057.971
19.467180000000003 2.9 0.64 5000025.4453
19.467180000000003 2.74 0.64 5000025.4453
20.4822 5.28 0.62 5000027.137
21.64188 5.16 0.62 5000029.0698
44.74056 4.8 0.62 5000067.5676
44.74056 4.78 0.62 5000067.5676
38.9826 3.96 0.62 5000057.971
19.467180000000003 2.9 0.62 5000025.4453
20.4822 5.28 0.6 5000027.137
21.64188 5.16 0.6 5000029.0698
44.74056 4.8 0.6 5000067.5676
38.9826 3.96 0.6 5000057.971
19.467180000000003 2.9 0.6 5000025.4453
26.38116 0.22 0.6 5000036.9686
20.4822 5.28 0.58 5000027.137
21.64188 5.16 0.58 5000029.0698
44.74056 4.8 0.58 5000067.5676
19.467180000000003 2.9 0.58 5000025.4453
19.467180000000003 2.78 0.58 5000025.4453
28.590239999999998 1.7 0.58 5000040.6504
20.4822 5.28 0.56 5000027.137
21.64188 5.16 0.56 5000029.0698
44.74056 4.8 0.56 5000067.5676
19.467180000000003 2.9 0.56 5000025.4453
19.467180000000003 2.78 0.56 5000025.4453
19.467180000000003 2.66 0.56 5000025.4453
20.4822 5.4 0.54 5000027.137
20.4822 5.28 0.54 5000027.137
21.64188 5.16 0.54 5000029.0698
44.74056 4.8 0.54 5000067.5676
19.467180000000003 2.9 0.54 5000025.4453
19.467180000000003 2.78 0.54 5000025.4453
19.467180000000003 2.66 0.54 5000025.4453
26.38116 0.24 0.54 5000036.9686
20.4822 5.28 0.52 5000027.137
21.64188 5.16 0.52 5000029.0698
44.74056 3.76 0.52 5000067.5676
19.467180000000003 2.92 0.52 5000025.4453
19.467180000000003 2.9 0.52 5000025.4453
19.467180000000003 2.78 0.52 5000025.4453
19.467180000000003 2.66 0.52 5000025.4453
19.467180000000003 2.64 0.52 5000025.4453
20.4822 5.28 0.5 5000027.137
20.4822 5.26 0.5 5000027.137
21.64188 5.16 0.5 5000029.0698
19.467180000000003 2.92 0.5 5000025.4453
19.467180000000003 2.9 0.5 5000025.4453
19.467180000000003 2.78 0.5 5000025.4453
19.467180000000003 2.64 0.5 5000025.4453
20.4822 5.28 0.48 5000027.137
21.64188 5.16 0.48 5000029.0698
38.9826 4.78 0.48 5000057.971
19.467180000000003 2.9 0.48 5000025.4453
19.467180000000003 2.78 0.48 5000025.4453
19.467180000000003 2.64 0.48 5000025.4453
20.4822 5.28 0.46 5000027.137
21.64188 5.16 0.46 5000029.0698
38.9826 4.78 0.46 5000057.971
19.467180000000003 2.92 0.46 5000025.4453
19.467180000000003 2.9 0.46 5000025.4453
19.467180000000003 2.78 0.46 5000025.4453
19.467180000000003 2.66 0.46 5000025.4453
19.467180000000003 2.64 0.46 5000025.4453
28.590239999999998 0.22 0.46 5000040.6504
20.4822 5.28 0.44 5000027.137
21.64188 5.16 0.44 5000029.0698
38.9826 4.78 0.44 5000057.971
19.467180000000003 2.9 0.44 5000025.4453
19.467180000000003 2.64 0.44 5000025.4453
20.4822 5.28 0.42 5000027.137
21.64188 5.16 0.42 5000029.0698
38.9826 4.78 0.42 5000057.971
34.65684 3.98 0.42 5000050.7614
19.467180000000003 2.9 0.42 5000025.4453
38.9826 2.28 0.42 5000057.971
31.28802 1.72 0.42 5000045.1467
28.590239999999998 0.24 0.42 5000040.6504
20.4822 5.28 0.4 5000027.137
21.64188 5.16 0.4 5000029.0698
38.9826 4.78 0.4 5000057.971
31.28802 1.72 0.4 5000045.1467
20.4822 5.28 0.38 5000027.137
21.64188 5.16 0.38 5000029.0698
38.9826 4.78 0.38 5000057.971
20.4822 5.28 0.36 5000027.137
21.64188 5.16 0.36 5000029.0698
21.64188 5.14 0.36 5000029.0698
38.9826 4.78 0.36 5000057.971
20.4822 5.28 0.34 5000027.137
21.64188 5.16 0.34 5000029.0698
38.9826 4.78 0.34 5000057.971
20.4822 5.28 0.32 5000027.137
21.64188 5.16 0.32 5000029.0698
38.9826 4.8 0.32 5000057.971
34.65684 3.98 0.32 5000050.7614
34.65684 3.96 0.32 5000050.7614
34.65684 1.72 0.32 5000050.7614
21.64188 5.4 0.3 5000029.0698
20.4822 5.28 0.3 5000027.137
21.64188 5.16 0.3 5000029.0698
38.9826 4.8 0.3 5000057.971
34.65684 3.98 0.3 5000050.7614
34.65684 3.96 0.3 5000050.7614
34.65684 1.74 0.3 5000050.7614
21.64188 5.42 0.28 5000029.0698
21.64188 5.4 0.28 5000029.0698
21.64188 5.16 0.28 5000029.0698
34.65684 3.98 0.28 5000050.7614
26.38116 2.8 0.28 5000036.9686
34.65684 1.74 0.28 5000050.7614
38.9826 1.2 0.28 5000057.971
26.38116 0.38 0.28 5000036.9686
21.64188 5.42 0.26 5000029.0698
21.64188 5.4 0.26 5000029.0698
21.64188 5.16 0.26 5000029.0698
34.65684 4.0 0.26 5000050.7614
26.38116 0.4 0.26 5000036.9686
21.64188 5.42 0.24 5000029.0698
21.64188 5.4 0.24 5000029.0698
21.64188 5.16 0.24 5000029.0698
38.9826 4.0 0.24 5000057.971
38.9826 2.54 0.24 5000057.971
26.38116 0.4 0.24 5000036.9686
38.9826 -3.22 0.24 5000057.971
38.9826 -3.24 0.24 5000057.971
21.64188 5.42 0.22 5000029.0698
21.64188 5.4 0.22 5000029.0698
21.64188 5.16 0.22 5000029.0698
21.64188 5.14 0.22 5000029.0698
31.28802 2.9 0.22 5000045.1467
31.28802 2.88 0.22 5000045.1467
38.9826 -2.26 0.22 5000057.971
38.9826 -2.28 0.22 5000057.971
22.97934 -2.36 0.22 5000031.2989
21.64188 5.42 0.2 5000029.0698
21.64188 5.4 0.2 5000029.0698
21.64188 5.16 0.2 5000029.0698
21.64188 5.14 0.2 5000029.0698
31.28802 2.9 0.2 5000045.1467
31.28802 2.88 0.2 5000045.1467
31.28802 1.86 0.2 5000045.1467
31.28802 1.84 0.2 5000045.1467
38.9826 -2.24 0.2 5000057.971
38.9826 -2.26 0.2 5000057.971
38.9826 -2.28 0.2 5000057.971
21.64188 5.42 0.18 5000029.0698
21.64188 5.4 0.18 5000029.0698
21.64188 5.16 0.18 5000029.0698
31.28802 2.9 0.18 5000045.1467
38.9826 2.54 0.18 5000057.971
31.28802 1.86 0.18 5000045.1467
28.590239999999998 0.42 0.18 5000040.6504
21.64188 5.42 0.16 5000029.0698
21.64188 5.4 0.16 5000029.0698
31.28802 2.9 0.16 5000045.1467
38.9826 2.54 0.16 5000057.971
34.65684 1.2 0.16 5000050.7614
21.64188 5.42 0.14 5000029.0698
21.64188 5.4 0.14 5000029.0698
52.78302 4.82 0.14 5000080.9717
34.65684 4.12 0.14 5000050.7614
31.28802 2.9 0.14 5000045.1467
38.9826 1.44 0.14 5000057.971
21.64188 5.42 0.12 5000029.0698
21.64188 5.4 0.12 5000029.0698
31.28802 2.9 0.12 5000045.1467
21.64188 5.42 0.1 5000029.0698
21.64188 5.4 0.1 5000029.0698
21.64188 5.16 0.1 5000029.0698
31.28802 2.9 0.1 5000045.1467
34.65684 1.74 0.1 5000050.7614
21.64188 5.42 0.08 5000029.0698
21.64188 5.4 0.08 5000029.0698
21.64188 5.16 0.08 5000029.0698
38.9826 4.1 0.08 5000057.971
38.9826 2.28 0.08 5000057.971
38.9826 2.02 0.08 5000057.971
21.64188 5.42 0.06 5000029.0698
21.64188 5.4 0.06 5000029.0698
21.64188 5.16 0.06 5000029.0698
38.9826 4.1 0.06 5000057.971
38.9826 2.28 0.06 5000057.971
38.9826 2.02 0.06 5000057.971
38.9826 1.44 0.06 5000057.971
21.64188 5.42 0.04 5000029.0698
21.64188 5.4 0.04 5000029.0698
38.9826 4.1 0.04 5000057.971
34.65684 2.88 0.04 5000050.7614
38.9826 2.28 0.04 5000057.971
38.9826 2.02 0.04 5000057.971
21.64188 5.42 0.02 5000029.0698
21.64188 5.4 0.02 5000029.0698
34.65684 2.88 0.02 5000050.7614
38.9826 2.28 0.02 5000057.971
34.65684 1.44 0.02 5000050.7614
21.64188 5.42 0.0 5000029.0698
21.64188 5.4 0.0 5000029.0698
34.65684 2.9 0.0 5000050.7614
34.65684 2.88 0.0 5000050.7614
38.9826 2.54 0.0 5000057.971
38.9826 2.28 0.0 5000057.971
21.64188 5.42 -0.02 5000029.0698
21.64188 5.4 -0.02 5000029.0698
21.64188 5.16 -0.02 5000029.0698
34.65684 2.9 -0.02 5000050.7614
38.9826 2.28 -0.02 5000057.971
38.9826 2.02 -0.02 5000057.971
34.65684 1.44 -0.02 5000050.7614
21.64188 5.42 -0.04 5000029.0698
21.64188 5.4 -0.04 5000029.0698
21.64188 5.16 -0.04 5000029.0698
21.64188 5.14 -0.04 5000029.0698
38.9826 2.28 -0.04 5000057.971
38.9826 2.02 -0.04 5000057.971
34.65684 1.44 -0.04 5000050.7614
21.64188 5.42 -0.06 5000029.0698
21.64188 5.4 -0.06 5000029.0698
21.64188 5.16 -0.06 5000029.0698
34.65684 1.44 -0.06 5000050.7614
21.64188 5.42 -0.08 5000029.0698
21.64188 5.4 -0.08 5000029.0698
21.64188 5.16 -0.08 5000029.0698
31.28802 2.88 -0.08 5000045.1467
38.9826 2.02 -0.08 5000057.971
34.65684 1.74 -0.08 5000050.7614
34.65684 1.44 -0.08 5000050.7614
21.64188 5.4 -0.1 5000029.0698
21.64188 5.16 -0.1 5000029.0698
31.28802 2.88 -0.1 5000045.1467
38.9826 2.02 -0.1 5000057.971
21.64188 5.4 -0.12 5000029.0698
21.64188 5.16 -0.12 5000029.0698
31.28802 2.88 -0.12 5000045.1467
38.9826 2.28 -0.12 5000057.971
38.9826 1.44 -0.12 5000057.971
52.78302 5.48 -0.14 5000080.9717
31.28802 2.88 -0.14 5000045.1467
38.9826 2.28 -0.14 5000057.971
38.9826 2.02 -0.14 5000057.971
52.78302 5.6 -0.16 5000080.9717
52.78302 5.48 -0.16 5000080.9717
31.28802 2.88 -0.16 5000045.1467
19.467180000000003 2.68 -0.16 5000025.4453
38.9826 2.28 -0.16 5000057.971
52.78302 5.6 -0.18 5000080.9717
52.78302 5.48 -0.18 5000080.9717
38.9826 2.28 -0.18 5000057.971
52.78302 5.6 -0.2 5000080.9717
52.78302 5.48 -0.2 5000080.9717
19.467180000000003 2.66 -0.2 5000025.4453
31.28802 1.84 -0.2 5000045.1467
52.78302 5.6 -0.22 5000080.9717
19.467180000000003 2.66 -0.22 5000025.4453
19.467180000000003 2.64 -0.22 5000025.4453
31.28802 1.84 -0.22 5000045.1467
22.97934 -6.38 -0.22 5000031.2989
38.9826 2.02 -0.24 5000057.971
20.4822 5.28 -0.26 5000027.137
21.64188 5.16 -0.26 5000029.0698
38.9826 2.02 -0.26 5000057.971
31.28802 1.84 -0.26 5000045.1467
20.4822 5.28 -0.28 5000027.137
21.64188 5.16 -0.28 5000029.0698
38.9826 2.02 -0.28 5000057.971
31.28802 1.84 -0.28 5000045.1467
22.97934 -6.54 -0.28 5000031.2989
20.4822 5.28 -0.3 5000027.137
21.64188 5.16 -0.3 5000029.0698
31.28802 2.88 -0.3 5000045.1467
38.9826 2.02 -0.3 5000057.971
20.4822 5.28 -0.32 5000027.137
21.64188 5.16 -0.32 5000029.0698
21.64188 5.14 -0.32 5000029.0698
31.28802 2.88 -0.32 5000045.1467
22.97934 -6.54 -0.32 5000031.2989
20.4822 5.28 -0.34 5000027.137
21.64188 5.16 -0.34 5000029.0698
31.28802 2.88 -0.34 5000045.1467
38.9826 2.28 -0.34 5000057.971
28.590239999999998 1.82 -0.34 5000040.6504
22.97934 -6.54 -0.34 5000031.2989
20.4822 5.28 -0.36 5000027.137
21.64188 5.16 -0.36 5000029.0698
21.64188 5.14 -0.36 5000029.0698
31.28802 2.88 -0.36 5000045.1467
28.590239999999998 1.82 -0.36 5000040.6504
20.4822 5.28 -0.38 5000027.137
21.64188 5.16 -0.38 5000029.0698
21.64188 5.14 -0.38 5000029.0698
31.28802 2.88 -0.38 5000045.1467
22.97934 -6.54 -0.38 5000031.2989
22.97934 -6.56 -0.38 5000031.2989
38.9826 5.82 -0.4 5000057.971
38.9826 5.48 -0.4 5000057.971
20.4822 5.28 -0.4 5000027.137
21.64188 5.16 -0.4 5000029.0698
21.64188 5.14 -0.4 5000029.0698
31.28802 2.88 -0.4 5000045.1467
20.4822 -4.32 -0.4 5000027.137
22.97934 -6.54 -0.4 5000031.2989
38.9826 5.82 -0.42 5000057.971
38.9826 5.48 -0.42 5000057.971
20.4822 5.28 -0.42 5000027.137
21.64188 5.16 -0.42 5000029.0698
21.64188 5.14 -0.42 5000029.0698
22.97934 -6.54 -0.42 5000031.2989
38.9826 5.82 -0.44 5000057.971
20.4822 5.28 -0.44 5000027.137
20.4822 5.26 -0.44 5000027.137
21.64188 5.16 -0.44 5000029.0698
21.64188 5.14 -0.44 5000029.0698
21.64188 5.28 -0.46 5000029.0698
22.97934 -6.54 -0.46 5000031.2989
22.97934 -6.56 -0.46 5000031.2989
22.97934 -6.54 -0.48 5000031.2989
38.9826 5.58 -0.5 5000057.971
21.64188 5.28 -0.5 5000029.0698
31.28802 2.38 -0.5 5000045.1467
38.9826 5.58 -0.52 5000057.971
21.64188 5.28 -0.52 5000029.0698
34.65684 4.98 -0.52 5000050.7614
38.9826 4.92 -0.52 5000057.971
34.65684 4.48 -0.52 5000050.7614
22.97934 -5.68 -0.52 5000031.2989
22.97934 -6.54 -0.52 5000031.2989
22.97934 -6.56 -0.52 5000031.2989
34.65684 4.98 -0.54 5000050.7614
38.9826 4.92 -0.54 5000057.971
34.65684 4.5 -0.54 5000050.7614
19.467180000000003 2.72 -0.54 5000025.4453
22.97934 -6.54 -0.54 5000031.2989
22.97934 -6.56 -0.54 5000031.2989
38.9826 5.86 -0.56 5000057.971
38.9826 5.76 -0.56 5000057.971
34.65684 4.52 -0.56 5000050.7614
19.467180000000003 2.72 -0.56 5000025.4453
22.97934 -6.54 -0.56 5000031.2989
22.97934 -6.56 -0.56 5000031.2989
38.9826 5.9 -0.58 5000057.971
38.9826 5.86 -0.58 5000057.971
38.9826 5.76 -0.58 5000057.971
19.467180000000003 2.72 -0.58 5000025.4453
22.97934 -6.54 -0.58 5000031.2989
22.97934 -6.56 -0.58 5000031.2989
38.9826 5.9 -0.6 5000057.971
34.65684 5.34 -0.6 5000050.7614
34.65684 5.32 -0.6 5000050.7614
19.467180000000003 2.72 -0.6 5000025.4453
38.9826 5.9 -0.62 5000057.971
19.467180000000003 2.72 -0.62 5000025.4453
28.590239999999998 2.46 -0.62 5000040.6504
22.97934 -5.68 -0.62 5000031.2989
34.65684 4.3 -0.64 5000050.7614
31.28802 3.56 -0.64 5000045.1467
19.467180000000003 2.72 -0.64 5000025.4453
19.467180000000003 2.7 -0.64 5000025.4453
28.590239999999998 2.46 -0.64 5000040.6504
24.53898 -5.2 -0.64 5000033.8983
22.97934 -5.68 -0.64 5000031.2989
34.65684 5.02 -0.66 5000050.7614
31.28802 3.56 -0.66 5000045.1467
19.467180000000003 2.72 -0.66 5000025.4453
19.467180000000003 2.7 -0.66 5000025.4453
38.9826 5.5 -0.68 5000057.971
28.590239999999998 5.3 -0.68 5000040.6504
34.65684 5.02 -0.68 5000050.7614
34.65684 3.66 -0.68 5000050.7614
19.467180000000003 2.74 -0.68 5000025.4453
38.9826 5.5 -0.7 5000057.971
34.65684 5.08 -0.7 5000050.7614
34.65684 5.0 -0.7 5000050.7614
21.64188 5.28 -0.72 5000029.0698
28.590239999999998 1.92 -0.72 5000040.6504
22.97934 -5.68 -0.72 5000031.2989
21.64188 5.28 -0.74 5000029.0698
21.64188 5.16 -0.74 5000029.0698
31.28802 4.16 -0.74 5000045.1467
18.57126 2.72 -0.74 5000023.9521
18.57126 2.7 -0.74 5000023.9521
19.467180000000003 2.62 -0.74 5000025.4453
28.590239999999998 1.92 -0.74 5000040.6504
21.64188 5.28 -0.76 5000029.0698
21.64188 5.26 -0.76 5000029.0698
21.64188 5.16 -0.76 5000029.0698
21.64188 5.14 -0.76 5000029.0698
31.28802 4.18 -0.76 5000045.1467
31.28802 4.16 -0.76 5000045.1467
31.28802 3.84 -0.76 5000045.1467
18.57126 2.72 -0.76 5000023.9521
18.57126 2.7 -0.76 5000023.9521
19.467180000000003 2.62 -0.76 5000025.4453
22.97934 -5.68 -0.76 5000031.2989
19.467180000000003 -6.14 -0.76 5000025.4453
19.467180000000003 -6.16 -0.76 5000025.4453
31.28802 4.18 -0.78 5000045.1467
34.65684 4.1 -0.78 5000050.7614
31.28802 3.84 -0.78 5000045.1467
18.57126 2.7 -0.78 5000023.9521
19.467180000000003 2.62 -0.78 5000025.4453
26.38116 1.84 -0.78 5000036.9686
19.467180000000003 -6.14 -0.78 5000025.4453
19.467180000000003 -6.16 -0.78 5000025.4453
31.28802 4.18 -0.8 5000045.1467
34.65684 4.1 -0.8 5000050.7614
31.28802 3.86 -0.8 5000045.1467
34.65684 3.78 -0.8 5000050.7614
31.28802 3.16 -0.8 5000045.1467
24.53898 2.76 -0.8 5000033.8983
18.57126 2.7 -0.8 5000023.9521
26.38116 1.86 -0.8 5000036.9686
31.28802 3.86 -0.82 5000045.1467
34.65684 3.78 -0.82 5000050.7614
26.38116 1.86 -0.82 5000036.9686
26.38116 2.78 -0.84 5000036.9686
28.590239999999998 2.28 -0.84 5000040.6504
19.467180000000003 -4.08 -0.84 5000025.4453
18.57126 -6.18 -0.84 5000023.9521
26.38116 2.78 -0.86 5000036.9686
18.57126 2.7 -0.86 5000023.9521
28.590239999999998 2.28 -0.86 5000040.6504
26.38116 1.8 -0.86 5000036.9686
26.38116 2.78 -0.88 5000036.9686
18.57126 2.7 -0.88 5000023.9521
28.590239999999998 2.28 -0.88 5000040.6504
26.38116 1.82 -0.88 5000036.9686
26.38116 1.3 -0.88 5000036.9686
26.38116 0.96 -0.88 5000036.9686
26.38116 2.78 -0.9 5000036.9686
26.38116 2.76 -0.9 5000036.9686
18.57126 2.7 -0.9 5000023.9521
28.590239999999998 2.3 -0.9 5000040.6504
28.590239999999998 2.28 -0.9 5000040.6504
26.38116 1.82 -0.9 5000036.9686
26.38116 1.3 -0.9 5000036.9686
18.57126 2.7 -0.92 5000023.9521
19.467180000000003 2.62 -0.92 5000025.4453
28.590239999999998 2.28 -0.92 5000040.6504
26.38116 1.82 -0.92 5000036.9686
26.38116 1.32 -0.92 5000036.9686
26.38116 0.78 -0.92 5000036.9686
21.64188 5.28 -0.94 5000029.0698
26.38116 1.82 -0.94 5000036.9686
26.38116 1.32 -0.94 5000036.9686
18.57126 -6.18 -0.94 5000023.9521
21.64188 5.26 -0.96 5000029.0698
26.38116 1.82 -0.96 5000036.9686
26.38116 1.32 -0.96 5000036.9686
17.77464 -5.52 -0.96 5000022.6244
18.57126 -6.18 -0.96 5000023.9521
26.38116 0.82 -0.98 5000036.9686
18.57126 -5.62 -1.04 5000023.9521
18.57126 -4.8 -1.08 5000023.9521
18.57126 -5.06 -1.14 5000023.9521
18.57126 -5.08 -1.14 5000023.9521
18.57126 3.78 -1.22 5000023.9521
19.467180000000003 -5.02 -1.22 5000025.4453
18.57126 -6.5 -1.22 5000023.9521
18.57126 -6.58 -1.22 5000023.9521
18.57126 -6.56 -1.24 5000023.9521
18.57126 -6.58 -1.24 5000023.9521
18.57126 -6.7 -1.24 5000023.9521
13.6044 1.66 -1.6 5000015.674
13.25658 3.96 -1.68 5000015.0943
12.08952 4.88 -1.84 5000013.1492
11.394240000000002 1.82 -1.92 5000011.9904
11.394240000000002 1.82 -1.94 5000011.9904
11.18892 1.82 -1.96 5000011.6482
11.18892 1.84 -1.98 5000011.6482
10.811580000000001 -6.18 -1.98 5000011.0193
10.811580000000001 -6.2 -1.98 5000011.0193
11.394240000000002 -6.36 -1.98 5000011.9904
11.394240000000002 -6.38 -1.98 5000011.9904
11.394240000000002 -6.4 -1.98 5000011.9904
11.394240000000002 -6.42 -1.98 5000011.9904
10.637759999999998 -6.48 -1.98 5000010.7296
11.18892 1.84 -2.0 5000011.6482
10.811580000000001 -5.6 -2.0 5000011.0193
10.811580000000001 -5.62 -2.0 5000011.0193
10.995 1.84 -2.02 5000011.325
10.472879999999998 1.78 -2.16 5000010.4548
10.16718 1.94 -2.2 5000009.9453
10.025244 1.94 -2.22 5000009.70874
10.025244 1.96 -2.24 5000009.70874
10.025244 1.94 -2.24 5000009.70874
10.025244 1.96 -2.26 5000009.70874
10.025244 1.98 -2.28 5000009.70874
9.760704 1.98 -2.3 5000009.26784
9.760704 1.98 -2.32 5000009.26784
9.760704 1.98 -2.34 5000009.26784
9.889902000000001 -6.44 -2.38 5000009.48317
9.889902000000001 -6.46 -2.38 5000009.48317
9.889902000000001 -6.48 -2.38 5000009.48317
9.406074 -6.6 -2.38 5000008.67679
9.406074 -6.62 -2.38 5000008.67679
8.99808 2.16 -2.6 5000007.9968
8.99808 2.18 -2.62 5000007.9968
8.905884 2.18 -2.64 5000007.84314
8.817162000000001 2.22 -2.68 5000007.69527
8.817162000000001 2.2 -2.68 5000007.69527
8.569992 2.28 -2.78 5000007.28332
8.569992 2.3 -2.8 5000007.28332
8.569992 2.3 -2.82 5000007.28332
8.493384 2.28 -2.82 5000007.15564
8.569992 2.32 -2.84 5000007.28332
8.493384 2.3 -2.84 5000007.15564
8.493384 2.28 -2.84 5000007.15564
8.493384 2.26 -2.84 5000007.15564
8.493384 2.24 -2.84 5000007.15564
8.024094 3.78 -3.14 5000006.37349
8.024094 3.78 -3.16 5000006.37349
8.024094 2.54 -3.22 5000006.37349
8.024094 2.52 -3.22 5000006.37349
8.024094 2.5 -3.22 5000006.37349
7.8529680000000015 2.32 -3.22 5000006.08828
7.8529680000000015 2.3 -3.22 5000006.08828
7.8529680000000015 2.3 -3.24 5000006.08828
7.7992799999999995 2.62 -3.28 5000005.9988
7.747145999999999 2.64 -3.3 5000005.91191
7.747145999999999 2.62 -3.3 5000005.91191
7.747145999999999 2.64 -3.32 5000005.91191
7.747145999999999 2.66 -3.34 5000005.91191
7.696506 2.68 -3.36 5000005.82751
7.696506 2.7 -3.38 5000005.82751
7.696506 2.68 -3.38 5000005.82751
7.6472880000000005 2.7 -3.4 5000005.74548
7.6472880000000005 2.72 -3.42 5000005.74548
7.6472880000000005 2.74 -3.44 5000005.74548
7.6472880000000005 2.72 -3.44 5000005.74548
7.599432 2.74 -3.46 5000005.66572
7.552889999999999 2.76 -3.48 5000005.58815
7.552889999999999 2.78 -3.5 5000005.58815
7.552889999999999 2.8 -3.52 5000005.58815
7.552889999999999 2.78 -3.52 5000005.58815
7.507607999999999 2.8 -3.54 5000005.51268
7.463532 2.82 -3.56 5000005.43922
7.463532 2.84 -3.58 5000005.43922
7.463532 2.86 -3.6 5000005.43922
7.463532 4.38 -3.62 5000005.43922
7.463532 4.36 -3.62 5000005.43922
7.463532 2.86 -3.62 5000005.43922
7.463532 4.38 -3.64 5000005.43922
7.420614 2.88 -3.64 5000005.36769
7.507607999999999 5.26 -3.7 5000005.51268
7.463532 5.24 -3.7 5000005.43922
7.463532 5.2 -3.7 5000005.43922
7.298376 5.32 -3.72 5000005.16396
7.463532 5.22 -3.72 5000005.43922
7.463532 5.2 -3.72 5000005.43922
7.298376 5.32 -3.74 5000005.16396
7.420614 2.92 -3.74 5000005.36769
7.378806 2.74 -3.74 5000005.29801
7.338077999999999 2.72 -3.74 5000005.23013
7.338077999999999 2.7 -3.74 5000005.23013
7.338077999999999 2.68 -3.74 5000005.23013
7.298376 5.34 -3.76 5000005.16396
7.259664000000001 2.98 -3.76 5000005.09944
7.338077999999999 2.96 -3.76 5000005.23013
7.338077999999999 2.94 -3.76 5000005.23013
7.420614 2.92 -3.76 5000005.36769
7.420614 2.9 -3.76 5000005.36769
7.378806 2.88 -3.76 5000005.29801
7.378806 2.86 -3.76 5000005.29801
7.378806 2.84 -3.76 5000005.29801
7.378806 2.82 -3.76 5000005.29801
7.378806 2.8 -3.76 5000005.29801
7.420614 2.78 -3.76 5000005.36769
7.378806 2.76 -3.76 5000005.29801
7.378806 2.74 -3.76 5000005.29801
7.338077999999999 2.72 -3.76 5000005.23013
7.338077999999999 2.7 -3.76 5000005.23013
7.338077999999999 2.68 -3.76 5000005.23013
7.298376 2.66 -3.76 5000005.16396
7.259664000000001 2.64 -3.76 5000005.09944
7.599432 3.04 -3.78 5000005.66572
7.259664000000001 2.98 -3.78 5000005.09944
7.338077999999999 2.96 -3.78 5000005.23013
7.338077999999999 2.94 -3.78 5000005.23013
7.378806 2.88 -3.78 5000005.29801
7.378806 2.86 -3.78 5000005.29801
7.378806 2.84 -3.78 5000005.29801
7.338077999999999 2.7 -3.78 5000005.23013
7.338077999999999 2.68 -3.78 5000005.23013
7.259664000000001 2.98 -3.8 5000005.09944
7.259664000000001 2.96 -3.8 5000005.09944
7.221906000000001 3.12 -3.84 5000005.03651
7.221906000000001 3.1 -3.84 5000005.03651
7.221906000000001 3.1 -3.86 5000005.03651
7.221906000000001 3.08 -3.86 5000005.03651
7.013598 4.0 -4.02 5000004.68933
7.046298 4.08 -4.06 5000004.74383
7.046298 4.06 -4.06 5000004.74383
7.046298 4.04 -4.06 5000004.74383
7.046298 4.02 -4.06 5000004.74383
6.9504 4.2 -4.14 5000004.584
6.9504 4.18 -4.14 5000004.584
6.919854 4.16 -4.14 5000004.53309
6.919854 4.14 -4.14 5000004.53309
6.919854 4.12 -4.14 5000004.53309
6.919854 4.1 -4.14 5000004.53309
6.9504 4.2 -4.16 5000004.584
6.9504 4.18 -4.16 5000004.584
6.919854 4.16 -4.16 5000004.53309
6.919854 4.14 -4.16 5000004.53309
6.919854 -2.08 -4.28 5000004.53309
6.860754 4.0 -4.38 5000004.43459
6.776765999999999 3.98 -4.38 5000004.29461
6.776765999999999 3.96 -4.4 5000004.29461
6.776765999999999 3.94 -4.4 5000004.29461
6.804168 -1.02 -4.4 5000004.34028
6.804168 -1.04 -4.4 5000004.34028
6.7499340000000005 4.68 -4.42 5000004.24989
6.7499340000000005 4.66 -4.42 5000004.24989
6.7499340000000005 4.64 -4.42 5000004.24989
6.776765999999999 3.94 -4.42 5000004.29461
6.7499340000000005 4.7 -4.44 5000004.24989
6.7499340000000005 4.68 -4.44 5000004.24989
6.7499340000000005 4.66 -4.44 5000004.24989
6.69792 4.18 -4.46 5000004.1632
6.69792 4.2 -4.48 5000004.1632
6.69792 4.18 -4.48 5000004.1632
6.69792 4.16 -4.48 5000004.1632
6.72366 4.12 -4.48 5000004.2061
6.776765999999999 4.1 -4.48 5000004.29461
6.776765999999999 4.06 -4.48 5000004.29461
6.69792 4.04 -4.48 5000004.1632
6.69792 4.02 -4.48 5000004.1632
6.69792 4.0 -4.48 5000004.1632
6.69792 3.98 -4.48 5000004.1632
6.69792 4.18 -4.5 5000004.1632
6.69792 4.16 -4.5 5000004.1632
6.72366 4.14 -4.5 5000004.2061
6.776765999999999 4.1 -4.5 5000004.29461
6.776765999999999 4.06 -4.5 5000004.29461
6.69792 4.04 -4.5 5000004.1632
6.69792 4.02 -4.5 5000004.1632
6.69792 4.16 -4.52 5000004.1632
6.72366 4.14 -4.52 5000004.2061
6.72366 3.26 -4.56 5000004.2061
6.72366 3.24 -4.56 5000004.2061
6.72366 3.22 -4.56 5000004.2061
6.7499340000000005 3.54 -4.58 5000004.24989
6.69792 3.52 -4.58 5000004.1632
6.69792 3.5 -4.58 5000004.1632
6.69792 3.46 -4.58 5000004.1632
6.69792 3.44 -4.58 5000004.1632
6.672695999999999 3.42 -4.58 5000004.12116
6.672695999999999 3.38 -4.58 5000004.12116
6.7499340000000005 3.36 -4.58 5000004.24989
6.7499340000000005 3.34 -4.58 5000004.24989
6.72366 3.32 -4.58 5000004.2061
6.72366 3.3 -4.58 5000004.2061
6.72366 3.28 -4.58 5000004.2061
6.72366 3.26 -4.58 5000004.2061
6.72366 3.24 -4.58 5000004.2061
6.72366 3.22 -4.58 5000004.2061
6.69792 3.2 -4.58 5000004.1632
6.672695999999999 3.18 -4.58 5000004.12116
6.647982 3.16 -4.58 5000004.07997
6.776765999999999 3.6 -4.6 5000004.29461
6.776765999999999 3.58 -4.6 5000004.29461
6.7499340000000005 3.56 -4.6 5000004.24989
6.7499340000000005 3.54 -4.6 5000004.24989
6.69792 3.52 -4.6 5000004.1632
6.69792 3.5 -4.6 5000004.1632
6.69792 3.48 -4.6 5000004.1632
6.69792 3.46 -4.6 5000004.1632
6.69792 3.44 -4.6 5000004.1632
6.672695999999999 3.42 -4.6 5000004.12116
6.672695999999999 3.4 -4.6 5000004.12116
6.672695999999999 3.38 -4.6 5000004.12116
6.7499340000000005 3.36 -4.6 5000004.24989
6.7499340000000005 3.34 -4.6 5000004.24989
6.72366 3.28 -4.6 5000004.2061
6.69792 3.2 -4.6 5000004.1632
6.672695999999999 3.18 -4.6 5000004.12116
6.623754 3.64 -4.66 5000004.03959
6.623754 3.66 -4.68 5000004.03959
6.623754 3.24 -4.7 5000004.03959
6.623754 3.7 -4.72 5000004.03959
6.623754 3.68 -4.72 5000004.03959
6.623754 3.72 -4.76 5000004.03959
6.623754 3.28 -4.78 5000004.03959
42 -4.58 5000004.12116
7.648464000000001 3.38 -4.58 5000004.12116
7.699956 3.36 -4.58 5000004.24989
7.699956 3.34 -4.58 5000004.24989
7.68244 3.32 -4.58 5000004.2061
7.68244 3.3 -4.58 5000004.2061
7.68244 3.28 -4.58 5000004.2061
7.68244 3.26 -4.58 5000004.2061
7.68244 3.24 -4.58 5000004.2061
7.68244 3.22 -4.58 5000004.2061
7.66528 3.2 -4.58 5000004.1632
7.648464000000001 3.18 -4.58 5000004.12116
7.631988 3.16 -4.58 5000004.07997
7.7178439999999995 3.6 -4.6 5000004.29461
7.7178439999999995 3.58 -4.6 5000004.29461
7.699956 3.56 -4.6 5000004.24989
7.699956 3.54 -4.6 5000004.24989
7.66528 3.52 -4.6 5000004.1632
7.66528 3.5 -4.6 5000004.1632
7.66528 3.48 -4.6 5000004.1632
7.66528 3.46 -4.6 5000004.1632
7.66528 3.44 -4.6 5000004.1632
7.648464000000001 3.42 -4.6 5000004.12116
7.648464000000001 3.4 -4.6 5000004.12116
7.648464000000001 3.38 -4.6 5000004.12116
7.699956 3.36 -4.6 5000004.24989
7.699956 3.34 -4.6 5000004.24989
7.68244 3.28 -4.6 5000004.2061
7.66528 3.2 -4.6 5000004.1632
7.648464000000001 3.18 -4.6 5000004.12116
7.615836 3.64 -4.66 5000004.03959
7.615836 3.66 -4.68 5000004.03959
7.615836 3.24 -4.7 5000004.03959
7.615836 3.7 -4.72 5000004.03959
7.615836 3.68 -4.72 5000004.03959
7.615836 3.72 -4.76 5000004.03959
7.615836 3.28 -4.78 5000004.03959
9999999 2.48 -4.6 5000004.1632
1.6652799999999999 2.46 -4.6 5000004.1632
1.6652799999999999 2.44 -4.6 5000004.1632
1.6484639999999997 2.42 -4.6 5000004.12116
1.6484639999999997 2.4 -4.6 5000004.12116
1.6484639999999997 2.38 -4.6 5000004.12116
1.699956 2.36 -4.6 5000004.24989
1.699956 2.34 -4.6 5000004.24989
1.6824400000000002 2.28 -4.6 5000004.2061
1.6652799999999999 2.2 -4.6 5000004.1632
1.6484639999999997 2.18 -4.6 5000004.12116
1.6158359999999998 2.64 -4.66 5000004.03959
1.6158359999999998 2.66 -4.68 5000004.03959
1.6158359999999998 2.24 -4.7 5000004.03959
1.6158359999999998 2.7 -4.72 5000004.03959
1.6158359999999998 2.68 -4.72 5000004.03959
1.6158359999999998 2.72 -4.76 5000004.03959
1.6158359999999998 2.28 -4.78 5000004.03959
004.24989
1.699956 -0.66 -4.6 5000004.24989
1.6824400000000002 -0.72 -4.6 5000004.2061
1.6652799999999999 -0.8 -4.6 5000004.1632
1.6484639999999997 -0.82 -4.6 5000004.12116
1.6158359999999998 -0.36 -4.66 5000004.03959
1.6158359999999998 -0.34 -4.68 5000004.03959
1.6158359999999998 -0.76 -4.7 5000004.03959
1.6158359999999998 -0.3 -4.72 5000004.03959
1.6158359999999998 -0.32 -4.72 5000004.03959
1.6158359999999998 -0.28 -4.76 5000004.03959
1.6158359999999998 -0.72 -4.78 5000004.03959
6666 2.1333333333333333 2.6 5000027.137
10.904566666666666 2.1 2.6 5000027.137
10.968993333333334 1.9333333333333333 2.6 5000029.0698
10.968993333333334 1.9 2.6 5000029.0698
10.968993333333334 2.1333333333333333 2.566666666666667 5000029.0698
11.043296666666667 -17.566666666666666 2.566666666666667 5000031.2989
11.043296666666667 -17.6 2.566666666666667 5000031.2989
11.043296666666667 -17.566666666666666 2.533333333333333 5000031.2989
11.932366666666667 2.6333333333333333 2.5 5000057.971
10.968993333333334 2.1333333333333333 2.5 5000029.0698
11.50489 -2.7 2.5 5000045.1467
11.932366666666667 2.6333333333333333 2.466666666666667 5000057.971
10.968993333333334 2.1333333333333333 2.466666666666667 5000029.0698
11.692046666666666 1.6333333333333333 2.466666666666667 5000050.7614
11.932366666666667 1.5333333333333334 2.466666666666667 5000057.971
11.692046666666666 0.8 2.466666666666667 5000050.7614
11.043296666666667 -16.133333333333333 2.466666666666667 5000031.2989
11.043296666666667 -17.566666666666666 2.466666666666667 5000031.2989
11.043296666666667 -17.6 2.466666666666667 5000031.2989
11.692046666666666 1.6333333333333333 2.433333333333333 5000050.7614
11.932366666666667 1.5333333333333334 2.433333333333333 5000057.971
11.692046666666666 0.8333333333333334 2.433333333333333 5000050.7614
10.848176666666667 -2.1333333333333333 2.433333333333333 5000025.4453
11.043296666666667 -17.566666666666666 2.433333333333333 5000031.2989
11.043296666666667 -17.6 2.433333333333333 5000031.2989
11.932366666666667 3.1 2.4 5000057.971
11.932366666666667 2.933333333333333 2.4 5000057.971
11.692046666666666 0.8666666666666667 2.4 5000050.7614
10.848176666666667 -2.1333333333333333 2.4 5000025.4453
11.043296666666667 -17.566666666666666 2.4 5000031.2989
11.043296666666667 -17.6 2.4 5000031.2989
11.932366666666667 3.1666666666666665 2.3666666666666667 5000057.971
11.932366666666667 3.1 2.3666666666666667 5000057.971
11.932366666666667 2.933333333333333 2.3666666666666667 5000057.971
10.848176666666667 -2.1333333333333333 2.3666666666666667 5000025.4453
11.043296666666667 -17.566666666666666 2.3666666666666667 5000031.2989
11.043296666666667 -17.6 2.3666666666666667 5000031.2989
11.932366666666667 3.1666666666666665 2.3333333333333335 5000057.971
11.692046666666666 2.2333333333333334 2.3333333333333335 5000050.7614
11.692046666666666 2.2 2.3333333333333335 5000050.7614
10.848176666666667 -2.1333333333333333 2.3333333333333335 5000025.4453
11.932366666666667 3.1666666666666665 2.3 5000057.971
10.848176666666667 -2.1333333333333333 2.3 5000025.4453
11.355013333333334 -2.566666666666667 2.3 5000040.6504
11.043296666666667 -16.133333333333333 2.3 5000031.2989
11.692046666666666 0.5 2.2666666666666666 5000050.7614
11.50489 -0.7333333333333333 2.2666666666666666 5000045.1467
10.848176666666667 -2.1333333333333333 2.2666666666666666 5000025.4453
10.848176666666667 -2.1666666666666665 2.2666666666666666 5000025.4453
11.355013333333334 -2.566666666666667 2.2666666666666666 5000040.6504
11.129943333333333 -15.333333333333334 2.2666666666666666 5000033.8983
11.043296666666667 -16.133333333333333 2.2666666666666666 5000031.2989
11.692046666666666 1.7 2.2333333333333334 5000050.7614
11.50489 -0.7333333333333333 2.2333333333333334 5000045.1467
10.848176666666667 -2.1333333333333333 2.2333333333333334 5000025.4453
10.848176666666667 -2.1666666666666665 2.2333333333333334 5000025.4453
11.932366666666667 2.5 2.2 5000057.971
11.355013333333334 2.1666666666666665 2.2 5000040.6504
11.692046666666666 1.7 2.2 5000050.7614
11.692046666666666 -0.5666666666666667 2.2 5000050.7614
10.848176666666667 -2.1 2.2 5000025.4453
11.932366666666667 2.5 2.1666666666666665 5000057.971
11.692046666666666 1.8 2.1666666666666665 5000050.7614
11.692046666666666 1.6666666666666667 2.1666666666666665 5000050.7614
10.968993333333334 2.1333333333333333 2.1333333333333333 5000029.0698
11.355013333333334 -3.466666666666667 2.1333333333333333 5000040.6504
11.043296666666667 -16.133333333333333 2.1333333333333333 5000031.2989
10.968993333333334 2.1333333333333333 2.1 5000029.0698
10.968993333333334 1.9333333333333333 2.1 5000029.0698
11.50489 0.26666666666666666 2.1 5000045.1467
10.798403333333333 -2.1333333333333333 2.1 5000023.9521
10.798403333333333 -2.1666666666666665 2.1 5000023.9521
10.848176666666667 -2.3 2.1 5000025.4453
11.355013333333334 -3.466666666666667 2.1 5000040.6504
10.968993333333334 2.1333333333333333 2.066666666666667 5000029.0698
10.968993333333334 2.1 2.066666666666667 5000029.0698
10.968993333333334 1.9333333333333333 2.066666666666667 5000029.0698
10.968993333333334 1.9 2.066666666666667 5000029.0698
11.50489 0.3 2.066666666666667 5000045.1467
11.50489 0.26666666666666666 2.066666666666667 5000045.1467
11.50489 -0.26666666666666666 2.066666666666667 5000045.1467
10.798403333333333 -2.1333333333333333 2.066666666666667 5000023.9521
10.798403333333333 -2.1666666666666665 2.066666666666667 5000023.9521
10.848176666666667 -2.3 2.066666666666667 5000025.4453
11.043296666666667 -16.133333333333333 2.066666666666667 5000031.2989
10.848176666666667 -16.9 2.066666666666667 5000025.4453
10.848176666666667 -16.933333333333334 2.066666666666667 5000025.4453
11.50489 0.3 2.033333333333333 5000045.1467
11.692046666666666 0.16666666666666666 2.033333333333333 5000050.7614
11.50489 -0.26666666666666666 2.033333333333333 5000045.1467
10.798403333333333 -2.1666666666666665 2.033333333333333 5000023.9521
10.848176666666667 -2.3 2.033333333333333 5000025.4453
11.232286666666667 -3.6 2.033333333333333 5000036.9686
10.848176666666667 -16.9 2.033333333333333 5000025.4453
10.848176666666667 -16.933333333333334 2.033333333333333 5000025.4453
11.50489 0.3 2.0 5000045.1467
11.692046666666666 0.16666666666666666 2.0 5000050.7614
11.50489 -0.23333333333333334 2.0 5000045.1467
11.692046666666666 -0.36666666666666664 2.0 5000050.7614
11.50489 -1.4 2.0 5000045.1467
11.129943333333333 -2.066666666666667 2.0 5000033.8983
10.798403333333333 -2.1666666666666665 2.0 5000023.9521
11.232286666666667 -3.566666666666667 2.0 5000036.9686
11.50489 -0.23333333333333334 1.9666666666666666 5000045.1467
11.692046666666666 -0.36666666666666664 1.9666666666666666 5000050.7614
11.232286666666667 -3.566666666666667 1.9666666666666666 5000036.9686
11.232286666666667 -2.033333333333333 1.9333333333333333 5000036.9686
11.355013333333334 -2.8666666666666667 1.9333333333333333 5000040.6504
10.848176666666667 -13.466666666666667 1.9333333333333333 5000025.4453
10.798403333333333 -16.966666666666665 1.9333333333333333 5000023.9521
11.232286666666667 -2.033333333333333 1.9 5000036.9686
10.798403333333333 -2.1666666666666665 1.9 5000023.9521
11.355013333333334 -2.8666666666666667 1.9 5000040.6504
11.232286666666667 -3.6666666666666665 1.9 5000036.9686
11.232286666666667 -2.033333333333333 1.8666666666666667 5000036.9686
10.798403333333333 -2.1666666666666665 1.8666666666666667 5000023.9521
11.355013333333334 -2.8666666666666667 1.8666666666666667 5000040.6504
11.232286666666667 -3.6333333333333333 1.8666666666666667 5000036.9686
11.232286666666667 -4.5 1.8666666666666667 5000036.9686
11.232286666666667 -5.066666666666666 1.8666666666666667 5000036.9686
11.232286666666667 -2.033333333333333 1.8333333333333333 5000036.9686
11.232286666666667 -2.066666666666667 1.8333333333333333 5000036.9686
10.798403333333333 -2.1666666666666665 1.8333333333333333 5000023.9521
11.355013333333334 -2.8333333333333335 1.8333333333333333 5000040.6504
11.355013333333334 -2.8666666666666667 1.8333333333333333 5000040.6504
11.232286666666667 -3.6333333333333333 1.8333333333333333 5000036.9686
11.232286666666667 -4.5 1.8333333333333333 5000036.9686
10.798403333333333 -2.1666666666666665 1.8 5000023.9521
10.848176666666667 -2.3 1.8 5000025.4453
11.355013333333334 -2.8666666666666667 1.8 5000040.6504
11.232286666666667 -3.6333333333333333 1.8 5000036.9686
11.232286666666667 -4.466666666666667 1.8 5000036.9686
11.232286666666667 -5.366666666666666 1.8 5000036.9686
10.968993333333334 2.1333333333333333 1.7666666666666666 5000029.0698
11.232286666666667 -3.6333333333333333 1.7666666666666666 5000036.9686
11.232286666666667 -4.466666666666667 1.7666666666666666 5000036.9686
10.798403333333333 -16.966666666666665 1.7666666666666666 5000023.9521
10.968993333333334 2.1 1.7333333333333334 5000029.0698
11.232286666666667 -3.6333333333333333 1.7333333333333334 5000036.9686
11.232286666666667 -4.466666666666667 1.7333333333333334 5000036.9686
10.754146666666667 -15.866666666666667 1.7333333333333334 5000022.6244
10.798403333333333 -16.966666666666665 1.7333333333333334 5000023.9521
11.232286666666667 -5.3 1.7 5000036.9686
10.798403333333333 -16.033333333333335 1.6 5000023.9521
10.798403333333333 -14.666666666666666 1.5333333333333334 5000023.9521
10.798403333333333 -15.1 1.4333333333333333 5000023.9521
10.798403333333333 -15.133333333333333 1.4333333333333333 5000023.9521
10.798403333333333 -0.36666666666666664 1.3 5000023.9521
10.848176666666667 -15.033333333333333 1.3 5000025.4453
10.798403333333333 -17.5 1.3 5000023.9521
10.798403333333333 -17.633333333333333 1.3 5000023.9521
10.798403333333333 -17.6 1.2666666666666666 5000023.9521
10.798403333333333 -17.633333333333333 1.2666666666666666 5000023.9521
10.798403333333333 -17.833333333333332 1.2666666666666666 5000023.9521
10.522466666666666 -3.9 0.6666666666666666 5000015.674
10.503143333333334 -0.06666666666666667 0.5333333333333333 5000015.0943
10.438306666666668 1.4666666666666666 0.26666666666666666 5000013.1492
10.39968 -3.6333333333333333 0.13333333333333333 5000011.9904
10.39968 -3.6333333333333333 0.1 5000011.9904
10.388273333333334 -3.6333333333333333 0.06666666666666667 5000011.6482
10.388273333333334 -3.6 0.03333333333333333 5000011.6482
10.36731 -16.966666666666665 0.03333333333333333 5000011.0193
10.36731 -17.0 0.03333333333333333 5000011.0193
10.39968 -17.266666666666666 0.03333333333333333 5000011.9904
10.39968 -17.3 0.03333333333333333 5000011.9904
10.39968 -17.333333333333332 0.03333333333333333 5000011.9904
10.39968 -17.366666666666667 0.03333333333333333 5000011.9904
10.357653333333333 -17.466666666666665 0.03333333333333333 5000010.7296
10.388273333333334 -3.6 0.0 5000011.6482
10.36731 -16.0 0.0 5000011.0193
10.36731 -16.033333333333335 0.0 5000011.0193
10.3775 -3.6 -0.03333333333333333 5000011.325
10.348493333333334 -3.7 -0.26666666666666666 5000010.4548
10.33151 -3.433333333333333 -0.3333333333333333 5000009.9453
10.323624666666667 -3.433333333333333 -0.36666666666666664 5000009.70874
10.323624666666667 -3.4 -0.4 5000009.70874
10.323624666666667 -3.433333333333333 -0.4 5000009.70874
10.323624666666667 -3.4 -0.43333333333333335 5000009.70874
10.323624666666667 -3.3666666666666667 -0.4666666666666667 5000009.70874
10.308928 -3.3666666666666667 -0.5 5000009.26784
10.308928 -3.3666666666666667 -0.5333333333333333 5000009.26784
10.308928 -3.3666666666666667 -0.5666666666666667 5000009.26784
10.316105666666667 -17.4 -0.6333333333333333 5000009.48317
10.316105666666667 -17.433333333333334 -0.6333333333333333 5000009.48317
10.316105666666667 -17.466666666666665 -0.6333333333333333 5000009.48317
10.289226333333334 -17.666666666666668 -0.6333333333333333 5000008.67679
10.289226333333334 -17.7 -0.6333333333333333 5000008.67679
10.26656 -3.066666666666667 -1.0 5000007.9968
10.26656 -3.033333333333333 -1.0333333333333334 5000007.9968
10.261438 -3.033333333333333 -1.0666666666666667 5000007.84314
10.256509 -2.966666666666667 -1.1333333333333333 5000007.69527
10.256509 -3.0 -1.1333333333333333 5000007.69527
10.242777333333333 -2.8666666666666667 -1.3 5000007.28332
10.242777333333333 -2.8333333333333335 -1.3333333333333333 5000007.28332
10.242777333333333 -2.8333333333333335 -1.3666666666666667 5000007.28332
10.238521333333333 -2.8666666666666667 -1.3666666666666667 5000007.15564
10.242777333333333 -2.8 -1.4 5000007.28332
10.238521333333333 -2.8333333333333335 -1.4 5000007.15564
10.238521333333333 -2.8666666666666667 -1.4 5000007.15564
10.238521333333333 -2.9 -1.4 5000007.15564
10.238521333333333 -2.933333333333333 -1.4 5000007.15564
10.212449666666666 -0.36666666666666664 -1.9 5000006.37349
10.212449666666666 -0.36666666666666664 -1.9333333333333333 5000006.37349
10.212449666666666 -2.433333333333333 -2.033333333333333 5000006.37349
10.212449666666666 -2.466666666666667 -2.033333333333333 5000006.37349
10.212449666666666 -2.5 -2.033333333333333 5000006.37349
10.202942666666667 -2.8 -2.033333333333333 5000006.08828
10.202942666666667 -2.8333333333333335 -2.033333333333333 5000006.08828
10.202942666666667 -2.8333333333333335 -2.066666666666667 5000006.08828
10.19996 -2.3 -2.1333333333333333 5000005.9988
10.197063666666667 -2.2666666666666666 -2.1666666666666665 5000005.91191
10.197063666666667 -2.3 -2.1666666666666665 5000005.91191
10.197063666666667 -2.2666666666666666 -2.2 5000005.91191
10.197063666666667 -2.2333333333333334 -2.2333333333333334 5000005.91191
10.194250333333333 -2.2 -2.2666666666666666 5000005.82751
10.194250333333333 -2.1666666666666665 -2.3 5000005.82751
10.194250333333333 -2.2 -2.3 5000005.82751
10.191516 -2.1666666666666665 -2.3333333333333335 5000005.74548
10.191516 -2.1333333333333333 -2.3666666666666667 5000005.74548
10.191516 -2.1 -2.4 5000005.74548
10.191516 -2.1333333333333333 -2.4 5000005.74548
10.188857333333333 -2.1 -2.433333333333333 5000005.66572
10.186271666666666 -2.066666666666667 -2.466666666666667 5000005.58815
10.186271666666666 -2.033333333333333 -2.5 5000005.58815
10.186271666666666 -2.0 -2.533333333333333 5000005.58815
10.186271666666666 -2.033333333333333 -2.533333333333333 5000005.58815
10.183756 -2.0 -2.566666666666667 5000005.51268
10.181307333333333 -1.9666666666666666 -2.6 5000005.43922
10.181307333333333 -1.9333333333333333 -2.6333333333333333 5000005.43922
10.181307333333333 -1.9 -2.6666666666666665 5000005.43922
10.181307333333333 0.6333333333333333 -2.7 5000005.43922
10.181307333333333 0.6 -2.7 5000005.43922
10.181307333333333 -1.9 -2.7 5000005.43922
10.181307333333333 0.6333333333333333 -2.7333333333333334 5000005.43922
10.178923 -1.8666666666666667 -2.7333333333333334 5000005.36769
10.183756 2.1 -2.8333333333333335 5000005.51268
10.181307333333333 2.066666666666667 -2.8333333333333335 5000005.43922
10.181307333333333 2.0 -2.8333333333333335 5000005.43922
10.172132 2.2 -2.8666666666666667 5000005.16396
10.181307333333333 2.033333333333333 -2.8666666666666667 5000005.43922
10.181307333333333 2.0 -2.8666666666666667 5000005.43922
10.172132 2.2 -2.9 5000005.16396
10.178923 -1.8 -2.9 5000005.36769
10.176600333333333 -2.1 -2.9 5000005.29801
10.174337666666666 -2.1333333333333333 -2.9 5000005.23013
10.174337666666666 -2.1666666666666665 -2.9 5000005.23013
10.174337666666666 -2.2 -2.9 5000005.23013
10.172132 2.2333333333333334 -2.933333333333333 5000005.16396
10.169981333333334 -1.7 -2.933333333333333 5000005.09944
10.174337666666666 -1.7333333333333334 -2.933333333333333 5000005.23013
10.174337666666666 -1.7666666666666666 -2.933333333333333 5000005.23013
10.178923 -1.8 -2.933333333333333 5000005.36769
10.178923 -1.8333333333333333 -2.933333333333333 5000005.36769
10.176600333333333 -1.8666666666666667 -2.933333333333333 5000005.29801
10.176600333333333 -1.9 -2.933333333333333 5000005.29801
10.176600333333333 -1.9333333333333333 -2.933333333333333 5000005.29801
10.176600333333333 -1.9666666666666666 -2.933333333333333 5000005.29801
10.176600333333333 -2.0 -2.933333333333333 5000005.29801
10.178923 -2.033333333333333 -2.933333333333333 5000005.36769
10.176600333333333 -2.066666666666667 -2.933333333333333 5000005.29801
10.176600333333333 -2.1 -2.933333333333333 5000005.29801
10.174337666666666 -2.1333333333333333 -2.933333333333333 5000005.23013
10.174337666666666 -2.1666666666666665 -2.933333333333333 5000005.23013
10.174337666666666 -2.2 -2.933333333333333 5000005.23013
10.172132 -2.2333333333333334 -2.933333333333333 5000005.16396
10.169981333333334 -2.2666666666666666 -2.933333333333333 5000005.09944
10.188857333333333 -1.6 -2.966666666666667 5000005.66572
10.169981333333334 -1.7 -2.966666666666667 5000005.09944
10.174337666666666 -1.7333333333333334 -2.966666666666667 5000005.23013
10.174337666666666 -1.7666666666666666 -2.966666666666667 5000005.23013
10.176600333333333 -1.8666666666666667 -2.966666666666667 5000005.29801
10.176600333333333 -1.9 -2.966666666666667 5000005.29801
10.176600333333333 -1.9333333333333333 -2.966666666666667 5000005.29801
10.174337666666666 -2.1666666666666665 -2.966666666666667 5000005.23013
10.174337666666666 -2.2 -2.966666666666667 5000005.23013
10.169981333333334 -1.7 -3.0 5000005.09944
10.169981333333334 -1.7333333333333334 -3.0 5000005.09944
10.167883666666667 -1.4666666666666666 -3.066666666666667 5000005.03651
10.167883666666667 -1.5 -3.066666666666667 5000005.03651
10.167883666666667 -1.5 -3.1 5000005.03651
10.167883666666667 -1.5333333333333334 -3.1 5000005.03651
10.156311 0.0 -3.3666666666666667 5000004.68933
10.158127666666667 0.13333333333333333 -3.433333333333333 5000004.74383
10.158127666666667 0.1 -3.433333333333333 5000004.74383
10.158127666666667 0.06666666666666667 -3.433333333333333 5000004.74383
10.158127666666667 0.03333333333333333 -3.433333333333333 5000004.74383
10.1528 0.3333333333333333 -3.566666666666667 5000004.584
10.1528 0.3 -3.566666666666667 5000004.584
10.151102999999999 0.26666666666666666 -3.566666666666667 5000004.53309
10.151102999999999 0.23333333333333334 -3.566666666666667 5000004.53309
10.151102999999999 0.2 -3.566666666666667 5000004.53309
10.151102999999999 0.16666666666666666 -3.566666666666667 5000004.53309
10.1528 0.3333333333333333 -3.6 5000004.584
10.1528 0.3 -3.6 5000004.584
10.151102999999999 0.26666666666666666 -3.6 5000004.53309
10.151102999999999 0.23333333333333334 -3.6 5000004.53309
10.151102999999999 -10.133333333333333 -3.8 5000004.53309
10.147819666666667 0.0 -3.966666666666667 5000004.43459
10.143153666666667 -0.03333333333333333 -3.966666666666667 5000004.29461
10.143153666666667 -0.06666666666666667 -4.0 5000004.29461
10.143153666666667 -0.1 -4.0 5000004.29461
10.144676 -8.366666666666667 -4.0 5000004.34028
10.144676 -8.4 -4.0 5000004.34028
10.141663 1.1333333333333333 -4.033333333333333 5000004.24989
10.141663 1.1 -4.033333333333333 5000004.24989
10.141663 1.0666666666666667 -4.033333333333333 5000004.24989
10.143153666666667 -0.1 -4.033333333333333 5000004.29461
10.141663 1.1666666666666667 -4.066666666666666 5000004.24989
10.141663 1.1333333333333333 -4.066666666666666 5000004.24989
10.141663 1.1 -4.066666666666666 5000004.24989
10.138773333333333 0.3 -4.1 5000004.1632
10.138773333333333 0.3333333333333333 -4.133333333333334 5000004.1632
10.138773333333333 0.3 -4.133333333333334 5000004.1632
10.138773333333333 0.26666666666666666 -4.133333333333334 5000004.1632
10.140203333333334 0.2 -4.133333333333334 5000004.2061
10.143153666666667 0.16666666666666666 -4.133333333333334 5000004.29461
10.143153666666667 0.1 -4.133333333333334 5000004.29461
10.138773333333333 0.06666666666666667 -4.133333333333334 5000004.1632
10.138773333333333 0.03333333333333333 -4.133333333333334 5000004.1632
10.138773333333333 0.0 -4.133333333333334 5000004.1632
10.138773333333333 -0.03333333333333333 -4.133333333333334 5000004.1632
10.138773333333333 0.3 -4.166666666666667 5000004.1632
10.138773333333333 0.26666666666666666 -4.166666666666667 5000004.1632
