VERSION .7
FIELDS x y z rgb
SIZE 4 4 4 4
TYPE F F F F
COUNT 1 1 1 1
WIDTH 1153
HEIGHT 1
VIEWPOINT 0 0 0 1 0 0 0
POINTS 1153
DATA ascii
38.9826 2.34 -0.12 57.971
34.65684 2.06 -0.12 50.7614
34.65684 1.78 -0.12 50.7614
64.806 5.66 -0.14 101.01
44.74056 5.56 -0.14 67.5676
31.28802 2.96 -0.14 45.1467
18.57126 2.8 -0.14 23.9521
38.9826 2.34 -0.14 57.971
64.806 5.66 -0.16 101.01
44.74056 5.56 -0.16 67.5676
38.9826 2.34 -0.16 57.971
64.806 5.66 -0.18 101.01
44.74056 5.56 -0.18 67.5676
18.57126 2.76 -0.18 23.9521
31.28802 1.9 -0.18 45.1467
21.64188 -6.64 -0.18 29.0698
64.806 5.68 -0.2 101.01
44.74056 5.56 -0.2 67.5676
18.57126 2.76 -0.2 23.9521
31.28802 1.9 -0.2 45.1467
21.64188 -6.64 -0.2 29.0698
34.65684 4.14 -0.22 50.7614
31.28802 1.9 -0.22 45.1467
20.4822 5.44 -0.24 27.137
20.4822 5.32 -0.24 27.137
38.9826 2.06 -0.24 57.971
22.97934 -6.64 -0.24 31.2989
20.4822 5.44 -0.26 27.137
20.4822 5.32 -0.26 27.137
31.28802 2.96 -0.26 45.1467
38.9826 2.06 -0.26 57.971
22.97934 -6.64 -0.26 31.2989
20.4822 5.44 -0.28 27.137
20.4822 5.32 -0.28 27.137
34.65684 4.14 -0.28 50.7614
38.9826 2.34 -0.28 57.971
28.590239999999998 1.88 -0.28 40.6504
22.97934 -6.64 -0.28 31.2989
20.4822 5.44 -0.3 27.137
20.4822 5.32 -0.3 27.137
28.590239999999998 1.88 -0.3 40.6504
22.97934 -6.64 -0.3 31.2989
22.97934 -6.66 -0.3 31.2989
20.4822 5.44 -0.32 27.137
20.4822 5.32 -0.32 27.137
31.28802 2.94 -0.32 45.1467
28.590239999999998 1.88 -0.32 40.6504
22.97934 -6.64 -0.32 31.2989
22.97934 -6.66 -0.32 31.2989
20.4822 5.44 -0.34 27.137
20.4822 5.32 -0.34 27.137
28.590239999999998 1.88 -0.34 40.6504
22.97934 -5.76 -0.34 31.2989
21.64188 -6.64 -0.34 29.0698
21.64188 -6.66 -0.34 29.0698
20.4822 5.44 -0.36 27.137
20.4822 5.32 -0.36 27.137
20.4822 5.3 -0.36 27.137
31.28802 2.96 -0.36 45.1467
28.590239999999998 1.88 -0.36 40.6504
20.4822 -4.38 -0.36 27.137
22.97934 -5.28 -0.36 31.2989
22.97934 -5.76 -0.36 31.2989
21.64188 -6.64 -0.36 29.0698
21.64188 -6.66 -0.36 29.0698
38.9826 5.9 -0.38 57.971
38.9826 5.56 -0.38 57.971
20.4822 5.44 -0.38 27.137
20.4822 5.32 -0.38 27.137
20.4822 5.3 -0.38 27.137
20.4822 -4.38 -0.38 27.137
20.4822 -4.4 -0.38 27.137
22.97934 -5.28 -0.38 31.2989
22.97934 -5.76 -0.38 31.2989
21.64188 -6.66 -0.38 29.0698
38.9826 5.92 -0.4 57.971
38.9826 5.9 -0.4 57.971
38.9826 5.56 -0.4 57.971
20.4822 5.44 -0.4 27.137
20.4822 5.32 -0.4 27.137
20.4822 5.3 -0.4 27.137
22.97934 -5.28 -0.4 31.2989
22.97934 -5.76 -0.4 31.2989
21.64188 -6.64 -0.4 29.0698
21.64188 -6.66 -0.4 29.0698
38.9826 5.92 -0.42 57.971
38.9826 5.56 -0.42 57.971
20.4822 5.44 -0.42 27.137
20.4822 5.32 -0.42 27.137
20.4822 5.3 -0.42 27.137
22.97934 -5.76 -0.42 31.2989
21.64188 -6.66 -0.42 29.0698
20.4822 5.44 -0.44 27.137
20.4822 5.32 -0.44 27.137
18.57126 2.82 -0.44 23.9521
22.97934 -5.76 -0.44 31.2989
21.64188 -6.66 -0.44 29.0698
38.9826 5.18 -0.46 57.971
31.28802 3.32 -0.46 45.1467
18.57126 2.82 -0.46 23.9521
22.97934 -5.76 -0.46 31.2989
21.64188 -6.64 -0.46 29.0698
21.64188 -6.66 -0.46 29.0698
22.97934 -5.28 -0.48 31.2989
22.97934 -5.76 -0.48 31.2989
21.64188 -6.66 -0.48 29.0698
38.9826 5.66 -0.5 57.971
34.65684 4.56 -0.5 50.7614
28.590239999999998 2.44 -0.5 40.6504
22.97934 -5.76 -0.5 31.2989
21.64188 -6.66 -0.5 29.0698
34.65684 5.06 -0.52 50.7614
34.65684 4.58 -0.52 50.7614
18.57126 2.82 -0.52 23.9521
22.97934 -5.3 -0.52 31.2989
22.97934 -5.76 -0.52 31.2989
21.64188 -6.66 -0.52 29.0698
38.9826 5.9 -0.54 57.971
34.65684 4.6 -0.54 50.7614
18.57126 2.82 -0.54 23.9521
19.467180000000003 2.74 -0.54 25.4453
21.64188 -6.66 -0.54 29.0698
34.65684 4.08 -0.56 50.7614
18.57126 2.82 -0.56 23.9521
21.64188 -6.64 -0.56 29.0698
21.64188 -6.66 -0.56 29.0698
38.9826 5.94 -0.58 57.971
38.9826 5.58 -0.58 57.971
20.4822 5.44 -0.58 27.137
18.57126 2.82 -0.58 23.9521
20.4822 5.44 -0.6 27.137
18.57126 2.82 -0.6 23.9521
19.467180000000003 2.74 -0.6 25.4453
20.4822 5.44 -0.62 27.137
31.28802 4.38 -0.62 45.1467
31.28802 3.64 -0.62 45.1467
18.57126 2.82 -0.62 23.9521
28.590239999999998 2.54 -0.62 40.6504
28.590239999999998 2.52 -0.62 40.6504
22.97934 -5.76 -0.62 31.2989
20.4822 5.44 -0.64 27.137
31.28802 4.38 -0.64 45.1467
31.28802 3.64 -0.64 45.1467
18.57126 2.82 -0.64 23.9521
28.590239999999998 2.54 -0.64 40.6504
22.97934 -5.28 -0.64 31.2989
22.97934 -5.3 -0.64 31.2989
22.97934 -5.76 -0.64 31.2989
38.9826 5.58 -0.66 57.971
20.4822 5.44 -0.66 27.137
34.65684 5.12 -0.66 50.7614
34.65684 5.1 -0.66 50.7614
18.57126 2.82 -0.66 23.9521
22.97934 -5.76 -0.66 31.2989
38.9826 5.58 -0.68 57.971
20.4822 5.44 -0.68 27.137
34.65684 5.16 -0.68 50.7614
34.65684 5.1 -0.68 50.7614
31.28802 3.74 -0.68 45.1467
18.57126 -4.64 -0.68 23.9521
22.97934 -5.76 -0.68 31.2989
20.4822 5.44 -0.7 27.137
34.65684 5.16 -0.7 50.7614
28.590239999999998 2.9 -0.7 40.6504
17.77464 -5.2 -0.7 22.6244
17.77464 -5.22 -0.7 22.6244
17.77464 -6.7 -0.7 22.6244
20.4822 5.44 -0.72 27.137
20.4822 5.32 -0.72 27.137
18.57126 2.82 -0.72 23.9521
28.590239999999998 1.98 -0.72 40.6504
17.77464 -6.7 -0.72 22.6244
17.77464 -6.72 -0.72 22.6244
20.4822 5.44 -0.74 27.137
20.4822 5.32 -0.74 27.137
20.4822 5.3 -0.74 27.137
31.28802 4.26 -0.74 45.1467
31.28802 4.24 -0.74 45.1467
18.57126 2.82 -0.74 23.9521
19.467180000000003 2.74 -0.74 25.4453
19.467180000000003 2.72 -0.74 25.4453
28.590239999999998 1.98 -0.74 40.6504
21.64188 -5.78 -0.74 29.0698
17.77464 -6.28 -0.74 22.6244
17.77464 -6.3 -0.74 22.6244
17.77464 -6.32 -0.74 22.6244
20.4822 5.32 -0.76 27.137
31.28802 4.26 -0.76 45.1467
31.28802 3.92 -0.76 45.1467
18.57126 2.82 -0.76 23.9521
17.77464 -5.34 -0.76 22.6244
21.64188 -5.78 -0.76 29.0698
17.77464 -6.28 -0.76 22.6244
17.77464 -6.3 -0.76 22.6244
31.28802 4.26 -0.78 45.1467
31.28802 3.94 -0.78 45.1467
18.57126 2.82 -0.78 23.9521
26.38116 1.9 -0.78 36.9686
19.467180000000003 -4.6 -0.78 25.4453
19.467180000000003 -4.62 -0.78 25.4453
17.77464 -5.36 -0.78 22.6244
17.77464 -5.38 -0.78 22.6244
17.06172 -5.4 -0.78 21.4362
17.77464 -6.28 -0.78 22.6244
17.77464 -6.3 -0.78 22.6244
34.65684 4.64 -0.8 50.7614
31.28802 4.26 -0.8 45.1467
31.28802 3.94 -0.8 45.1467
31.28802 3.86 -0.8 45.1467
28.590239999999998 3.24 -0.8 40.6504
28.590239999999998 2.32 -0.8 40.6504
26.38116 1.92 -0.8 36.9686
31.28802 3.94 -0.82 45.1467
31.28802 3.86 -0.82 45.1467
22.97934 2.86 -0.82 31.2989
28.590239999999998 2.34 -0.82 40.6504
26.38116 1.92 -0.82 36.9686
18.57126 -6.3 -0.82 23.9521
18.57126 -6.32 -0.82 23.9521
22.97934 2.86 -0.84 31.2989
28.590239999999998 2.34 -0.84 40.6504
19.467180000000003 -4.14 -0.84 25.4453
19.467180000000003 -4.16 -0.84 25.4453
18.57126 -6.3 -0.84 23.9521
18.57126 -6.32 -0.84 23.9521
22.97934 2.88 -0.86 31.2989
22.97934 2.86 -0.86 31.2989
26.38116 2.34 -0.86 36.9686
28.590239999999998 2.24 -0.86 40.6504
26.38116 1.86 -0.86 36.9686
26.38116 1.34 -0.86 36.9686
18.57126 -6.3 -0.86 23.9521
22.97934 2.86 -0.88 31.2989
26.38116 2.36 -0.88 36.9686
26.38116 2.34 -0.88 36.9686
26.38116 1.88 -0.88 36.9686
26.38116 1.36 -0.88 36.9686
26.38116 1.34 -0.88 36.9686
24.53898 1.0 -0.88 33.8983
26.38116 2.36 -0.9 36.9686
26.38116 2.34 -0.9 36.9686
26.38116 1.88 -0.9 36.9686
26.38116 1.36 -0.9 36.9686
19.467180000000003 -5.7 -0.9 25.4453
19.467180000000003 -5.72 -0.9 25.4453
22.97934 2.82 -0.92 31.2989
26.38116 2.36 -0.92 36.9686
26.38116 2.34 -0.92 36.9686
28.590239999999998 2.26 -0.92 40.6504
26.38116 1.88 -0.92 36.9686
26.38116 0.82 -0.92 36.9686
17.77464 -5.44 -0.92 22.6244
17.77464 -6.32 -0.92 22.6244
20.4822 5.44 -0.94 27.137
26.38116 2.34 -0.94 36.9686
26.38116 1.88 -0.94 36.9686
26.38116 1.38 -0.94 36.9686
26.38116 1.36 -0.94 36.9686
17.77464 -6.32 -0.94 22.6244
17.77464 -6.66 -0.94 22.6244
20.4822 5.44 -0.96 27.137
26.38116 1.38 -0.96 36.9686
26.38116 1.36 -0.96 36.9686
26.38116 0.86 -0.96 36.9686
18.57126 -5.62 -0.96 23.9521
18.57126 -5.64 -0.96 23.9521
17.77464 -6.32 -0.96 22.6244
26.38116 0.86 -0.98 36.9686
17.77464 -6.32 -0.98 22.6244
17.77464 -6.66 -0.98 22.6244
19.467180000000003 -3.76 -1.0 25.4453
17.77464 -6.32 -1.0 22.6244
19.467180000000003 -3.74 -1.02 25.4453
18.57126 -4.0 -1.02 23.9521
17.77464 -5.26 -1.02 22.6244
17.77464 -6.32 -1.02 22.6244
17.77464 -5.2 -1.04 22.6244
17.77464 -5.74 -1.04 22.6244
22.97934 -5.8 -1.04 31.2989
17.77464 -6.66 -1.04 22.6244
18.57126 -4.9 -1.06 23.9521
17.77464 -5.22 -1.06 22.6244
18.57126 -6.32 -1.08 23.9521
19.467180000000003 -3.96 -1.1 25.4453
18.57126 -4.88 -1.1 23.9521
18.57126 -6.32 -1.1 23.9521
18.57126 -4.88 -1.12 23.9521
18.57126 -6.32 -1.12 23.9521
18.57126 -4.88 -1.14 23.9521
18.57126 -4.94 -1.14 23.9521
18.57126 -4.96 -1.14 23.9521
18.57126 -5.16 -1.14 23.9521
18.57126 -5.18 -1.14 23.9521
18.57126 -4.94 -1.16 23.9521
18.57126 -5.16 -1.16 23.9521
18.57126 -5.18 -1.16 23.9521
18.57126 -6.72 -1.16 23.9521
17.77464 -4.96 -1.18 22.6244
17.77464 -6.34 -1.18 22.6244
19.467180000000003 -3.94 -1.2 25.4453
17.77464 -6.34 -1.2 22.6244
17.77464 -4.98 -1.22 22.6244
18.57126 -5.12 -1.22 23.9521
18.57126 -5.14 -1.22 23.9521
18.57126 -5.12 -1.24 23.9521
18.57126 -5.14 -1.24 23.9521
18.57126 -6.44 -1.24 23.9521
18.57126 -6.64 -1.24 23.9521
18.57126 -6.72 -1.24 23.9521
18.57126 2.5 -1.26 23.9521
18.57126 -6.6 -1.26 23.9521
18.57126 -6.7 -1.26 23.9521
17.77464 -6.36 -1.28 22.6244
13.25658 1.78 -1.64 15.0943
12.933599999999998 4.2 -1.72 14.556
11.394240000000002 2.64 -1.92 11.9904
11.394240000000002 2.62 -1.92 11.9904
10.995 1.98 -2.0 11.325
10.995 1.98 -2.02 11.325
10.995 2.0 -2.04 11.325
10.811580000000001 2.0 -2.06 11.0193
10.316220000000001 -6.5 -2.06 10.1937
10.316220000000001 -6.52 -2.06 10.1937
10.16718 -5.9 -2.08 9.9453
10.16718 -5.92 -2.08 9.9453
10.316220000000001 -6.48 -2.08 10.1937
10.316220000000001 -6.5 -2.08 10.1937
10.316220000000001 -6.52 -2.08 10.1937
10.637759999999998 -6.72 -2.08 10.7296
10.637759999999998 -6.74 -2.08 10.7296
10.472879999999998 2.02 -2.1 10.4548
10.637759999999998 2.0 -2.1 10.7296
10.16718 -5.88 -2.1 9.9453
10.16718 -5.9 -2.1 9.9453
10.16718 -5.92 -2.1 9.9453
10.637759999999998 4.74 -2.12 10.7296
10.472879999999998 2.02 -2.12 10.4548
10.472879999999998 2.0 -2.12 10.4548
10.472879999999998 1.96 -2.12 10.4548
10.025244 1.96 -2.28 9.70874
9.760704 2.14 -2.3 9.26784
9.760704 2.14 -2.32 9.26784
9.637241999999999 2.16 -2.34 9.06207
9.637241999999999 2.14 -2.34 9.06207
9.637241999999999 2.16 -2.36 9.06207
9.637241999999999 2.18 -2.38 9.06207
9.637241999999999 2.16 -2.38 9.06207
9.51915 2.18 -2.4 8.86525
9.51915 2.2 -2.42 8.86525
9.51915 2.22 -2.44 8.86525
9.51915 2.2 -2.44 8.86525
9.093966 2.4 -2.74 8.15661
8.817162000000001 2.28 -2.74 7.69527
8.817162000000001 2.26 -2.74 7.69527
8.64939 2.42 -2.78 7.41565
8.569992 2.44 -2.8 7.28332
8.569992 2.46 -2.82 7.28332
8.569992 2.46 -2.84 7.28332
8.493384 2.5 -2.88 7.15564
8.147369999999999 2.64 -3.06 6.57895
8.147369999999999 2.62 -3.06 6.57895
8.147369999999999 2.6 -3.06 6.57895
8.147369999999999 2.58 -3.06 6.57895
8.347944 2.54 -3.06 6.91324
8.147369999999999 2.64 -3.08 6.57895
8.147369999999999 2.62 -3.08 6.57895
8.147369999999999 2.6 -3.08 6.57895
8.147369999999999 2.58 -3.08 6.57895
7.6472880000000005 4.32 -3.46 5.74548
7.6472880000000005 4.3 -3.46 5.74548
7.6472880000000005 4.28 -3.46 5.74548
7.552889999999999 2.94 -3.54 5.58815
7.552889999999999 2.88 -3.54 5.58815
7.552889999999999 2.86 -3.54 5.58815
7.6472880000000005 2.78 -3.54 5.74548
7.6472880000000005 2.74 -3.54 5.74548
7.599432 2.72 -3.54 5.66572
7.599432 2.7 -3.54 5.66572
7.552889999999999 2.68 -3.54 5.58815
7.747145999999999 3.0 -3.56 5.91191
7.747145999999999 2.98 -3.56 5.91191
7.747145999999999 2.96 -3.56 5.91191
7.552889999999999 2.94 -3.56 5.58815
7.552889999999999 2.92 -3.56 5.58815
7.552889999999999 2.9 -3.56 5.58815
7.552889999999999 2.88 -3.56 5.58815
7.552889999999999 2.86 -3.56 5.58815
7.552889999999999 2.84 -3.56 5.58815
7.507607999999999 2.82 -3.56 5.51268
7.420614 3.04 -3.62 5.36769
7.420614 3.06 -3.64 5.36769
7.420614 3.04 -3.64 5.36769
7.420614 3.08 -3.66 5.36769
7.420614 3.06 -3.66 5.36769
7.338077999999999 3.1 -3.7 5.23013
7.338077999999999 3.1 -3.72 5.23013
7.338077999999999 3.14 -3.74 5.23013
7.338077999999999 3.16 -3.76 5.23013
7.338077999999999 3.16 -3.78 5.23013
7.298376 3.18 -3.8 5.16396
7.338077999999999 2.96 -3.88 5.23013
7.185072 3.26 -3.9 4.97512
7.114037999999999 3.34 -4.0 4.85673
7.046298 2.98 -4.02 4.74383
7.114037999999999 5.06 -4.04 4.85673
7.259664000000001 5.1 -4.06 5.09944
7.259664000000001 5.02 -4.06 5.09944
6.981642 3.48 -4.16 4.63607
6.9504 3.06 -4.16 4.584
6.9504 3.48 -4.22 4.584
6.9504 3.22 -4.22 4.584
6.919854 3.2 -4.22 4.53309
6.860754 3.12 -4.22 4.43459
6.9504 3.5 -4.24 4.584
6.9504 3.48 -4.24 4.584
6.9504 3.46 -4.24 4.584
6.9504 3.38 -4.24 4.584
6.9504 3.36 -4.24 4.584
7.013598 3.34 -4.24 4.68933
6.981642 3.32 -4.24 4.63607
6.981642 3.3 -4.24 4.63607
6.981642 3.28 -4.24 4.63607
6.9504 3.26 -4.24 4.584
6.9504 3.24 -4.24 4.584
6.9504 3.22 -4.24 4.584
6.919854 3.2 -4.24 4.53309
6.919854 3.18 -4.24 4.53309
6.860754 3.16 -4.24 4.43459
6.860754 3.14 -4.24 4.43459
6.860754 3.12 -4.24 4.43459
6.919854 3.56 -4.26 4.53309
6.919854 3.54 -4.26 4.53309
6.9504 3.52 -4.26 4.584
6.9504 3.5 -4.26 4.584
6.9504 3.48 -4.26 4.584
6.9504 3.46 -4.26 4.584
6.9504 3.44 -4.26 4.584
6.9504 3.42 -4.26 4.584
6.9504 3.4 -4.26 4.584
6.9504 3.38 -4.26 4.584
6.9504 3.36 -4.26 4.584
7.013598 3.34 -4.26 4.68933
6.981642 3.32 -4.26 4.63607
6.981642 3.3 -4.26 4.63607
6.981642 3.28 -4.26 4.63607
6.9504 3.26 -4.26 4.584
6.9504 3.24 -4.26 4.584
6.9504 3.22 -4.26 4.584
6.919854 3.2 -4.26 4.53309
6.919854 3.18 -4.26 4.53309
6.860754 3.58 -4.28 4.43459
6.919854 3.56 -4.28 4.53309
6.919854 3.54 -4.28 4.53309
6.919854 3.52 -4.28 4.53309
6.9504 3.5 -4.28 4.584
7.079772 3.66 -4.3 4.79962
6.9504 2.62 -4.34 4.584
6.832158 3.72 -4.36 4.38693
6.832158 3.7 -4.36 4.38693
6.832158 3.68 -4.36 4.38693
6.672695999999999 4.9 -4.64 4.12116
6.672695999999999 4.88 -4.64 4.12116
6.672695999999999 4.9 -4.66 4.12116
6.672695999999999 4.88 -4.66 4.12116
6.672695999999999 4.86 -4.66 4.12116
6.672695999999999 4.84 -4.66 4.12116
6.69792 4.84 -4.72 4.1632
6.69792 4.82 -4.72 4.1632
6.623754 5.0 -4.74 4.03959
6.623754 5.02 -4.76 4.03959
6.623754 5.0 -4.76 4.03959
6.623754 4.98 -4.76 4.03959
6.623754 4.96 -4.76 4.03959
6.69792 4.96 -5.08 4.1632
6.623754 5.0 -5.12 4.03959
6.623754 5.02 -5.14 4.03959
6.623754 5.0 -5.14 4.03959
6.623754 5.04 -5.16 4.03959
6.623754 5.02 -5.16 4.03959
6.623754 5.06 -5.18 4.03959
6.623754 5.04 -5.18 4.03959
6.623754 4.36 -5.34 4.03959
6.623754 4.38 -5.36 4.03959
0000000001 -6.52 -2.06 5000010.1937
10.16718 -5.9 -2.08 5000009.9453
10.16718 -5.92 -2.08 5000009.9453
10.316220000000001 -6.48 -2.08 5000010.1937
10.316220000000001 -6.5 -2.08 5000010.1937
10.316220000000001 -6.52 -2.08 5000010.1937
10.637759999999998 -6.72 -2.08 5000010.7296
10.637759999999998 -6.74 -2.08 5000010.7296
10.472879999999998 2.02 -2.1 5000010.4548
10.637759999999998 2.0 -2.1 5000010.7296
10.16718 -5.88 -2.1 5000009.9453
10.16718 -5.9 -2.1 5000009.9453
10.16718 -5.92 -2.1 5000009.9453
10.637759999999998 4.74 -2.12 5000010.7296
10.472879999999998 2.02 -2.12 5000010.4548
10.472879999999998 2.0 -2.12 5000010.4548
10.472879999999998 1.96 -2.12 5000010.4548
10.025244 1.96 -2.28 5000009.70874
9.760704 2.14 -2.3 5000009.26784
9.760704 2.14 -2.32 5000009.26784
9.637241999999999 2.16 -2.34 5000009.06207
9.637241999999999 2.14 -2.34 5000009.06207
9.637241999999999 2.16 -2.36 5000009.06207
9.637241999999999 2.18 -2.38 5000009.06207
9.637241999999999 2.16 -2.38 5000009.06207
9.51915 2.18 -2.4 5000008.86525
9.51915 2.2 -2.42 5000008.86525
9.51915 2.22 -2.44 5000008.86525
9.51915 2.2 -2.44 5000008.86525
9.093966 2.4 -2.74 5000008.15661
8.817162000000001 2.28 -2.74 5000007.69527
8.817162000000001 2.26 -2.74 5000007.69527
8.64939 2.42 -2.78 5000007.41565
8.569992 2.44 -2.8 5000007.28332
8.569992 2.46 -2.82 5000007.28332
8.569992 2.46 -2.84 5000007.28332
8.493384 2.5 -2.88 5000007.15564
8.147369999999999 2.64 -3.06 5000006.57895
8.147369999999999 2.62 -3.06 5000006.57895
8.147369999999999 2.6 -3.06 5000006.57895
8.147369999999999 2.58 -3.06 5000006.57895
8.347944 2.54 -3.06 5000006.91324
8.147369999999999 2.64 -3.08 5000006.57895
8.147369999999999 2.62 -3.08 5000006.57895
8.147369999999999 2.6 -3.08 5000006.57895
8.147369999999999 2.58 -3.08 5000006.57895
7.6472880000000005 4.32 -3.46 5000005.74548
7.6472880000000005 4.3 -3.46 5000005.74548
7.6472880000000005 4.28 -3.46 5000005.74548
7.552889999999999 2.94 -3.54 5000005.58815
7.552889999999999 2.88 -3.54 5000005.58815
7.552889999999999 2.86 -3.54 5000005.58815
7.6472880000000005 2.78 -3.54 5000005.74548
7.6472880000000005 2.74 -3.54 5000005.74548
7.599432 2.72 -3.54 5000005.66572
7.599432 2.7 -3.54 5000005.66572
7.552889999999999 2.68 -3.54 5000005.58815
7.747145999999999 3.0 -3.56 5000005.91191
7.747145999999999 2.98 -3.56 5000005.91191
7.747145999999999 2.96 -3.56 5000005.91191
7.552889999999999 2.94 -3.56 5000005.58815
7.552889999999999 2.92 -3.56 5000005.58815
7.552889999999999 2.9 -3.56 5000005.58815
7.552889999999999 2.88 -3.56 5000005.58815
7.552889999999999 2.86 -3.56 5000005.58815
7.552889999999999 2.84 -3.56 5000005.58815
7.507607999999999 2.82 -3.56 5000005.51268
7.420614 3.04 -3.62 5000005.36769
7.420614 3.06 -3.64 5000005.36769
7.420614 3.04 -3.64 5000005.36769
7.420614 3.08 -3.66 5000005.36769
7.420614 3.06 -3.66 5000005.36769
7.338077999999999 3.1 -3.7 5000005.23013
7.338077999999999 3.1 -3.72 5000005.23013
7.338077999999999 3.14 -3.74 5000005.23013
7.338077999999999 3.16 -3.76 5000005.23013
7.338077999999999 3.16 -3.78 5000005.23013
7.298376 3.18 -3.8 5000005.16396
7.338077999999999 2.96 -3.88 5000005.23013
7.185072 3.26 -3.9 5000004.97512
7.114037999999999 3.34 -4.0 5000004.85673
7.046298 2.98 -4.02 5000004.74383
7.114037999999999 5.06 -4.04 5000004.85673
7.259664000000001 5.1 -4.06 5000005.09944
7.259664000000001 5.02 -4.06 5000005.09944
6.981642 3.48 -4.16 5000004.63607
6.9504 3.06 -4.16 5000004.584
6.9504 3.48 -4.22 5000004.584
6.9504 3.22 -4.22 5000004.584
6.919854 3.2 -4.22 5000004.53309
6.860754 3.12 -4.22 5000004.43459
6.9504 3.5 -4.24 5000004.584
6.9504 3.48 -4.24 5000004.584
6.9504 3.46 -4.24 5000004.584
6.9504 3.38 -4.24 5000004.584
6.9504 3.36 -4.24 5000004.584
7.013598 3.34 -4.24 5000004.68933
6.981642 3.32 -4.24 5000004.63607
6.981642 3.3 -4.24 5000004.63607
6.981642 3.28 -4.24 5000004.63607
6.9504 3.26 -4.24 5000004.584
6.9504 3.24 -4.24 5000004.584
6.9504 3.22 -4.24 5000004.584
6.919854 3.2 -4.24 5000004.53309
6.919854 3.18 -4.24 5000004.53309
6.860754 3.16 -4.24 5000004.43459
6.860754 3.14 -4.24 5000004.43459
6.860754 3.12 -4.24 5000004.43459
6.919854 3.56 -4.26 5000004.53309
6.919854 3.54 -4.26 5000004.53309
6.9504 3.52 -4.26 5000004.584
6.9504 3.5 -4.26 5000004.584
6.9504 3.48 -4.26 5000004.584
6.9504 3.46 -4.26 5000004.584
6.9504 3.44 -4.26 5000004.584
6.9504 3.42 -4.26 5000004.584
6.9504 3.4 -4.26 5000004.584
6.9504 3.38 -4.26 5000004.584
6.9504 3.36 -4.26 5000004.584
7.013598 3.34 -4.26 5000004.68933
6.981642 3.32 -4.26 5000004.63607
6.981642 3.3 -4.26 5000004.63607
6.981642 3.28 -4.26 5000004.63607
6.9504 3.26 -4.26 5000004.584
6.9504 3.24 -4.26 5000004.584
6.9504 3.22 -4.26 5000004.584
6.919854 3.2 -4.26 5000004.53309
6.919854 3.18 -4.26 5000004.53309
6.860754 3.58 -4.28 5000004.43459
6.919854 3.56 -4.28 5000004.53309
6.919854 3.54 -4.28 5000004.53309
6.919854 3.52 -4.28 5000004.53309
6.9504 3.5 -4.28 5000004.584
7.079772 3.66 -4.3 5000004.79962
6.9504 2.62 -4.34 5000004.584
6.832158 3.72 -4.36 5000004.38693
6.832158 3.7 -4.36 5000004.38693
6.832158 3.68 -4.36 5000004.38693
6.672695999999999 4.9 -4.64 5000004.12116
6.672695999999999 4.88 -4.64 5000004.12116
6.672695999999999 4.9 -4.66 5000004.12116
6.672695999999999 4.88 -4.66 5000004.12116
6.672695999999999 4.86 -4.66 5000004.12116
6.672695999999999 4.84 -4.66 5000004.12116
6.69792 4.84 -4.72 5000004.1632
6.69792 4.82 -4.72 5000004.1632
6.623754 5.0 -4.74 5000004.03959
6.623754 5.02 -4.76 5000004.03959
6.623754 5.0 -4.76 5000004.03959
6.623754 4.98 -4.76 5000004.03959
6.623754 4.96 -4.76 5000004.03959
6.69792 4.96 -5.08 5000004.1632
6.623754 5.0 -5.12 5000004.03959
6.623754 5.02 -5.14 5000004.03959
6.623754 5.0 -5.14 5000004.03959
6.623754 5.04 -5.16 5000004.03959
6.623754 5.02 -5.16 5000004.03959
6.623754 5.06 -5.18 5000004.03959
6.623754 5.04 -5.18 5000004.03959
6.623754 4.36 -5.34 5000004.03959
6.623754 4.38 -5.36 5000004.03959
99 3.06 -4.16 5000004.584
11.750399999999999 3.48 -4.22 5000004.584
11.750399999999999 3.22 -4.22 5000004.584
11.719854 3.2 -4.22 5000004.53309
11.660753999999999 3.12 -4.22 5000004.43459
11.750399999999999 3.5 -4.24 5000004.584
11.750399999999999 3.48 -4.24 5000004.584
11.750399999999999 3.46 -4.24 5000004.584
11.750399999999999 3.38 -4.24 5000004.584
11.750399999999999 3.36 -4.24 5000004.584
11.813597999999999 3.34 -4.24 5000004.68933
11.781642 3.32 -4.24 5000004.63607
11.781642 3.3 -4.24 5000004.63607
11.781642 3.28 -4.24 5000004.63607
11.750399999999999 3.26 -4.24 5000004.584
11.750399999999999 3.24 -4.24 5000004.584
11.750399999999999 3.22 -4.24 5000004.584
11.719854 3.2 -4.24 5000004.53309
11.719854 3.18 -4.24 5000004.53309
11.660753999999999 3.16 -4.24 5000004.43459
11.660753999999999 3.14 -4.24 5000004.43459
11.660753999999999 3.12 -4.24 5000004.43459
11.719854 3.56 -4.26 5000004.53309
11.719854 3.54 -4.26 5000004.53309
11.750399999999999 3.52 -4.26 5000004.584
11.750399999999999 3.5 -4.26 5000004.584
11.750399999999999 3.48 -4.26 5000004.584
11.750399999999999 3.46 -4.26 5000004.584
11.750399999999999 3.44 -4.26 5000004.584
11.750399999999999 3.42 -4.26 5000004.584
11.750399999999999 3.4 -4.26 5000004.584
11.750399999999999 3.38 -4.26 5000004.584
11.750399999999999 3.36 -4.26 5000004.584
11.813597999999999 3.34 -4.26 5000004.68933
11.781642 3.32 -4.26 5000004.63607
11.781642 3.3 -4.26 5000004.63607
11.781642 3.28 -4.26 5000004.63607
11.750399999999999 3.26 -4.26 5000004.584
11.750399999999999 3.24 -4.26 5000004.584
11.750399999999999 3.22 -4.26 5000004.584
11.719854 3.2 -4.26 5000004.53309
11.719854 3.18 -4.26 5000004.53309
11.660753999999999 3.58 -4.28 5000004.43459
11.719854 3.56 -4.28 5000004.53309
11.719854 3.54 -4.28 5000004.53309
11.719854 3.52 -4.28 5000004.53309
11.750399999999999 3.5 -4.28 5000004.584
11.879772 3.66 -4.3 5000004.79962
11.750399999999999 2.62 -4.34 5000004.584
11.632158 3.72 -4.36 5000004.38693
11.632158 3.7 -4.36 5000004.38693
11.632158 3.68 -4.36 5000004.38693
11.472696000000001 4.9 -4.64 5000004.12116
11.472696000000001 4.88 -4.64 5000004.12116
11.472696000000001 4.9 -4.66 5000004.12116
11.472696000000001 4.88 -4.66 5000004.12116
11.472696000000001 4.86 -4.66 5000004.12116
11.472696000000001 4.84 -4.66 5000004.12116
11.49792 4.84 -4.72 5000004.1632
11.49792 4.82 -4.72 5000004.1632
11.423754 5.0 -4.74 5000004.03959
11.423754 5.02 -4.76 5000004.03959
11.423754 5.0 -4.76 5000004.03959
11.423754 4.98 -4.76 5000004.03959
11.423754 4.96 -4.76 5000004.03959
11.49792 4.96 -5.08 5000004.1632
11.423754 5.0 -5.12 5000004.03959
11.423754 5.02 -5.14 5000004.03959
11.423754 5.0 -5.14 5000004.03959
11.423754 5.04 -5.16 5000004.03959
11.423754 5.02 -5.16 5000004.03959
11.423754 5.06 -5.18 5000004.03959
11.423754 5.04 -5.18 5000004.03959
11.423754 4.36 -5.34 5000004.03959
11.423754 4.38 -5.36 5000004.03959
59999999998 4.02 -4.76 5000004.03959
1.6158359999999998 4.0 -4.76 5000004.03959
1.6158359999999998 3.98 -4.76 5000004.03959
1.6158359999999998 3.96 -4.76 5000004.03959
1.6652799999999999 3.96 -5.08 5000004.1632
1.6158359999999998 4.0 -5.12 5000004.03959
1.6158359999999998 4.02 -5.14 5000004.03959
1.6158359999999998 4.0 -5.14 5000004.03959
1.6158359999999998 4.04 -5.16 5000004.03959
1.6158359999999998 4.02 -5.16 5000004.03959
1.6158359999999998 4.06 -5.18 5000004.03959
1.6158359999999998 4.04 -5.18 5000004.03959
1.6158359999999998 3.36 -5.34 5000004.03959
1.6158359999999998 3.38 -5.36 5000004.03959
999999998 1.0 -4.76 5000004.03959
1.6158359999999998 0.98 -4.76 5000004.03959
1.6158359999999998 0.96 -4.76 5000004.03959
1.6652799999999999 0.96 -5.08 5000004.1632
1.6158359999999998 1.0 -5.12 5000004.03959
1.6158359999999998 1.02 -5.14 5000004.03959
1.6158359999999998 1.0 -5.14 5000004.03959
1.6158359999999998 1.04 -5.16 5000004.03959
1.6158359999999998 1.02 -5.16 5000004.03959
1.6158359999999998 1.06 -5.18 5000004.03959
1.6158359999999998 1.04 -5.18 5000004.03959
1.6158359999999998 0.36 -5.34 5000004.03959
1.6158359999999998 0.38 -5.36 5000004.03959
 5000057.971
10.904566666666666 2.4 2.6666666666666665 5000027.137
10.904566666666666 2.2 2.6666666666666665 5000027.137
10.904566666666666 2.1666666666666665 2.6666666666666665 5000027.137
11.043296666666667 -15.466666666666667 2.6666666666666665 5000031.2989
11.043296666666667 -16.266666666666666 2.6666666666666665 5000031.2989
10.968993333333334 -17.733333333333334 2.6666666666666665 5000029.0698
10.968993333333334 -17.766666666666666 2.6666666666666665 5000029.0698
11.932366666666667 3.2 2.6333333333333333 5000057.971
11.932366666666667 2.6 2.6333333333333333 5000057.971
10.904566666666666 2.4 2.6333333333333333 5000027.137
10.904566666666666 2.2 2.6333333333333333 5000027.137
10.904566666666666 2.1666666666666665 2.6333333333333333 5000027.137
11.043296666666667 -16.266666666666666 2.6333333333333333 5000031.2989
10.968993333333334 -17.766666666666666 2.6333333333333333 5000029.0698
10.904566666666666 2.4 2.6 5000027.137
10.904566666666666 2.2 2.6 5000027.137
10.798403333333333 -1.9666666666666666 2.6 5000023.9521
11.043296666666667 -16.266666666666666 2.6 5000031.2989
10.968993333333334 -17.766666666666666 2.6 5000029.0698
11.932366666666667 1.9666666666666666 2.566666666666667 5000057.971
11.50489 -1.1333333333333333 2.566666666666667 5000045.1467
10.798403333333333 -1.9666666666666666 2.566666666666667 5000023.9521
11.043296666666667 -16.266666666666666 2.566666666666667 5000031.2989
10.968993333333334 -17.733333333333334 2.566666666666667 5000029.0698
10.968993333333334 -17.766666666666666 2.566666666666667 5000029.0698
11.043296666666667 -15.466666666666667 2.533333333333333 5000031.2989
11.043296666666667 -16.266666666666666 2.533333333333333 5000031.2989
10.968993333333334 -17.766666666666666 2.533333333333333 5000029.0698
11.932366666666667 2.7666666666666666 2.5 5000057.971
11.692046666666666 0.9333333333333333 2.5 5000050.7614
11.355013333333334 -2.6 2.5 5000040.6504
11.043296666666667 -16.266666666666666 2.5 5000031.2989
10.968993333333334 -17.766666666666666 2.5 5000029.0698
11.692046666666666 1.7666666666666666 2.466666666666667 5000050.7614
11.692046666666666 0.9666666666666667 2.466666666666667 5000050.7614
10.798403333333333 -1.9666666666666666 2.466666666666667 5000023.9521
11.043296666666667 -15.5 2.466666666666667 5000031.2989
11.043296666666667 -16.266666666666666 2.466666666666667 5000031.2989
10.968993333333334 -17.766666666666666 2.466666666666667 5000029.0698
11.932366666666667 3.1666666666666665 2.433333333333333 5000057.971
11.692046666666666 1.0 2.433333333333333 5000050.7614
10.798403333333333 -1.9666666666666666 2.433333333333333 5000023.9521
10.848176666666667 -2.1 2.433333333333333 5000025.4453
10.968993333333334 -17.766666666666666 2.433333333333333 5000029.0698
11.692046666666666 0.13333333333333333 2.4 5000050.7614
10.798403333333333 -1.9666666666666666 2.4 5000023.9521
10.968993333333334 -17.733333333333334 2.4 5000029.0698
10.968993333333334 -17.766666666666666 2.4 5000029.0698
11.932366666666667 3.2333333333333334 2.3666666666666667 5000057.971
11.932366666666667 2.6333333333333333 2.3666666666666667 5000057.971
10.904566666666666 2.4 2.3666666666666667 5000027.137
10.798403333333333 -1.9666666666666666 2.3666666666666667 5000023.9521
10.904566666666666 2.4 2.3333333333333335 5000027.137
10.798403333333333 -1.9666666666666666 2.3333333333333335 5000023.9521
10.848176666666667 -2.1 2.3333333333333335 5000025.4453
10.904566666666666 2.4 2.3 5000027.137
11.50489 0.6333333333333333 2.3 5000045.1467
11.50489 -0.6 2.3 5000045.1467
10.798403333333333 -1.9666666666666666 2.3 5000023.9521
11.355013333333334 -2.433333333333333 2.3 5000040.6504
11.355013333333334 -2.466666666666667 2.3 5000040.6504
11.043296666666667 -16.266666666666666 2.3 5000031.2989
10.904566666666666 2.4 2.2666666666666666 5000027.137
11.50489 0.6333333333333333 2.2666666666666666 5000045.1467
11.50489 -0.6 2.2666666666666666 5000045.1467
10.798403333333333 -1.9666666666666666 2.2666666666666666 5000023.9521
11.355013333333334 -2.433333333333333 2.2666666666666666 5000040.6504
11.043296666666667 -15.466666666666667 2.2666666666666666 5000031.2989
11.043296666666667 -15.5 2.2666666666666666 5000031.2989
11.043296666666667 -16.266666666666666 2.2666666666666666 5000031.2989
11.932366666666667 2.6333333333333333 2.2333333333333334 5000057.971
10.904566666666666 2.4 2.2333333333333334 5000027.137
11.692046666666666 1.8666666666666667 2.2333333333333334 5000050.7614
11.692046666666666 1.8333333333333333 2.2333333333333334 5000050.7614
10.798403333333333 -1.9666666666666666 2.2333333333333334 5000023.9521
11.043296666666667 -16.266666666666666 2.2333333333333334 5000031.2989
11.932366666666667 2.6333333333333333 2.2 5000057.971
10.904566666666666 2.4 2.2 5000027.137
11.692046666666666 1.9333333333333333 2.2 5000050.7614
11.692046666666666 1.8333333333333333 2.2 5000050.7614
11.50489 -0.43333333333333335 2.2 5000045.1467
10.798403333333333 -14.4 2.2 5000023.9521
11.043296666666667 -16.266666666666666 2.2 5000031.2989
10.904566666666666 2.4 2.1666666666666665 5000027.137
11.692046666666666 1.9333333333333333 2.1666666666666665 5000050.7614
11.355013333333334 -1.8333333333333333 2.1666666666666665 5000040.6504
10.754146666666667 -15.333333333333334 2.1666666666666665 5000022.6244
10.754146666666667 -15.366666666666667 2.1666666666666665 5000022.6244
10.754146666666667 -17.833333333333332 2.1666666666666665 5000022.6244
10.904566666666666 2.4 2.1333333333333333 5000027.137
10.904566666666666 2.2 2.1333333333333333 5000027.137
10.798403333333333 -1.9666666666666666 2.1333333333333333 5000023.9521
11.355013333333334 -3.3666666666666667 2.1333333333333333 5000040.6504
10.754146666666667 -17.833333333333332 2.1333333333333333 5000022.6244
10.754146666666667 -17.866666666666667 2.1333333333333333 5000022.6244
10.904566666666666 2.4 2.1 5000027.137
10.904566666666666 2.2 2.1 5000027.137
10.904566666666666 2.1666666666666665 2.1 5000027.137
11.50489 0.43333333333333335 2.1 5000045.1467
11.50489 0.4 2.1 5000045.1467
10.798403333333333 -1.9666666666666666 2.1 5000023.9521
10.848176666666667 -2.1 2.1 5000025.4453
10.848176666666667 -2.1333333333333333 2.1 5000025.4453
11.355013333333334 -3.3666666666666667 2.1 5000040.6504
10.968993333333334 -16.3 2.1 5000029.0698
10.754146666666667 -17.133333333333333 2.1 5000022.6244
10.754146666666667 -17.166666666666668 2.1 5000022.6244
10.754146666666667 -17.2 2.1 5000022.6244
10.904566666666666 2.2 2.066666666666667 5000027.137
11.50489 0.43333333333333335 2.066666666666667 5000045.1467
11.50489 -0.13333333333333333 2.066666666666667 5000045.1467
10.798403333333333 -1.9666666666666666 2.066666666666667 5000023.9521
10.754146666666667 -15.566666666666666 2.066666666666667 5000022.6244
10.968993333333334 -16.3 2.066666666666667 5000029.0698
10.754146666666667 -17.133333333333333 2.066666666666667 5000022.6244
10.754146666666667 -17.166666666666668 2.066666666666667 5000022.6244
11.50489 0.43333333333333335 2.033333333333333 5000045.1467
11.50489 -0.1 2.033333333333333 5000045.1467
10.798403333333333 -1.9666666666666666 2.033333333333333 5000023.9521
11.232286666666667 -3.5 2.033333333333333 5000036.9686
10.848176666666667 -14.333333333333334 2.033333333333333 5000025.4453
10.848176666666667 -14.366666666666667 2.033333333333333 5000025.4453
10.754146666666667 -15.6 2.033333333333333 5000022.6244
10.754146666666667 -15.633333333333333 2.033333333333333 5000022.6244
10.71454 -15.666666666666666 2.033333333333333 5000021.4362
10.754146666666667 -17.133333333333333 2.033333333333333 5000022.6244
10.754146666666667 -17.166666666666668 2.033333333333333 5000022.6244
11.692046666666666 1.0666666666666667 2.0 5000050.7614
11.50489 0.43333333333333335 2.0 5000045.1467
11.50489 -0.1 2.0 5000045.1467
11.50489 -0.23333333333333334 2.0 5000045.1467
11.355013333333334 -1.2666666666666666 2.0 5000040.6504
11.355013333333334 -2.8 2.0 5000040.6504
11.232286666666667 -3.466666666666667 2.0 5000036.9686
11.50489 -0.1 1.9666666666666666 5000045.1467
11.50489 -0.23333333333333334 1.9666666666666666 5000045.1467
11.043296666666667 -1.9 1.9666666666666666 5000031.2989
11.355013333333334 -2.7666666666666666 1.9666666666666666 5000040.6504
11.232286666666667 -3.466666666666667 1.9666666666666666 5000036.9686
10.798403333333333 -17.166666666666668 1.9666666666666666 5000023.9521
10.798403333333333 -17.2 1.9666666666666666 5000023.9521
11.043296666666667 -1.9 1.9333333333333333 5000031.2989
11.355013333333334 -2.7666666666666666 1.9333333333333333 5000040.6504
10.848176666666667 -13.566666666666666 1.9333333333333333 5000025.4453
10.848176666666667 -13.6 1.9333333333333333 5000025.4453
10.798403333333333 -17.166666666666668 1.9333333333333333 5000023.9521
10.798403333333333 -17.2 1.9333333333333333 5000023.9521
11.043296666666667 -1.8666666666666667 1.9 5000031.2989
11.043296666666667 -1.9 1.9 5000031.2989
11.232286666666667 -2.7666666666666666 1.9 5000036.9686
11.355013333333334 -2.933333333333333 1.9 5000040.6504
11.232286666666667 -3.566666666666667 1.9 5000036.9686
11.232286666666667 -4.433333333333334 1.9 5000036.9686
10.798403333333333 -17.166666666666668 1.9 5000023.9521
11.043296666666667 -1.9 1.8666666666666667 5000031.2989
11.232286666666667 -2.7333333333333334 1.8666666666666667 5000036.9686
11.232286666666667 -2.7666666666666666 1.8666666666666667 5000036.9686
11.232286666666667 -3.533333333333333 1.8666666666666667 5000036.9686
11.232286666666667 -4.4 1.8666666666666667 5000036.9686
11.232286666666667 -4.433333333333334 1.8666666666666667 5000036.9686
11.129943333333333 -5.0 1.8666666666666667 5000033.8983
11.232286666666667 -2.7333333333333334 1.8333333333333333 5000036.9686
11.232286666666667 -2.7666666666666666 1.8333333333333333 5000036.9686
11.232286666666667 -3.533333333333333 1.8333333333333333 5000036.9686
11.232286666666667 -4.4 1.8333333333333333 5000036.9686
10.848176666666667 -16.166666666666668 1.8333333333333333 5000025.4453
10.848176666666667 -16.2 1.8333333333333333 5000025.4453
11.043296666666667 -1.9666666666666666 1.8 5000031.2989
11.232286666666667 -2.7333333333333334 1.8 5000036.9686
11.232286666666667 -2.7666666666666666 1.8 5000036.9686
11.355013333333334 -2.9 1.8 5000040.6504
11.232286666666667 -3.533333333333333 1.8 5000036.9686
11.232286666666667 -5.3 1.8 5000036.9686
10.754146666666667 -15.733333333333333 1.8 5000022.6244
10.754146666666667 -17.2 1.8 5000022.6244
10.904566666666666 2.4 1.7666666666666666 5000027.137
11.232286666666667 -2.7666666666666666 1.7666666666666666 5000036.9686
11.232286666666667 -3.533333333333333 1.7666666666666666 5000036.9686
11.232286666666667 -4.366666666666666 1.7666666666666666 5000036.9686
11.232286666666667 -4.4 1.7666666666666666 5000036.9686
10.754146666666667 -17.2 1.7666666666666666 5000022.6244
10.754146666666667 -17.766666666666666 1.7666666666666666 5000022.6244
10.904566666666666 2.4 1.7333333333333334 5000027.137
11.232286666666667 -4.366666666666666 1.7333333333333334 5000036.9686
11.232286666666667 -4.4 1.7333333333333334 5000036.9686
11.232286666666667 -5.233333333333333 1.7333333333333334 5000036.9686
10.798403333333333 -16.033333333333335 1.7333333333333334 5000023.9521
10.798403333333333 -16.066666666666666 1.7333333333333334 5000023.9521
10.754146666666667 -17.2 1.7333333333333334 5000022.6244
11.232286666666667 -5.233333333333333 1.7 5000036.9686
10.754146666666667 -17.2 1.7 5000022.6244
10.754146666666667 -17.766666666666666 1.7 5000022.6244
10.848176666666667 -12.933333333333334 1.6666666666666667 5000025.4453
10.754146666666667 -17.2 1.6666666666666667 5000022.6244
10.848176666666667 -12.9 1.6333333333333333 5000025.4453
10.798403333333333 -13.333333333333334 1.6333333333333333 5000023.9521
10.754146666666667 -15.433333333333334 1.6333333333333333 5000022.6244
10.754146666666667 -17.2 1.6333333333333333 5000022.6244
10.754146666666667 -15.333333333333334 1.6 5000022.6244
10.754146666666667 -16.233333333333334 1.6 5000022.6244
11.043296666666667 -16.333333333333332 1.6 5000031.2989
10.754146666666667 -17.766666666666666 1.6 5000022.6244
10.798403333333333 -14.833333333333334 1.5666666666666667 5000023.9521
10.754146666666667 -15.366666666666667 1.5666666666666667 5000022.6244
10.798403333333333 -17.2 1.5333333333333334 5000023.9521
10.848176666666667 -13.266666666666667 1.5 5000025.4453
10.798403333333333 -14.8 1.5 5000023.9521
10.798403333333333 -17.2 1.5 5000023.9521
10.798403333333333 -14.8 1.4666666666666666 5000023.9521
10.798403333333333 -17.2 1.4666666666666666 5000023.9521
10.798403333333333 -14.8 1.4333333333333333 5000023.9521
10.798403333333333 -14.9 1.4333333333333333 5000023.9521
10.798403333333333 -14.933333333333334 1.4333333333333333 5000023.9521
10.798403333333333 -15.266666666666667 1.4333333333333333 5000023.9521
10.798403333333333 -15.3 1.4333333333333333 5000023.9521
10.798403333333333 -14.9 1.4 5000023.9521
10.798403333333333 -15.266666666666667 1.4 5000023.9521
10.798403333333333 -15.3 1.4 5000023.9521
10.798403333333333 -17.866666666666667 1.4 5000023.9521
10.754146666666667 -14.933333333333334 1.3666666666666667 5000022.6244
10.754146666666667 -17.233333333333334 1.3666666666666667 5000022.6244
10.848176666666667 -13.233333333333333 1.3333333333333333 5000025.4453
10.754146666666667 -17.233333333333334 1.3333333333333333 5000022.6244
10.754146666666667 -14.966666666666667 1.3 5000022.6244
10.798403333333333 -15.2 1.3 5000023.9521
10.798403333333333 -15.233333333333333 1.3 5000023.9521
10.798403333333333 -15.2 1.2666666666666666 5000023.9521
10.798403333333333 -15.233333333333333 1.2666666666666666 5000023.9521
10.798403333333333 -17.4 1.2666666666666666 5000023.9521
10.798403333333333 -17.733333333333334 1.2666666666666666 5000023.9521
10.798403333333333 -17.866666666666667 1.2666666666666666 5000023.9521
10.798403333333333 -2.5 1.2333333333333334 5000023.9521
10.798403333333333 -17.666666666666668 1.2333333333333334 5000023.9521
10.798403333333333 -17.833333333333332 1.2333333333333334 5000023.9521
10.754146666666667 -17.266666666666666 1.2 5000022.6244
10.503143333333334 -3.7 0.6 5000015.0943
10.4852 0.3333333333333333 0.4666666666666667 5000014.556
10.39968 -2.2666666666666666 0.13333333333333333 5000011.9904
10.39968 -2.3 0.13333333333333333 5000011.9904
10.3775 -3.3666666666666667 0.0 5000011.325
10.3775 -3.3666666666666667 -0.03333333333333333 5000011.325
10.3775 -3.3333333333333335 -0.06666666666666667 5000011.325
10.36731 -3.3333333333333335 -0.1 5000011.0193
10.33979 -17.5 -0.1 5000010.1937
10.33979 -17.533333333333335 -0.1 5000010.1937
10.33151 -16.5 -0.13333333333333333 5000009.9453
10.33151 -16.533333333333335 -0.13333333333333333 5000009.9453
10.33979 -17.466666666666665 -0.13333333333333333 5000010.1937
10.33979 -17.5 -0.13333333333333333 5000010.1937
10.33979 -17.533333333333335 -0.13333333333333333 5000010.1937
10.357653333333333 -17.866666666666667 -0.13333333333333333 5000010.7296
10.357653333333333 -17.9 -0.13333333333333333 5000010.7296
10.348493333333334 -3.3 -0.16666666666666666 5000010.4548
10.357653333333333 -3.3333333333333335 -0.16666666666666666 5000010.7296
10.33151 -16.466666666666665 -0.16666666666666666 5000009.9453
10.33151 -16.5 -0.16666666666666666 5000009.9453
10.33151 -16.533333333333335 -0.16666666666666666 5000009.9453
10.357653333333333 1.2333333333333334 -0.2 5000010.7296
10.348493333333334 -3.3 -0.2 5000010.4548
10.348493333333334 -3.3333333333333335 -0.2 5000010.4548
10.348493333333334 -3.4 -0.2 5000010.4548
10.323624666666667 -3.4 -0.4666666666666667 5000009.70874
10.308928 -3.1 -0.5 5000009.26784
10.308928 -3.1 -0.5333333333333333 5000009.26784
10.302069 -3.066666666666667 -0.5666666666666667 5000009.06207
10.302069 -3.1 -0.5666666666666667 5000009.06207
10.302069 -3.066666666666667 -0.6 5000009.06207
10.302069 -3.033333333333333 -0.6333333333333333 5000009.06207
10.302069 -3.066666666666667 -0.6333333333333333 5000009.06207
10.295508333333334 -3.033333333333333 -0.6666666666666666 5000008.86525
10.295508333333334 -3.0 -0.7 5000008.86525
10.295508333333334 -2.966666666666667 -0.7333333333333333 5000008.86525
10.295508333333334 -3.0 -0.7333333333333333 5000008.86525
10.271887 -2.6666666666666665 -1.2333333333333334 5000008.15661
10.256509 -2.8666666666666667 -1.2333333333333334 5000007.69527
10.256509 -2.9 -1.2333333333333334 5000007.69527
10.247188333333334 -2.6333333333333333 -1.3 5000007.41565
10.242777333333333 -2.6 -1.3333333333333333 5000007.28332
10.242777333333333 -2.566666666666667 -1.3666666666666667 5000007.28332
10.242777333333333 -2.566666666666667 -1.4 5000007.28332
10.238521333333333 -2.5 -1.4666666666666666 5000007.15564
10.219298333333333 -2.2666666666666666 -1.7666666666666666 5000006.57895
10.219298333333333 -2.3 -1.7666666666666666 5000006.57895
10.219298333333333 -2.3333333333333335 -1.7666666666666666 5000006.57895
10.219298333333333 -2.3666666666666667 -1.7666666666666666 5000006.57895
10.230441333333333 -2.433333333333333 -1.7666666666666666 5000006.91324
10.219298333333333 -2.2666666666666666 -1.8 5000006.57895
10.219298333333333 -2.3 -1.8 5000006.57895
10.219298333333333 -2.3333333333333335 -1.8 5000006.57895
10.219298333333333 -2.3666666666666667 -1.8 5000006.57895
10.191516 0.5333333333333333 -2.433333333333333 5000005.74548
10.191516 0.5 -2.433333333333333 5000005.74548
10.191516 0.4666666666666667 -2.433333333333333 5000005.74548
10.186271666666666 -1.7666666666666666 -2.566666666666667 5000005.58815
10.186271666666666 -1.8666666666666667 -2.566666666666667 5000005.58815
10.186271666666666 -1.9 -2.566666666666667 5000005.58815
10.191516 -2.033333333333333 -2.566666666666667 5000005.74548
10.191516 -2.1 -2.566666666666667 5000005.74548
10.188857333333333 -2.1333333333333333 -2.566666666666667 5000005.66572
10.188857333333333 -2.1666666666666665 -2.566666666666667 5000005.66572
10.186271666666666 -2.2 -2.566666666666667 5000005.58815
10.197063666666667 -1.6666666666666667 -2.6 5000005.91191
10.197063666666667 -1.7 -2.6 5000005.91191
10.197063666666667 -1.7333333333333334 -2.6 5000005.91191
10.186271666666666 -1.7666666666666666 -2.6 5000005.58815
10.186271666666666 -1.8 -2.6 5000005.58815
10.186271666666666 -1.8333333333333333 -2.6 5000005.58815
10.186271666666666 -1.8666666666666667 -2.6 5000005.58815
10.186271666666666 -1.9 -2.6 5000005.58815
10.186271666666666 -1.9333333333333333 -2.6 5000005.58815
10.183756 -1.9666666666666666 -2.6 5000005.51268
10.178923 -1.6 -2.7 5000005.36769
10.178923 -1.5666666666666667 -2.7333333333333334 5000005.36769
10.178923 -1.6 -2.7333333333333334 5000005.36769
10.178923 -1.5333333333333334 -2.7666666666666666 5000005.36769
10.178923 -1.5666666666666667 -2.7666666666666666 5000005.36769
10.174337666666666 -1.5 -2.8333333333333335 5000005.23013
10.174337666666666 -1.5 -2.8666666666666667 5000005.23013
10.174337666666666 -1.4333333333333333 -2.9 5000005.23013
10.174337666666666 -1.4 -2.933333333333333 5000005.23013
10.174337666666666 -1.4 -2.966666666666667 5000005.23013
10.172132 -1.3666666666666667 -3.0 5000005.16396
10.174337666666666 -1.7333333333333334 -3.1333333333333333 5000005.23013
10.165837333333334 -1.2333333333333334 -3.1666666666666665 5000004.97512
10.161891 -1.1 -3.3333333333333335 5000004.85673
10.158127666666667 -1.7 -3.3666666666666667 5000004.74383
10.161891 1.7666666666666666 -3.4 5000004.85673
10.169981333333334 1.8333333333333333 -3.433333333333333 5000005.09944
10.169981333333334 1.7 -3.433333333333333 5000005.09944
10.154535666666666 -0.8666666666666667 -3.6 5000004.63607
10.1528 -1.5666666666666667 -3.6 5000004.584
10.1528 -0.8666666666666667 -3.7 5000004.584
10.1528 -1.3 -3.7 5000004.584
10.151102999999999 -1.3333333333333333 -3.7 5000004.53309
10.147819666666667 -1.4666666666666666 -3.7 5000004.43459
10.1528 -0.8333333333333334 -3.7333333333333334 5000004.584
10.1528 -0.8666666666666667 -3.7333333333333334 5000004.584
10.1528 -0.9 -3.7333333333333334 5000004.584
10.1528 -1.0333333333333334 -3.7333333333333334 5000004.584
10.1528 -1.0666666666666667 -3.7333333333333334 5000004.584
10.156311 -1.1 -3.7333333333333334 5000004.68933
10.154535666666666 -1.1333333333333333 -3.7333333333333334 5000004.63607
10.154535666666666 -1.1666666666666667 -3.7333333333333334 5000004.63607
10.154535666666666 -1.2 -3.7333333333333334 5000004.63607
10.1528 -1.2333333333333334 -3.7333333333333334 5000004.584
10.1528 -1.2666666666666666 -3.7333333333333334 5000004.584
10.1528 -1.3 -3.7333333333333334 5000004.584
10.151102999999999 -1.3333333333333333 -3.7333333333333334 5000004.53309
10.151102999999999 -1.3666666666666667 -3.7333333333333334 5000004.53309
10.147819666666667 -1.4 -3.7333333333333334 5000004.43459
10.147819666666667 -1.4333333333333333 -3.7333333333333334 5000004.43459
10.147819666666667 -1.4666666666666666 -3.7333333333333334 5000004.43459
10.151102999999999 -0.7333333333333333 -3.7666666666666666 5000004.53309
10.151102999999999 -0.7666666666666667 -3.7666666666666666 5000004.53309
10.1528 -0.8 -3.7666666666666666 5000004.584
10.1528 -0.8333333333333334 -3.7666666666666666 5000004.584
10.1528 -0.8666666666666667 -3.7666666666666666 5000004.584
10.1528 -0.9 -3.7666666666666666 5000004.584
10.1528 -0.9333333333333333 -3.7666666666666666 5000004.584
10.1528 -0.9666666666666667 -3.7666666666666666 5000004.584
10.1528 -1.0 -3.7666666666666666 5000004.584
10.1528 -1.0333333333333334 -3.7666666666666666 5000004.584
10.1528 -1.0666666666666667 -3.7666666666666666 5000004.584
10.156311 -1.1 -3.7666666666666666 5000004.68933
10.154535666666666 -1.1333333333333333 -3.7666666666666666 5000004.63607
10.154535666666666 -1.1666666666666667 -3.7666666666666666 5000004.63607
10.154535666666666 -1.2 -3.7666666666666666 5000004.63607
10.1528 -1.2333333333333334 -3.7666666666666666 5000004.584
10.1528 -1.2666666666666666 -3.7666666666666666 5000004.584
10.1528 -1.3 -3.7666666666666666 5000004.584
10.151102999999999 -1.3333333333333333 -3.7666666666666666 5000004.53309
10.151102999999999 -1.3666666666666667 -3.7666666666666666 5000004.53309
10.147819666666667 -0.7 -3.8 5000004.43459
10.151102999999999 -0.7333333333333333 -3.8 5000004.53309
10.151102999999999 -0.7666666666666667 -3.8 5000004.53309
10.151102999999999 -0.8 -3.8 5000004.53309
10.1528 -0.8333333333333334 -3.8 5000004.584
10.159987333333333 -0.5666666666666667 -3.8333333333333335 5000004.79962
10.1528 -2.3 -3.9 5000004.584
10.146231 -0.4666666666666667 -3.933333333333333 5000004.38693
10.146231 -0.5 -3.933333333333333 5000004.38693
10.146231 -0.5333333333333333 -3.933333333333333 5000004.38693
10.137372 1.5 -4.4 5000004.12116
10.137372 1.4666666666666666 -4.4 5000004.12116
10.137372 1.5 -4.433333333333334 5000004.12116
10.137372 1.4666666666666666 -4.433333333333334 5000004.12116
10.137372 1.4333333333333333 -4.433333333333334 5000004.12116
10.137372 1.4 -4.433333333333334 5000004.12116
10.138773333333333 1.4 -4.533333333333333 5000004.1632
10.138773333333333 1.3666666666666667 -4.533333333333333 5000004.1632
10.134653 1.6666666666666667 -4.566666666666666 5000004.03959
10.134653 1.7 -4.6 5000004.03959
10.134653 1.6666666666666667 -4.6 5000004.03959
10.134653 1.6333333333333333 -4.6 5000004.03959
10.134653 1.6 -4.6 5000004.03959
10.138773333333333 1.6 -5.133333333333334 5000004.1632
10.134653 1.6666666666666667 -5.2 5000004.03959
10.134653 1.7 -5.233333333333333 5000004.03959
10.134653 1.6666666666666667 -5.233333333333333 5000004.03959
10.134653 1.7333333333333334 -5.266666666666667 5000004.03959
10.134653 1.7 -5.266666666666667 5000004.03959
10.134653 1.7666666666666666 -5.3 5000004.03959
10.134653 1.7333333333333334 -5.3 5000004.03959
10.134653 0.6 -5.566666666666666 5000004.03959
10.134653 0.6333333333333333 -5.6 5000004.03959
6666666666 5000004.63607
