VERSION .7
FIELDS x y z rgb
SIZE 4 4 4 4
TYPE F F F F
COUNT 1 1 1 1
WIDTH 757
HEIGHT 1
VIEWPOINT 0 0 0 1 0 0 0
POINTS 757
DATA ascii
17.06172 3.6 3.92 5000021.4362
17.06172 3.58 3.92 5000021.4362
17.77464 3.66 3.9 5000022.6244
17.77464 3.64 3.9 5000022.6244
17.06172 3.62 3.9 5000021.4362
17.77464 3.68 3.88 5000022.6244
17.77464 3.66 3.88 5000022.6244
17.77464 3.68 3.86 5000022.6244
20.4822 -4.38 3.84 5000027.137
17.77464 3.62 3.82 5000022.6244
17.06172 3.48 3.78 5000021.4362
17.77464 3.26 3.72 5000022.6244
17.77464 3.26 3.7 5000022.6244
34.65684 0.34 3.58 5000050.7614
20.4822 -4.7 3.58 5000027.137
20.4822 -4.72 3.58 5000027.137
17.77464 -4.9 3.58 5000022.6244
17.77464 -4.92 3.58 5000022.6244
17.77464 -4.94 3.58 5000022.6244
17.77464 -4.94 3.56 5000022.6244
17.77464 -5.02 3.5 5000022.6244
18.57126 2.34 3.46 5000023.9521
18.57126 2.32 3.46 5000023.9521
19.467180000000003 2.94 3.44 5000025.4453
18.57126 2.36 3.44 5000023.9521
18.57126 2.34 3.44 5000023.9521
18.57126 2.32 3.44 5000023.9521
19.467180000000003 2.94 3.42 5000025.4453
17.77464 -5.06 3.4 5000022.6244
21.64188 -5.28 3.36 5000029.0698
17.77464 -5.1 3.32 5000022.6244
18.57126 -5.14 3.18 5000023.9521
20.4822 -4.34 3.14 5000027.137
31.28802 -0.22 3.0 5000045.1467
31.28802 -0.24 3.0 5000045.1467
18.57126 -5.2 3.0 5000023.9521
31.28802 -0.2 2.98 5000045.1467
31.28802 -0.22 2.98 5000045.1467
28.590239999999998 1.74 2.8 5000040.6504
28.590239999999998 1.9 2.54 5000040.6504
28.590239999999998 1.7 2.48 5000040.6504
22.97934 -3.36 2.46 5000031.2989
22.97934 -3.38 2.46 5000031.2989
22.97934 -3.4 2.46 5000031.2989
26.38116 0.16 2.26 5000036.9686
31.28802 1.74 2.12 5000045.1467
31.28802 1.76 2.1 5000045.1467
31.28802 -0.24 2.1 5000045.1467
18.57126 2.96 2.08 5000023.9521
18.57126 2.96 2.06 5000023.9521
18.57126 2.96 2.04 5000023.9521
31.28802 2.78 2.04 5000045.1467
17.77464 2.96 2.02 5000022.6244
17.77464 2.96 2.0 5000022.6244
19.467180000000003 -4.64 2.0 5000025.4453
19.467180000000003 -4.66 2.0 5000025.4453
17.77464 2.96 1.98 5000022.6244
17.77464 2.96 1.96 5000022.6244
31.28802 -0.24 1.96 5000045.1467
18.57126 2.96 1.94 5000023.9521
18.57126 2.96 1.92 5000023.9521
18.57126 2.96 1.9 5000023.9521
22.97934 -3.36 1.9 5000031.2989
22.97934 -3.38 1.9 5000031.2989
22.97934 -3.4 1.9 5000031.2989
21.64188 -3.42 1.9 5000029.0698
22.97934 -3.24 1.88 5000031.2989
24.53898 -3.26 1.88 5000033.8983
24.53898 -3.28 1.88 5000033.8983
26.38116 -3.3 1.88 5000036.9686
26.38116 -3.32 1.88 5000036.9686
18.57126 2.96 1.86 5000023.9521
18.57126 2.96 1.84 5000023.9521
24.53898 -5.68 1.82 5000033.8983
24.53898 -5.7 1.82 5000033.8983
18.57126 2.96 1.8 5000023.9521
31.28802 2.8 1.8 5000045.1467
24.53898 0.12 1.8 5000033.8983
18.57126 2.96 1.78 5000023.9521
38.9826 5.2 1.76 5000057.971
18.57126 2.96 1.76 5000023.9521
31.28802 2.8 1.76 5000045.1467
38.9826 5.2 1.74 5000057.971
18.57126 2.96 1.74 5000023.9521
38.9826 5.2 1.72 5000057.971
18.57126 2.96 1.72 5000023.9521
38.9826 5.2 1.7 5000057.971
18.57126 2.96 1.7 5000023.9521
18.57126 2.96 1.68 5000023.9521
20.4822 5.46 1.66 5000027.137
18.57126 2.96 1.66 5000023.9521
20.4822 5.48 1.64 5000027.137
20.4822 5.46 1.64 5000027.137
38.9826 4.96 1.64 5000057.971
18.57126 2.96 1.64 5000023.9521
20.4822 5.48 1.62 5000027.137
20.4822 5.46 1.62 5000027.137
38.9826 4.96 1.62 5000057.971
18.57126 2.96 1.62 5000023.9521
20.4822 5.6 1.6 5000027.137
20.4822 5.48 1.6 5000027.137
20.4822 5.46 1.6 5000027.137
18.57126 2.96 1.6 5000023.9521
20.4822 5.6 1.58 5000027.137
20.4822 5.48 1.58 5000027.137
20.4822 5.46 1.58 5000027.137
18.57126 2.96 1.58 5000023.9521
20.4822 5.6 1.56 5000027.137
20.4822 5.48 1.56 5000027.137
20.4822 5.46 1.56 5000027.137
38.9826 4.96 1.56 5000057.971
18.57126 2.96 1.56 5000023.9521
20.4822 5.6 1.54 5000027.137
20.4822 5.48 1.54 5000027.137
20.4822 5.46 1.54 5000027.137
38.9826 4.96 1.54 5000057.971
18.57126 2.96 1.54 5000023.9521
20.4822 5.6 1.52 5000027.137
20.4822 5.48 1.52 5000027.137
38.9826 5.0 1.52 5000057.971
38.9826 4.98 1.52 5000057.971
18.57126 2.96 1.52 5000023.9521
20.4822 5.6 1.5 5000027.137
20.4822 5.48 1.5 5000027.137
38.9826 5.0 1.5 5000057.971
18.57126 2.96 1.5 5000023.9521
20.4822 5.6 1.48 5000027.137
20.4822 5.48 1.48 5000027.137
18.57126 2.96 1.48 5000023.9521
26.38116 0.2 1.48 5000036.9686
20.4822 5.6 1.46 5000027.137
20.4822 5.48 1.46 5000027.137
38.9826 5.22 1.46 5000057.971
38.9826 4.96 1.46 5000057.971
18.57126 2.96 1.46 5000023.9521
26.38116 0.22 1.46 5000036.9686
20.4822 5.6 1.44 5000027.137
20.4822 5.48 1.44 5000027.137
38.9826 4.96 1.44 5000057.971
18.57126 2.96 1.44 5000023.9521
20.4822 5.6 1.42 5000027.137
20.4822 5.48 1.42 5000027.137
38.9826 4.98 1.42 5000057.971
38.9826 4.96 1.42 5000057.971
18.57126 2.96 1.42 5000023.9521
20.4822 5.6 1.4 5000027.137
20.4822 5.48 1.4 5000027.137
38.9826 4.98 1.4 5000057.971
34.65684 4.2 1.4 5000050.7614
18.57126 2.96 1.4 5000023.9521
20.4822 5.48 1.38 5000027.137
38.9826 5.22 1.38 5000057.971
38.9826 5.0 1.38 5000057.971
34.65684 4.2 1.38 5000050.7614
18.57126 2.96 1.38 5000023.9521
20.4822 5.48 1.36 5000027.137
34.65684 4.2 1.36 5000050.7614
18.57126 2.96 1.36 5000023.9521
20.4822 5.48 1.34 5000027.137
38.9826 4.92 1.34 5000057.971
18.57126 2.96 1.34 5000023.9521
20.4822 -3.38 1.34 5000027.137
24.53898 -3.4 1.34 5000033.8983
22.97934 -3.42 1.34 5000031.2989
24.53898 -3.44 1.34 5000033.8983
24.53898 -3.46 1.34 5000033.8983
20.4822 5.48 1.32 5000027.137
38.9826 4.94 1.32 5000057.971
38.9826 4.92 1.32 5000057.971
18.57126 2.96 1.32 5000023.9521
28.590239999999998 -3.24 1.32 5000040.6504
28.590239999999998 -3.26 1.32 5000040.6504
28.590239999999998 -3.28 1.32 5000040.6504
28.590239999999998 -3.3 1.32 5000040.6504
26.38116 -3.32 1.32 5000036.9686
20.4822 5.48 1.3 5000027.137
18.57126 2.96 1.3 5000023.9521
28.590239999999998 1.7 1.3 5000040.6504
20.4822 5.48 1.28 5000027.137
38.9826 5.0 1.28 5000057.971
38.9826 4.96 1.28 5000057.971
38.9826 4.94 1.28 5000057.971
18.57126 2.96 1.28 5000023.9521
18.57126 2.96 1.26 5000023.9521
28.590239999999998 1.72 1.26 5000040.6504
44.74056 5.72 1.24 5000067.5676
18.57126 2.96 1.24 5000023.9521
31.28802 1.74 1.24 5000045.1467
38.9826 4.96 1.22 5000057.971
18.57126 2.96 1.22 5000023.9521
18.57126 2.96 1.2 5000023.9521
31.28802 -0.24 1.2 5000045.1467
18.57126 2.96 1.18 5000023.9521
28.590239999999998 1.74 1.18 5000040.6504
18.57126 2.96 1.16 5000023.9521
28.590239999999998 1.76 1.16 5000040.6504
28.590239999999998 1.78 1.14 5000040.6504
18.57126 2.96 1.12 5000023.9521
18.57126 2.96 1.1 5000023.9521
20.4822 5.48 1.08 5000027.137
44.74056 4.92 1.08 5000067.5676
18.57126 2.96 1.08 5000023.9521
20.4822 5.6 1.06 5000027.137
20.4822 5.48 1.06 5000027.137
44.74056 4.92 1.06 5000067.5676
18.57126 2.96 1.06 5000023.9521
20.4822 5.6 1.04 5000027.137
20.4822 5.48 1.04 5000027.137
18.57126 2.96 1.04 5000023.9521
21.64188 -5.84 1.04 5000029.0698
20.4822 5.6 1.02 5000027.137
20.4822 5.48 1.02 5000027.137
18.57126 2.96 1.02 5000023.9521
24.53898 -2.34 1.02 5000033.8983
24.53898 -2.36 1.02 5000033.8983
20.4822 5.6 1.0 5000027.137
20.4822 5.48 1.0 5000027.137
20.4822 5.6 0.98 5000027.137
20.4822 5.48 0.98 5000027.137
28.590239999999998 1.74 0.98 5000040.6504
20.4822 5.6 0.96 5000027.137
20.4822 5.48 0.96 5000027.137
18.57126 3.14 0.96 5000023.9521
18.57126 3.12 0.96 5000023.9521
28.590239999999998 1.74 0.96 5000040.6504
20.4822 5.6 0.94 5000027.137
20.4822 5.48 0.94 5000027.137
18.57126 3.14 0.94 5000023.9521
28.590239999999998 1.76 0.94 5000040.6504
20.4822 5.6 0.92 5000027.137
20.4822 5.48 0.92 5000027.137
18.57126 3.14 0.92 5000023.9521
31.28802 1.78 0.92 5000045.1467
20.4822 5.6 0.9 5000027.137
20.4822 5.48 0.9 5000027.137
18.57126 3.14 0.9 5000023.9521
31.28802 1.8 0.9 5000045.1467
20.4822 5.6 0.88 5000027.137
18.57126 3.14 0.88 5000023.9521
18.57126 3.0 0.88 5000023.9521
20.4822 5.6 0.86 5000027.137
20.4822 5.48 0.86 5000027.137
34.65684 4.16 0.86 5000050.7614
34.65684 4.14 0.86 5000050.7614
18.57126 3.14 0.86 5000023.9521
18.57126 3.0 0.86 5000023.9521
18.57126 2.98 0.86 5000023.9521
26.38116 -4.16 0.86 5000036.9686
20.4822 -4.22 0.86 5000027.137
20.4822 -4.24 0.86 5000027.137
20.4822 -4.26 0.86 5000027.137
19.467180000000003 -4.28 0.86 5000025.4453
20.4822 5.6 0.84 5000027.137
20.4822 5.48 0.84 5000027.137
34.65684 4.16 0.84 5000050.7614
18.57126 3.14 0.84 5000023.9521
18.57126 3.0 0.84 5000023.9521
28.590239999999998 1.84 0.84 5000040.6504
20.4822 5.6 0.82 5000027.137
20.4822 5.48 0.82 5000027.137
34.65684 4.16 0.82 5000050.7614
18.57126 3.14 0.82 5000023.9521
18.57126 3.0 0.82 5000023.9521
28.590239999999998 1.84 0.82 5000040.6504
34.65684 1.52 0.82 5000050.7614
20.4822 5.6 0.8 5000027.137
20.4822 5.48 0.8 5000027.137
18.57126 3.14 0.8 5000023.9521
18.57126 3.0 0.8 5000023.9521
17.06172 -3.38 0.8 5000021.4362
17.06172 -3.4 0.8 5000021.4362
17.06172 -3.42 0.8 5000021.4362
20.4822 5.6 0.78 5000027.137
18.57126 3.14 0.78 5000023.9521
17.77464 3.0 0.78 5000022.6244
26.38116 -3.16 0.78 5000036.9686
26.38116 -3.18 0.78 5000036.9686
26.38116 -3.2 0.78 5000036.9686
24.53898 -3.22 0.78 5000033.8983
22.97934 -3.28 0.78 5000031.2989
20.4822 5.6 0.76 5000027.137
18.57126 3.14 0.76 5000023.9521
17.77464 2.98 0.76 5000022.6244
26.38116 0.3 0.76 5000036.9686
20.4822 5.6 0.74 5000027.137
20.4822 5.48 0.74 5000027.137
18.57126 3.14 0.74 5000023.9521
17.77464 2.96 0.74 5000022.6244
20.4822 5.6 0.72 5000027.137
20.4822 5.48 0.72 5000027.137
18.57126 3.14 0.72 5000023.9521
31.28802 1.82 0.72 5000045.1467
20.4822 5.6 0.7 5000027.137
18.57126 3.14 0.7 5000023.9521
20.4822 5.6 0.68 5000027.137
20.4822 5.48 0.68 5000027.137
18.57126 3.14 0.68 5000023.9521
20.4822 5.6 0.66 5000027.137
20.4822 5.48 0.66 5000027.137
18.57126 3.14 0.66 5000023.9521
18.57126 3.12 0.66 5000023.9521
18.57126 3.0 0.66 5000023.9521
20.4822 5.6 0.64 5000027.137
20.4822 5.48 0.64 5000027.137
18.57126 3.14 0.64 5000023.9521
18.57126 3.0 0.64 5000023.9521
20.4822 5.72 0.62 5000027.137
20.4822 5.6 0.62 5000027.137
20.4822 5.48 0.62 5000027.137
18.57126 3.14 0.62 5000023.9521
18.57126 3.0 0.62 5000023.9521
18.57126 2.86 0.62 5000023.9521
20.4822 5.72 0.6 5000027.137
20.4822 5.6 0.6 5000027.137
20.4822 5.46 0.6 5000027.137
18.57126 3.14 0.6 5000023.9521
18.57126 3.0 0.6 5000023.9521
18.57126 2.86 0.6 5000023.9521
20.4822 5.6 0.58 5000027.137
20.4822 5.46 0.58 5000027.137
18.57126 3.14 0.58 5000023.9521
18.57126 3.0 0.58 5000023.9521
18.57126 2.86 0.58 5000023.9521
20.4822 5.6 0.56 5000027.137
20.4822 5.46 0.56 5000027.137
18.57126 3.14 0.56 5000023.9521
18.57126 3.0 0.56 5000023.9521
18.57126 2.86 0.56 5000023.9521
20.4822 5.6 0.54 5000027.137
52.78302 4.92 0.54 5000080.9717
18.57126 3.14 0.54 5000023.9521
18.57126 3.0 0.54 5000023.9521
18.57126 2.86 0.54 5000023.9521
31.28802 1.8 0.54 5000045.1467
20.4822 5.6 0.52 5000027.137
20.4822 5.46 0.52 5000027.137
18.57126 3.14 0.52 5000023.9521
18.57126 3.12 0.52 5000023.9521
18.57126 3.0 0.52 5000023.9521
18.57126 2.86 0.52 5000023.9521
31.28802 1.8 0.52 5000045.1467
20.4822 5.6 0.5 5000027.137
20.4822 5.46 0.5 5000027.137
52.78302 4.92 0.5 5000080.9717
18.57126 3.14 0.5 5000023.9521
18.57126 3.12 0.5 5000023.9521
18.57126 2.86 0.5 5000023.9521
20.4822 5.6 0.48 5000027.137
20.4822 5.46 0.48 5000027.137
20.4822 5.6 0.46 5000027.137
20.4822 5.46 0.46 5000027.137
52.78302 4.92 0.46 5000080.9717
34.65684 4.12 0.46 5000050.7614
20.4822 5.6 0.44 5000027.137
20.4822 5.46 0.44 5000027.137
20.4822 5.6 0.42 5000027.137
20.4822 5.46 0.42 5000027.137
20.4822 5.6 0.4 5000027.137
20.4822 5.46 0.4 5000027.137
20.4822 5.6 0.38 5000027.137
20.4822 5.46 0.38 5000027.137
34.65684 1.82 0.38 5000050.7614
34.65684 1.8 0.38 5000050.7614
20.4822 5.6 0.36 5000027.137
20.4822 5.46 0.36 5000027.137
34.65684 4.12 0.36 5000050.7614
34.65684 1.82 0.36 5000050.7614
20.4822 5.74 0.34 5000027.137
20.4822 5.72 0.34 5000027.137
20.4822 5.6 0.34 5000027.137
20.4822 5.46 0.34 5000027.137
34.65684 4.12 0.34 5000050.7614
34.65684 1.82 0.34 5000050.7614
20.4822 5.74 0.32 5000027.137
20.4822 5.72 0.32 5000027.137
20.4822 5.46 0.32 5000027.137
34.65684 4.12 0.32 5000050.7614
20.4822 5.74 0.3 5000027.137
20.4822 5.48 0.3 5000027.137
20.4822 5.46 0.3 5000027.137
26.38116 0.46 0.3 5000036.9686
20.4822 5.74 0.28 5000027.137
20.4822 5.48 0.28 5000027.137
20.4822 5.46 0.28 5000027.137
20.4822 5.74 0.26 5000027.137
20.4822 5.46 0.26 5000027.137
28.590239999999998 3.02 0.26 5000040.6504
38.9826 -2.26 0.26 5000057.971
38.9826 -2.28 0.26 5000057.971
38.9826 -2.3 0.26 5000057.971
20.4822 -4.46 0.26 5000027.137
20.4822 -4.48 0.26 5000027.137
19.467180000000003 -4.6 0.26 5000025.4453
20.4822 5.74 0.24 5000027.137
20.4822 5.46 0.24 5000027.137
31.28802 3.02 0.24 5000045.1467
31.28802 1.96 0.24 5000045.1467
31.28802 1.94 0.24 5000045.1467
20.4822 5.74 0.22 5000027.137
20.4822 5.46 0.22 5000027.137
31.28802 3.02 0.22 5000045.1467
20.4822 5.74 0.2 5000027.137
20.4822 5.46 0.2 5000027.137
34.65684 4.18 0.2 5000050.7614
31.28802 3.02 0.2 5000045.1467
20.4822 5.74 0.18 5000027.137
20.4822 5.46 0.18 5000027.137
34.65684 4.26 0.18 5000050.7614
20.4822 5.74 0.16 5000027.137
20.4822 5.46 0.16 5000027.137
20.4822 5.74 0.14 5000027.137
20.4822 5.46 0.14 5000027.137
31.28802 3.02 0.14 5000045.1467
20.4822 5.74 0.12 5000027.137
20.4822 5.72 0.12 5000027.137
20.4822 5.46 0.12 5000027.137
34.65684 4.24 0.12 5000050.7614
20.4822 5.74 0.1 5000027.137
20.4822 5.72 0.1 5000027.137
20.4822 5.46 0.1 5000027.137
38.9826 2.38 0.1 5000057.971
20.4822 5.74 0.08 5000027.137
20.4822 5.72 0.08 5000027.137
20.4822 5.46 0.08 5000027.137
38.9826 2.38 0.08 5000057.971
34.65684 1.26 0.08 5000050.7614
20.4822 5.74 0.06 5000027.137
20.4822 5.72 0.06 5000027.137
20.4822 5.46 0.06 5000027.137
38.9826 2.38 0.06 5000057.971
20.4822 5.74 0.04 5000027.137
20.4822 5.72 0.04 5000027.137
20.4822 5.46 0.04 5000027.137
31.28802 3.02 0.04 5000045.1467
20.4822 5.74 0.02 5000027.137
20.4822 5.72 0.02 5000027.137
20.4822 5.46 0.02 5000027.137
38.9826 2.38 0.02 5000057.971
20.4822 5.74 0.0 5000027.137
20.4822 5.72 0.0 5000027.137
20.4822 5.46 0.0 5000027.137
38.9826 2.38 0.0 5000057.971
20.4822 5.74 -0.02 5000027.137
20.4822 5.72 -0.02 5000027.137
20.4822 5.46 -0.02 5000027.137
20.4822 5.74 -0.04 5000027.137
20.4822 5.72 -0.04 5000027.137
20.4822 5.46 -0.04 5000027.137
20.4822 5.74 -0.06 5000027.137
20.4822 5.72 -0.06 5000027.137
20.4822 5.46 -0.06 5000027.137
20.4822 5.72 -0.08 5000027.137
20.4822 5.6 -0.08 5000027.137
20.4822 5.46 -0.08 5000027.137
38.9826 2.38 -0.08 5000057.971
20.4822 5.72 -0.1 5000027.137
20.4822 5.46 -0.1 5000027.137
38.9826 2.38 -0.1 5000057.971
34.65684 4.22 -0.12 5000050.7614
21.64188 -6.62 -0.14 5000029.0698
44.74056 5.62 -0.16 5000067.5676
21.64188 -6.62 -0.16 5000029.0698
52.78302 5.72 -0.18 5000080.9717
18.57126 2.86 -0.18 5000023.9521
28.590239999999998 1.94 -0.18 5000040.6504
21.64188 -6.62 -0.18 5000029.0698
18.57126 2.86 -0.2 5000023.9521
28.590239999999998 1.94 -0.2 5000040.6504
20.4822 5.6 -0.22 5000027.137
20.4822 5.58 -0.22 5000027.137
20.4822 5.46 -0.22 5000027.137
28.590239999999998 1.94 -0.22 5000040.6504
20.4822 5.6 -0.24 5000027.137
20.4822 5.58 -0.24 5000027.137
20.4822 5.46 -0.24 5000027.137
20.4822 5.6 -0.26 5000027.137
20.4822 5.46 -0.26 5000027.137
20.4822 5.6 -0.28 5000027.137
20.4822 5.58 -0.28 5000027.137
20.4822 5.46 -0.28 5000027.137
20.4822 5.6 -0.3 5000027.137
20.4822 5.46 -0.3 5000027.137
38.9826 2.1 -0.3 5000057.971
20.4822 5.6 -0.32 5000027.137
20.4822 5.58 -0.32 5000027.137
20.4822 5.46 -0.32 5000027.137
21.64188 -5.88 -0.32 5000029.0698
20.4822 5.6 -0.34 5000027.137
20.4822 5.46 -0.34 5000027.137
19.467180000000003 -4.48 -0.34 5000025.4453
21.64188 -5.88 -0.34 5000029.0698
20.4822 5.6 -0.36 5000027.137
20.4822 5.46 -0.36 5000027.137
19.467180000000003 -4.46 -0.36 5000025.4453
19.467180000000003 -4.48 -0.36 5000025.4453
22.97934 -5.38 -0.36 5000031.2989
20.4822 5.6 -0.38 5000027.137
20.4822 5.58 -0.38 5000027.137
20.4822 5.46 -0.38 5000027.137
22.97934 -5.38 -0.38 5000031.2989
21.64188 -5.88 -0.38 5000029.0698
20.4822 5.6 -0.4 5000027.137
20.4822 5.58 -0.4 5000027.137
20.4822 5.46 -0.4 5000027.137
21.64188 -5.88 -0.4 5000029.0698
20.4822 5.6 -0.42 5000027.137
20.4822 5.58 -0.42 5000027.137
20.4822 5.46 -0.42 5000027.137
21.64188 -5.88 -0.42 5000029.0698
20.4822 5.46 -0.44 5000027.137
17.77464 2.92 -0.44 5000022.6244
21.64188 -5.88 -0.44 5000029.0698
52.78302 5.28 -0.46 5000080.9717
22.97934 -5.38 -0.46 5000031.2989
21.64188 -5.88 -0.46 5000029.0698
22.97934 -5.38 -0.48 5000031.2989
21.64188 -5.88 -0.48 5000029.0698
34.65684 5.14 -0.5 5000050.7614
18.57126 2.92 -0.5 5000023.9521
19.467180000000003 -4.64 -0.5 5000025.4453
22.97934 -5.38 -0.5 5000031.2989
21.64188 -5.88 -0.5 5000029.0698
34.65684 5.14 -0.52 5000050.7614
18.57126 2.92 -0.52 5000023.9521
18.57126 2.84 -0.52 5000023.9521
34.65684 4.68 -0.54 5000050.7614
18.57126 2.92 -0.54 5000023.9521
18.57126 2.92 -0.56 5000023.9521
20.4822 5.6 -0.58 5000027.137
18.57126 2.92 -0.58 5000023.9521
20.4822 5.6 -0.6 5000027.137
18.57126 2.92 -0.6 5000023.9521
28.590239999999998 2.58 -0.6 5000040.6504
21.64188 -5.88 -0.6 5000029.0698
20.4822 5.6 -0.62 5000027.137
31.28802 4.46 -0.62 5000045.1467
31.28802 3.7 -0.62 5000045.1467
18.57126 2.92 -0.62 5000023.9521
28.590239999999998 2.58 -0.62 5000040.6504
22.97934 -5.38 -0.62 5000031.2989
21.64188 -5.88 -0.62 5000029.0698
20.4822 5.6 -0.64 5000027.137
31.28802 3.72 -0.64 5000045.1467
21.64188 -5.88 -0.64 5000029.0698
20.4822 5.6 -0.66 5000027.137
20.4822 5.58 -0.66 5000027.137
34.65684 5.18 -0.66 5000050.7614
31.28802 3.82 -0.66 5000045.1467
18.57126 2.92 -0.66 5000023.9521
21.64188 -5.88 -0.66 5000029.0698
34.65684 5.68 -0.68 5000050.7614
34.65684 5.66 -0.68 5000050.7614
20.4822 5.6 -0.68 5000027.137
20.4822 5.58 -0.68 5000027.137
34.65684 5.24 -0.68 5000050.7614
34.65684 5.18 -0.68 5000050.7614
18.57126 2.92 -0.68 5000023.9521
21.64188 -5.88 -0.68 5000029.0698
20.4822 5.6 -0.7 5000027.137
20.4822 5.58 -0.7 5000027.137
20.4822 5.46 -0.7 5000027.137
34.65684 5.24 -0.7 5000050.7614
20.4822 5.6 -0.72 5000027.137
20.4822 5.58 -0.72 5000027.137
20.4822 5.46 -0.72 5000027.137
18.57126 2.92 -0.72 5000023.9521
26.38116 2.02 -0.72 5000036.9686
17.77464 -6.44 -0.72 5000022.6244
20.4822 5.46 -0.74 5000027.137
31.28802 4.32 -0.74 5000045.1467
18.57126 2.92 -0.74 5000023.9521
17.77464 -6.44 -0.74 5000022.6244
17.77464 -6.46 -0.74 5000022.6244
17.77464 -6.48 -0.74 5000022.6244
31.28802 4.34 -0.76 5000045.1467
31.28802 4.32 -0.76 5000045.1467
31.28802 4.0 -0.76 5000045.1467
18.57126 2.92 -0.76 5000023.9521
17.06172 -5.5 -0.76 5000021.4362
17.77464 -6.44 -0.76 5000022.6244
17.77464 -6.46 -0.76 5000022.6244
31.28802 4.34 -0.78 5000045.1467
34.65684 4.26 -0.78 5000050.7614
31.28802 4.0 -0.78 5000045.1467
18.57126 2.92 -0.78 5000023.9521
18.57126 -4.72 -0.78 5000023.9521
34.65684 4.26 -0.8 5000050.7614
31.28802 4.02 -0.8 5000045.1467
31.28802 4.0 -0.8 5000045.1467
31.28802 3.94 -0.8 5000045.1467
31.28802 3.94 -0.82 5000045.1467
26.38116 2.4 -0.82 5000036.9686
17.77464 -6.46 -0.82 5000022.6244
17.77464 -6.48 -0.82 5000022.6244
20.4822 2.94 -0.84 5000027.137
26.38116 2.4 -0.84 5000036.9686
17.77464 -4.26 -0.84 5000022.6244
20.4822 2.94 -0.86 5000027.137
26.38116 2.4 -0.86 5000036.9686
26.38116 1.92 -0.86 5000036.9686
24.53898 1.38 -0.86 5000033.8983
24.53898 1.04 -0.86 5000033.8983
26.38116 2.4 -0.88 5000036.9686
26.38116 1.92 -0.88 5000036.9686
24.53898 1.4 -0.88 5000033.8983
24.53898 1.04 -0.88 5000033.8983
20.4822 2.92 -0.9 5000027.137
26.38116 2.4 -0.9 5000036.9686
26.38116 1.4 -0.9 5000036.9686
24.53898 0.84 -0.9 5000033.8983
26.38116 2.4 -0.92 5000036.9686
20.4822 5.58 -0.94 5000027.137
26.38116 1.42 -0.94 5000036.9686
20.4822 5.58 -0.96 5000027.137
20.4822 5.46 -0.96 5000027.137
17.77464 -5.76 -0.96 5000022.6244
17.77464 -5.78 -0.96 5000022.6244
17.77464 -6.48 -0.96 5000022.6244
17.77464 -5.84 -0.98 5000022.6244
17.77464 -6.48 -0.98 5000022.6244
19.467180000000003 -3.84 -1.0 5000025.4453
17.77464 -5.88 -1.02 5000022.6244
17.77464 -6.48 -1.02 5000022.6244
19.467180000000003 -3.8 -1.04 5000025.4453
17.77464 -5.88 -1.04 5000022.6244
18.57126 -5.02 -1.06 5000023.9521
17.06172 -5.36 -1.06 5000021.4362
17.77464 -5.0 -1.08 5000022.6244
17.77464 -6.48 -1.08 5000022.6244
17.77464 -6.48 -1.1 5000022.6244
17.77464 -6.5 -1.1 5000022.6244
17.77464 -5.0 -1.12 5000022.6244
17.77464 -5.0 -1.14 5000022.6244
17.77464 -5.3 -1.14 5000022.6244
18.57126 -5.26 -1.22 5000023.9521
18.57126 -5.24 -1.24 5000023.9521
18.57126 -5.26 -1.24 5000023.9521
18.57126 -5.28 -1.24 5000023.9521
17.77464 2.6 -1.28 5000022.6244
12.3522 4.44 -1.78 5000013.587
10.995 2.84 -2.0 5000011.325
10.995 2.82 -2.0 5000011.325
10.637759999999998 2.14 -2.08 5000010.7296
10.472879999999998 2.16 -2.12 5000010.4548
10.316220000000001 2.18 -2.16 5000010.1937
9.889902000000001 -6.26 -2.18 5000009.48317
9.760704 -6.28 -2.18 5000009.26784
10.316220000000001 2.2 -2.2 5000010.1937
9.889902000000001 -6.22 -2.2 5000009.48317
9.889902000000001 -6.24 -2.2 5000009.48317
9.889902000000001 -6.26 -2.2 5000009.48317
9.760704 -6.28 -2.2 5000009.26784
10.16718 5.12 -2.22 5000009.9453
10.16718 5.1 -2.22 5000009.9453
10.16718 2.22 -2.22 5000009.9453
10.16718 2.2 -2.22 5000009.9453
10.316220000000001 2.18 -2.22 5000010.1937
10.316220000000001 2.16 -2.22 5000010.1937
10.472879999999998 2.14 -2.22 5000010.4548
10.316220000000001 2.12 -2.22 5000010.1937
9.889902000000001 2.2 -2.4 5000009.48317
9.51915 2.36 -2.44 5000008.86525
9.406074 2.36 -2.46 5000008.67679
9.297708 2.38 -2.5 5000008.49618
9.297708 2.4 -2.52 5000008.49618
9.193757999999999 2.42 -2.54 5000008.32293
9.193757999999999 2.4 -2.54 5000008.32293
9.093966 2.44 -2.58 5000008.15661
9.093966 2.46 -2.6 5000008.15661
9.093966 2.44 -2.6 5000008.15661
8.99808 2.46 -2.62 5000007.9968
8.99808 2.46 -2.66 5000007.9968
8.99808 2.44 -2.66 5000007.9968
8.64939 2.7 -2.96 5000007.41565
8.419410000000001 2.64 -2.96 5000007.03235
8.347944 2.58 -2.96 5000006.91324
8.147369999999999 2.8 -3.08 5000006.57895
8.084754 2.84 -3.14 5000006.47459
8.084754 2.82 -3.14 5000006.47459
8.347944 2.88 -3.2 5000006.91324
7.7992799999999995 3.02 -3.36 5000005.9988
7.7992799999999995 3.0 -3.36 5000005.9988
7.7992799999999995 2.98 -3.36 5000005.9988
7.908282 2.9 -3.36 5000006.18047
7.7992799999999995 3.02 -3.38 5000005.9988
7.7992799999999995 3.0 -3.38 5000005.9988
7.7992799999999995 2.98 -3.38 5000005.9988
7.259664000000001 4.96 -3.82 5000005.09944
7.259664000000001 5.0 -3.86 5000005.09944
7.259664000000001 4.98 -3.86 5000005.09944
7.221906000000001 5.0 -3.88 5000005.03651
7.221906000000001 4.98 -3.88 5000005.03651
7.221906000000001 4.96 -3.88 5000005.03651
7.114037999999999 3.46 -3.98 5000004.85673
7.114037999999999 3.44 -3.98 5000004.85673
7.114037999999999 3.36 -3.98 5000004.85673
7.149126 3.2 -3.98 5000004.91521
7.149126 3.18 -3.98 5000004.91521
7.149126 3.16 -3.98 5000004.91521
7.259664000000001 3.52 -4.0 5000005.09944
7.221906000000001 3.48 -4.0 5000005.03651
7.114037999999999 3.46 -4.0 5000004.85673
7.114037999999999 3.44 -4.0 5000004.85673
7.114037999999999 3.42 -4.0 5000004.85673
7.114037999999999 3.4 -4.0 5000004.85673
7.114037999999999 3.38 -4.0 5000004.85673
7.013598 3.56 -4.06 5000004.68933
7.013598 3.58 -4.08 5000004.68933
7.013598 3.6 -4.1 5000004.68933
7.013598 3.62 -4.12 5000004.68933
6.919854 3.72 -4.24 5000004.53309
6.919854 3.74 -4.28 5000004.53309
6.776765999999999 3.88 -4.44 5000004.29461
6.860754 4.16 -4.82 5000004.43459
6.69792 4.18 -4.86 5000004.1632
6.647982 4.2 -4.88 5000004.07997
6.623754 3.92 -4.88 5000004.03959
6.623754 3.9 -4.88 5000004.03959
6.623754 3.88 -4.88 5000004.03959
6.623754 4.32 -4.9 5000004.03959
6.623754 4.3 -4.9 5000004.03959
6.623754 4.22 -4.9 5000004.03959
6.623754 4.2 -4.9 5000004.03959
6.623754 4.08 -4.9 5000004.03959
6.623754 4.06 -4.9 5000004.03959
6.623754 4.04 -4.9 5000004.03959
6.623754 4.02 -4.9 5000004.03959
6.623754 4.0 -4.9 5000004.03959
6.623754 3.98 -4.9 5000004.03959
6.623754 3.96 -4.9 5000004.03959
6.623754 3.94 -4.9 5000004.03959
6.623754 3.92 -4.9 5000004.03959
6.623754 3.9 -4.9 5000004.03959
6.623754 3.88 -4.9 5000004.03959
6.623754 4.3 -4.92 5000004.03959
6.623754 4.28 -4.92 5000004.03959
6.623754 4.22 -4.92 5000004.03959
6.623754 4.2 -4.92 5000004.03959
6.623754 4.18 -4.92 5000004.03959
6.623754 4.16 -4.92 5000004.03959
6.623754 4.14 -4.92 5000004.03959
6.623754 4.12 -4.92 5000004.03959
6.623754 4.1 -4.92 5000004.03959
6.623754 4.08 -4.92 5000004.03959
6.623754 4.06 -4.92 5000004.03959
6.623754 4.04 -4.92 5000004.03959
6.623754 4.02 -4.92 5000004.03959
6.623754 4.0 -4.92 5000004.03959
6.623754 3.98 -4.92 5000004.03959
6.623754 3.96 -4.92 5000004.03959
6.623754 3.94 -4.92 5000004.03959
6.623754 4.3 -4.94 5000004.03959
6.623754 4.28 -4.94 5000004.03959
6.623754 4.26 -4.94 5000004.03959
6.623754 4.2 -4.94 5000004.03959
6.647982 4.42 -4.98 5000004.07997
6.647982 4.46 -5.02 5000004.07997
4 -2.66 5000007.9968
13.44939 2.7 -2.96 5000007.41565
13.21941 2.64 -2.96 5000007.03235
13.147944 2.58 -2.96 5000006.91324
12.94737 2.8 -3.08 5000006.57895
12.884754 2.84 -3.14 5000006.47459
12.884754 2.82 -3.14 5000006.47459
13.147944 2.88 -3.2 5000006.91324
12.599279999999998 3.02 -3.36 5000005.9988
12.599279999999998 3.0 -3.36 5000005.9988
12.599279999999998 2.98 -3.36 5000005.9988
12.708281999999999 2.9 -3.36 5000006.18047
12.599279999999998 3.02 -3.38 5000005.9988
12.599279999999998 3.0 -3.38 5000005.9988
12.599279999999998 2.98 -3.38 5000005.9988
12.059664000000001 4.96 -3.82 5000005.09944
12.059664000000001 5.0 -3.86 5000005.09944
12.059664000000001 4.98 -3.86 5000005.09944
12.021906 5.0 -3.88 5000005.03651
12.021906 4.98 -3.88 5000005.03651
12.021906 4.96 -3.88 5000005.03651
11.914038 3.46 -3.98 5000004.85673
11.914038 3.44 -3.98 5000004.85673
11.914038 3.36 -3.98 5000004.85673
11.949126000000001 3.2 -3.98 5000004.91521
11.949126000000001 3.18 -3.98 5000004.91521
11.949126000000001 3.16 -3.98 5000004.91521
12.059664000000001 3.52 -4.0 5000005.09944
12.021906 3.48 -4.0 5000005.03651
11.914038 3.46 -4.0 5000004.85673
11.914038 3.44 -4.0 5000004.85673
11.914038 3.42 -4.0 5000004.85673
11.914038 3.4 -4.0 5000004.85673
11.914038 3.38 -4.0 5000004.85673
11.813597999999999 3.56 -4.06 5000004.68933
11.813597999999999 3.58 -4.08 5000004.68933
11.813597999999999 3.6 -4.1 5000004.68933
11.813597999999999 3.62 -4.12 5000004.68933
11.719854 3.72 -4.24 5000004.53309
11.719854 3.74 -4.28 5000004.53309
11.576766 3.88 -4.44 5000004.29461
11.660753999999999 4.16 -4.82 5000004.43459
11.49792 4.18 -4.86 5000004.1632
11.447982 4.2 -4.88 5000004.07997
11.423754 3.92 -4.88 5000004.03959
11.423754 3.9 -4.88 5000004.03959
11.423754 3.88 -4.88 5000004.03959
11.423754 4.32 -4.9 5000004.03959
11.423754 4.3 -4.9 5000004.03959
11.423754 4.22 -4.9 5000004.03959
11.423754 4.2 -4.9 5000004.03959
11.423754 4.08 -4.9 5000004.03959
11.423754 4.06 -4.9 5000004.03959
11.423754 4.04 -4.9 5000004.03959
11.423754 4.02 -4.9 5000004.03959
11.423754 4.0 -4.9 5000004.03959
11.423754 3.98 -4.9 5000004.03959
11.423754 3.96 -4.9 5000004.03959
11.423754 3.94 -4.9 5000004.03959
11.423754 3.92 -4.9 5000004.03959
11.423754 3.9 -4.9 5000004.03959
11.423754 3.88 -4.9 5000004.03959
11.423754 4.3 -4.92 5000004.03959
11.423754 4.28 -4.92 5000004.03959
11.423754 4.22 -4.92 5000004.03959
11.423754 4.2 -4.92 5000004.03959
11.423754 4.18 -4.92 5000004.03959
11.423754 4.16 -4.92 5000004.03959
11.423754 4.14 -4.92 5000004.03959
11.423754 4.12 -4.92 5000004.03959
11.423754 4.1 -4.92 5000004.03959
11.423754 4.08 -4.92 5000004.03959
11.423754 4.06 -4.92 5000004.03959
11.423754 4.04 -4.92 5000004.03959
11.423754 4.02 -4.92 5000004.03959
11.423754 4.0 -4.92 5000004.03959
11.423754 3.98 -4.92 5000004.03959
11.423754 3.96 -4.92 5000004.03959
11.423754 3.94 -4.92 5000004.03959
11.423754 4.3 -4.94 5000004.03959
11.423754 4.28 -4.94 5000004.03959
11.423754 4.26 -4.94 5000004.03959
11.423754 4.2 -4.94 5000004.03959
11.447982 4.42 -4.98 5000004.07997
11.447982 4.46 -5.02 5000004.07997
959
1.6158359999999998 -0.06 -4.92 5000004.03959
1.6158359999999998 0.3 -4.94 5000004.03959
1.6158359999999998 0.28 -4.94 5000004.03959
1.6158359999999998 0.26 -4.94 5000004.03959
1.6158359999999998 0.2 -4.94 5000004.03959
1.631988 0.42 -4.98 5000004.07997
1.631988 0.46 -5.02 5000004.07997
3.1 5000029.0698
12.252253333333334 2.7 3.066666666666667 5000067.5676
10.968993333333334 -17.7 3.066666666666667 5000029.0698
12.699056666666667 2.8666666666666667 3.033333333333333 5000080.9717
10.798403333333333 -1.9 3.033333333333333 5000023.9521
11.355013333333334 -3.433333333333333 3.033333333333333 5000040.6504
10.968993333333334 -17.7 3.033333333333333 5000029.0698
10.798403333333333 -1.9 3.0 5000023.9521
11.355013333333334 -3.433333333333333 3.0 5000040.6504
10.904566666666666 2.6666666666666665 2.966666666666667 5000027.137
10.904566666666666 2.6333333333333333 2.966666666666667 5000027.137
10.904566666666666 2.433333333333333 2.966666666666667 5000027.137
11.355013333333334 -3.433333333333333 2.966666666666667 5000040.6504
10.904566666666666 2.6666666666666665 2.933333333333333 5000027.137
10.904566666666666 2.6333333333333333 2.933333333333333 5000027.137
10.904566666666666 2.433333333333333 2.933333333333333 5000027.137
10.904566666666666 2.6666666666666665 2.9 5000027.137
10.904566666666666 2.433333333333333 2.9 5000027.137
10.904566666666666 2.6666666666666665 2.8666666666666667 5000027.137
10.904566666666666 2.6333333333333333 2.8666666666666667 5000027.137
10.904566666666666 2.433333333333333 2.8666666666666667 5000027.137
10.904566666666666 2.6666666666666665 2.8333333333333335 5000027.137
10.904566666666666 2.433333333333333 2.8333333333333335 5000027.137
11.932366666666667 -3.1666666666666665 2.8333333333333335 5000057.971
10.904566666666666 2.6666666666666665 2.8 5000027.137
10.904566666666666 2.6333333333333333 2.8 5000027.137
10.904566666666666 2.433333333333333 2.8 5000027.137
10.968993333333334 -16.466666666666665 2.8 5000029.0698
10.904566666666666 2.6666666666666665 2.7666666666666666 5000027.137
10.904566666666666 2.433333333333333 2.7666666666666666 5000027.137
10.848176666666667 -14.133333333333333 2.7666666666666666 5000025.4453
10.968993333333334 -16.466666666666665 2.7666666666666666 5000029.0698
10.904566666666666 2.6666666666666665 2.7333333333333334 5000027.137
10.904566666666666 2.433333333333333 2.7333333333333334 5000027.137
10.848176666666667 -14.1 2.7333333333333334 5000025.4453
10.848176666666667 -14.133333333333333 2.7333333333333334 5000025.4453
11.043296666666667 -15.633333333333333 2.7333333333333334 5000031.2989
10.904566666666666 2.6666666666666665 2.7 5000027.137
10.904566666666666 2.6333333333333333 2.7 5000027.137
10.904566666666666 2.433333333333333 2.7 5000027.137
11.043296666666667 -15.633333333333333 2.7 5000031.2989
10.968993333333334 -16.466666666666665 2.7 5000029.0698
10.904566666666666 2.6666666666666665 2.6666666666666665 5000027.137
10.904566666666666 2.6333333333333333 2.6666666666666665 5000027.137
10.904566666666666 2.433333333333333 2.6666666666666665 5000027.137
10.968993333333334 -16.466666666666665 2.6666666666666665 5000029.0698
10.904566666666666 2.6666666666666665 2.6333333333333333 5000027.137
10.904566666666666 2.6333333333333333 2.6333333333333333 5000027.137
10.904566666666666 2.433333333333333 2.6333333333333333 5000027.137
10.968993333333334 -16.466666666666665 2.6333333333333333 5000029.0698
10.904566666666666 2.433333333333333 2.6 5000027.137
10.754146666666667 -1.8 2.6 5000022.6244
10.968993333333334 -16.466666666666665 2.6 5000029.0698
12.699056666666667 2.1333333333333333 2.566666666666667 5000080.9717
11.043296666666667 -15.633333333333333 2.566666666666667 5000031.2989
10.968993333333334 -16.466666666666665 2.566666666666667 5000029.0698
11.043296666666667 -15.633333333333333 2.533333333333333 5000031.2989
10.968993333333334 -16.466666666666665 2.533333333333333 5000029.0698
11.692046666666666 1.9 2.5 5000050.7614
10.798403333333333 -1.8 2.5 5000023.9521
10.848176666666667 -14.4 2.5 5000025.4453
11.043296666666667 -15.633333333333333 2.5 5000031.2989
10.968993333333334 -16.466666666666665 2.5 5000029.0698
11.692046666666666 1.9 2.466666666666667 5000050.7614
10.798403333333333 -1.8 2.466666666666667 5000023.9521
10.798403333333333 -1.9333333333333333 2.466666666666667 5000023.9521
11.692046666666666 1.1333333333333333 2.433333333333333 5000050.7614
10.798403333333333 -1.8 2.433333333333333 5000023.9521
10.798403333333333 -1.8 2.4 5000023.9521
10.904566666666666 2.6666666666666665 2.3666666666666667 5000027.137
10.798403333333333 -1.8 2.3666666666666667 5000023.9521
10.904566666666666 2.6666666666666665 2.3333333333333335 5000027.137
10.798403333333333 -1.8 2.3333333333333335 5000023.9521
11.355013333333334 -2.3666666666666667 2.3333333333333335 5000040.6504
10.968993333333334 -16.466666666666665 2.3333333333333335 5000029.0698
10.904566666666666 2.6666666666666665 2.3 5000027.137
11.50489 0.7666666666666667 2.3 5000045.1467
11.50489 -0.5 2.3 5000045.1467
10.798403333333333 -1.8 2.3 5000023.9521
11.355013333333334 -2.3666666666666667 2.3 5000040.6504
11.043296666666667 -15.633333333333333 2.3 5000031.2989
10.968993333333334 -16.466666666666665 2.3 5000029.0698
10.904566666666666 2.6666666666666665 2.2666666666666666 5000027.137
11.50489 -0.4666666666666667 2.2666666666666666 5000045.1467
10.968993333333334 -16.466666666666665 2.2666666666666666 5000029.0698
10.904566666666666 2.6666666666666665 2.2333333333333334 5000027.137
10.904566666666666 2.6333333333333333 2.2333333333333334 5000027.137
11.692046666666666 1.9666666666666666 2.2333333333333334 5000050.7614
11.50489 -0.3 2.2333333333333334 5000045.1467
10.798403333333333 -1.8 2.2333333333333334 5000023.9521
10.968993333333334 -16.466666666666665 2.2333333333333334 5000029.0698
11.692046666666666 2.8 2.2 5000050.7614
11.692046666666666 2.7666666666666666 2.2 5000050.7614
10.904566666666666 2.6666666666666665 2.2 5000027.137
10.904566666666666 2.6333333333333333 2.2 5000027.137
11.692046666666666 2.066666666666667 2.2 5000050.7614
11.692046666666666 1.9666666666666666 2.2 5000050.7614
10.798403333333333 -1.8 2.2 5000023.9521
10.968993333333334 -16.466666666666665 2.2 5000029.0698
10.904566666666666 2.6666666666666665 2.1666666666666665 5000027.137
10.904566666666666 2.6333333333333333 2.1666666666666665 5000027.137
10.904566666666666 2.433333333333333 2.1666666666666665 5000027.137
11.692046666666666 2.066666666666667 2.1666666666666665 5000050.7614
10.904566666666666 2.6666666666666665 2.1333333333333333 5000027.137
10.904566666666666 2.6333333333333333 2.1333333333333333 5000027.137
10.904566666666666 2.433333333333333 2.1333333333333333 5000027.137
10.798403333333333 -1.8 2.1333333333333333 5000023.9521
11.232286666666667 -3.3 2.1333333333333333 5000036.9686
10.754146666666667 -17.4 2.1333333333333333 5000022.6244
10.904566666666666 2.433333333333333 2.1 5000027.137
11.50489 0.5333333333333333 2.1 5000045.1467
10.798403333333333 -1.8 2.1 5000023.9521
10.754146666666667 -17.4 2.1 5000022.6244
10.754146666666667 -17.433333333333334 2.1 5000022.6244
10.754146666666667 -17.466666666666665 2.1 5000022.6244
11.50489 0.5666666666666667 2.066666666666667 5000045.1467
11.50489 0.5333333333333333 2.066666666666667 5000045.1467
11.50489 0.0 2.066666666666667 5000045.1467
10.798403333333333 -1.8 2.066666666666667 5000023.9521
10.71454 -15.833333333333334 2.066666666666667 5000021.4362
10.754146666666667 -17.4 2.066666666666667 5000022.6244
10.754146666666667 -17.433333333333334 2.066666666666667 5000022.6244
11.50489 0.5666666666666667 2.033333333333333 5000045.1467
11.692046666666666 0.43333333333333335 2.033333333333333 5000050.7614
11.50489 0.0 2.033333333333333 5000045.1467
10.798403333333333 -1.8 2.033333333333333 5000023.9521
10.798403333333333 -14.533333333333333 2.033333333333333 5000023.9521
11.692046666666666 0.43333333333333335 2.0 5000050.7614
11.50489 0.03333333333333333 2.0 5000045.1467
11.50489 0.0 2.0 5000045.1467
11.50489 -0.1 2.0 5000045.1467
11.50489 -0.1 1.9666666666666666 5000045.1467
11.232286666666667 -2.6666666666666665 1.9666666666666666 5000036.9686
10.754146666666667 -17.433333333333334 1.9666666666666666 5000022.6244
10.754146666666667 -17.466666666666665 1.9666666666666666 5000022.6244
10.904566666666666 -1.7666666666666666 1.9333333333333333 5000027.137
11.232286666666667 -2.6666666666666665 1.9333333333333333 5000036.9686
10.754146666666667 -13.766666666666667 1.9333333333333333 5000022.6244
10.904566666666666 -1.7666666666666666 1.9 5000027.137
11.232286666666667 -2.6666666666666665 1.9 5000036.9686
11.232286666666667 -3.466666666666667 1.9 5000036.9686
11.129943333333333 -4.366666666666666 1.9 5000033.8983
11.129943333333333 -4.933333333333334 1.9 5000033.8983
11.232286666666667 -2.6666666666666665 1.8666666666666667 5000036.9686
11.232286666666667 -3.466666666666667 1.8666666666666667 5000036.9686
11.129943333333333 -4.333333333333333 1.8666666666666667 5000033.8983
11.129943333333333 -4.933333333333334 1.8666666666666667 5000033.8983
10.904566666666666 -1.8 1.8333333333333333 5000027.137
11.232286666666667 -2.6666666666666665 1.8333333333333333 5000036.9686
11.232286666666667 -4.333333333333333 1.8333333333333333 5000036.9686
11.129943333333333 -5.266666666666667 1.8333333333333333 5000033.8983
11.232286666666667 -2.6666666666666665 1.8 5000036.9686
10.904566666666666 2.6333333333333333 1.7666666666666666 5000027.137
11.232286666666667 -4.3 1.7666666666666666 5000036.9686
10.904566666666666 2.6333333333333333 1.7333333333333334 5000027.137
10.904566666666666 2.433333333333333 1.7333333333333334 5000027.137
10.754146666666667 -16.266666666666666 1.7333333333333334 5000022.6244
10.754146666666667 -16.3 1.7333333333333334 5000022.6244
10.754146666666667 -17.466666666666665 1.7333333333333334 5000022.6244
10.754146666666667 -16.4 1.7 5000022.6244
10.754146666666667 -17.466666666666665 1.7 5000022.6244
10.848176666666667 -13.066666666666666 1.6666666666666667 5000025.4453
10.754146666666667 -16.466666666666665 1.6333333333333333 5000022.6244
10.754146666666667 -17.466666666666665 1.6333333333333333 5000022.6244
10.848176666666667 -13.0 1.6 5000025.4453
10.754146666666667 -16.466666666666665 1.6 5000022.6244
10.798403333333333 -15.033333333333333 1.5666666666666667 5000023.9521
10.71454 -15.6 1.5666666666666667 5000021.4362
10.754146666666667 -15.0 1.5333333333333334 5000022.6244
10.754146666666667 -17.466666666666665 1.5333333333333334 5000022.6244
10.754146666666667 -17.466666666666665 1.5 5000022.6244
10.754146666666667 -17.5 1.5 5000022.6244
10.754146666666667 -15.0 1.4666666666666666 5000022.6244
10.754146666666667 -15.0 1.4333333333333333 5000022.6244
10.754146666666667 -15.5 1.4333333333333333 5000022.6244
10.798403333333333 -15.433333333333334 1.3 5000023.9521
10.798403333333333 -15.4 1.2666666666666666 5000023.9521
10.798403333333333 -15.433333333333334 1.2666666666666666 5000023.9521
10.798403333333333 -15.466666666666667 1.2666666666666666 5000023.9521
10.754146666666667 -2.3333333333333335 1.2 5000022.6244
10.4529 0.7333333333333333 0.36666666666666664 5000013.587
10.3775 -1.9333333333333333 0.0 5000011.325
10.3775 -1.9666666666666666 0.0 5000011.325
10.357653333333333 -3.1 -0.13333333333333333 5000010.7296
10.348493333333334 -3.066666666666667 -0.2 5000010.4548
10.33979 -3.033333333333333 -0.26666666666666666 5000010.1937
10.316105666666667 -17.1 -0.3 5000009.48317
10.308928 -17.133333333333333 -0.3 5000009.26784
10.33979 -3.0 -0.3333333333333333 5000010.1937
10.316105666666667 -17.033333333333335 -0.3333333333333333 5000009.48317
10.316105666666667 -17.066666666666666 -0.3333333333333333 5000009.48317
10.316105666666667 -17.1 -0.3333333333333333 5000009.48317
10.308928 -17.133333333333333 -0.3333333333333333 5000009.26784
10.33151 1.8666666666666667 -0.36666666666666664 5000009.9453
10.33151 1.8333333333333333 -0.36666666666666664 5000009.9453
10.33151 -2.966666666666667 -0.36666666666666664 5000009.9453
10.33151 -3.0 -0.36666666666666664 5000009.9453
10.33979 -3.033333333333333 -0.36666666666666664 5000010.1937
10.33979 -3.066666666666667 -0.36666666666666664 5000010.1937
10.348493333333334 -3.1 -0.36666666666666664 5000010.4548
10.33979 -3.1333333333333333 -0.36666666666666664 5000010.1937
10.316105666666667 -3.0 -0.6666666666666666 5000009.48317
10.295508333333334 -2.7333333333333334 -0.7333333333333333 5000008.86525
10.289226333333334 -2.7333333333333334 -0.7666666666666667 5000008.67679
10.283206 -2.7 -0.8333333333333334 5000008.49618
10.283206 -2.6666666666666665 -0.8666666666666667 5000008.49618
10.277431 -2.6333333333333333 -0.9 5000008.32293
10.277431 -2.6666666666666665 -0.9 5000008.32293
10.271887 -2.6 -0.9666666666666667 5000008.15661
10.271887 -2.566666666666667 -1.0 5000008.15661
10.271887 -2.6 -1.0 5000008.15661
10.26656 -2.566666666666667 -1.0333333333333334 5000007.9968
10.26656 -2.566666666666667 -1.1 5000007.9968
10.26656 -2.6 -1.1 5000007.9968
10.247188333333334 -2.1666666666666665 -1.6 5000007.41565
10.234411666666666 -2.2666666666666666 -1.6 5000007.03235
10.230441333333333 -2.3666666666666667 -1.6 5000006.91324
10.219298333333333 -2.0 -1.8 5000006.57895
10.215819666666667 -1.9333333333333333 -1.9 5000006.47459
10.215819666666667 -1.9666666666666666 -1.9 5000006.47459
10.230441333333333 -1.8666666666666667 -2.0 5000006.91324
10.19996 -1.6333333333333333 -2.2666666666666666 5000005.9988
10.19996 -1.6666666666666667 -2.2666666666666666 5000005.9988
10.19996 -1.7 -2.2666666666666666 5000005.9988
10.206015666666667 -1.8333333333333333 -2.2666666666666666 5000006.18047
10.19996 -1.6333333333333333 -2.3 5000005.9988
10.19996 -1.6666666666666667 -2.3 5000005.9988
10.19996 -1.7 -2.3 5000005.9988
10.169981333333334 1.6 -3.033333333333333 5000005.09944
10.169981333333334 1.6666666666666667 -3.1 5000005.09944
10.169981333333334 1.6333333333333333 -3.1 5000005.09944
10.167883666666667 1.6666666666666667 -3.1333333333333333 5000005.03651
10.167883666666667 1.6333333333333333 -3.1333333333333333 5000005.03651
10.167883666666667 1.6 -3.1333333333333333 5000005.03651
10.161891 -0.9 -3.3 5000004.85673
10.161891 -0.9333333333333333 -3.3 5000004.85673
10.161891 -1.0666666666666667 -3.3 5000004.85673
10.163840333333333 -1.3333333333333333 -3.3 5000004.91521
10.163840333333333 -1.3666666666666667 -3.3 5000004.91521
10.163840333333333 -1.4 -3.3 5000004.91521
10.169981333333334 -0.8 -3.3333333333333335 5000005.09944
10.167883666666667 -0.8666666666666667 -3.3333333333333335 5000005.03651
10.161891 -0.9 -3.3333333333333335 5000004.85673
10.161891 -0.9333333333333333 -3.3333333333333335 5000004.85673
10.161891 -0.9666666666666667 -3.3333333333333335 5000004.85673
10.161891 -1.0 -3.3333333333333335 5000004.85673
10.161891 -1.0333333333333334 -3.3333333333333335 5000004.85673
10.156311 -0.7333333333333333 -3.433333333333333 5000004.68933
10.156311 -0.7 -3.466666666666667 5000004.68933
10.156311 -0.6666666666666666 -3.5 5000004.68933
10.156311 -0.6333333333333333 -3.533333333333333 5000004.68933
10.151102999999999 -0.4666666666666667 -3.7333333333333334 5000004.53309
10.151102999999999 -0.43333333333333335 -3.8 5000004.53309
10.143153666666667 -0.2 -4.066666666666666 5000004.29461
10.147819666666667 0.26666666666666666 -4.7 5000004.43459
10.138773333333333 0.3 -4.766666666666667 5000004.1632
10.135999 0.3333333333333333 -4.8 5000004.07997
10.134653 -0.13333333333333333 -4.8 5000004.03959
10.134653 -0.16666666666666666 -4.8 5000004.03959
10.134653 -0.2 -4.8 5000004.03959
10.134653 0.5333333333333333 -4.833333333333333 5000004.03959
10.134653 0.5 -4.833333333333333 5000004.03959
10.134653 0.36666666666666664 -4.833333333333333 5000004.03959
10.134653 0.3333333333333333 -4.833333333333333 5000004.03959
10.134653 0.13333333333333333 -4.833333333333333 5000004.03959
10.134653 0.1 -4.833333333333333 5000004.03959
10.134653 0.06666666666666667 -4.833333333333333 5000004.03959
10.134653 0.03333333333333333 -4.833333333333333 5000004.03959
10.134653 0.0 -4.833333333333333 5000004.03959
10.134653 -0.03333333333333333 -4.833333333333333 5000004.03959
10.134653 -0.06666666666666667 -4.833333333333333 5000004.03959
10.134653 -0.1 -4.833333333333333 5000004.03959
10.134653 -0.13333333333333333 -4.833333333333333 5000004.03959
10.134653 -0.16666666666666666 -4.833333333333333 5000004.03959
10.134653 -0.2 -4.833333333333333 5000004.03959
10.134653 0.5 -4.866666666666666 5000004.03959
10.134653 0.4666666666666667 -4.866666666666666 5000004.03959
10.134653 0.36666666666666664 -4.866666666666666 5000004.03959
10.134653 0.3333333333333333 -4.866666666666666 5000004.03959
10.134653 0.3 -4.866666666666666 5000004.03959
10.134653 0.26666666666666666 -4.866666666666666 5000004.03959
10.134653 0.23333333333333334 -4.866666666666666 5000004.03959
10.134653 0.2 -4.866666666666666 5000004.03959
10.134653 0.16666666666666666 -4.866666666666666 5000004.03959
10.134653 0.13333333333333333 -4.866666666666666 5000004.03959
10.134653 0.1 -4.866666666666666 5000004.03959
10.134653 0.06666666666666667 -4.866666666666666 5000004.03959
10.134653 0.03333333333333333 -4.866666666666666 5000004.03959
10.134653 0.0 -4.866666666666666 5000004.03959
10.134653 -0.03333333333333333 -4.866666666666666 5000004.03959
10.134653 -0.06666666666666667 -4.866666666666666 5000004.03959
10.134653 -0.1 -4.866666666666666 5000004.03959
10.134653 0.5 -4.9 5000004.03959
10.134653 0.4666666666666667 -4.9 5000004.03959
10.134653 0.43333333333333335 -4.9 5000004.03959
10.134653 0.3333333333333333 -4.9 5000004.03959
10.135999 0.7 -4.966666666666667 5000004.07997
10.135999 0.7666666666666667 -5.033333333333333 5000004.07997
