VERSION .7
FIELDS x y z rgb
SIZE 4 4 4 4
TYPE F F F F
COUNT 1 1 1 1
WIDTH 1236
HEIGHT 1
VIEWPOINT 0 0 0 1 0 0 0
POINTS 1236
DATA ascii
28.590239999999998 -0.24 2.02 40.6504
17.77464 3.06 2.0 22.6244
21.64188 -3.48 1.98 29.0698
21.64188 -3.5 1.98 29.0698
19.467180000000003 -3.52 1.98 25.4453
22.97934 -3.38 1.96 31.2989
22.97934 -3.4 1.96 31.2989
22.97934 -3.42 1.96 31.2989
21.64188 -3.44 1.96 29.0698
21.64188 -3.46 1.96 29.0698
24.53898 -3.28 1.94 33.8983
24.53898 -3.3 1.94 33.8983
18.57126 3.06 1.9 23.9521
21.64188 -5.82 1.9 29.0698
18.57126 3.06 1.88 23.9521
18.57126 3.06 1.86 23.9521
31.28802 2.84 1.86 45.1467
18.57126 3.06 1.84 23.9521
18.57126 3.06 1.82 23.9521
38.9826 5.26 1.8 57.971
18.57126 3.06 1.78 23.9521
18.57126 3.06 1.76 23.9521
19.467180000000003 5.62 1.72 25.4453
21.64188 -5.96 1.72 29.0698
19.467180000000003 5.62 1.7 25.4453
19.467180000000003 5.62 1.68 25.4453
38.9826 5.02 1.68 57.971
31.28802 2.86 1.68 45.1467
19.467180000000003 5.62 1.66 25.4453
38.9826 5.02 1.66 57.971
18.57126 3.06 1.66 23.9521
31.28802 2.86 1.66 45.1467
28.590239999999998 1.84 1.66 40.6504
19.467180000000003 5.76 1.64 25.4453
19.467180000000003 5.74 1.64 25.4453
19.467180000000003 5.62 1.64 25.4453
19.467180000000003 5.76 1.62 25.4453
19.467180000000003 5.62 1.62 25.4453
19.467180000000003 5.76 1.6 25.4453
19.467180000000003 5.62 1.6 25.4453
38.9826 5.02 1.6 57.971
38.9826 5.0 1.6 57.971
19.467180000000003 5.76 1.58 25.4453
19.467180000000003 5.64 1.58 25.4453
19.467180000000003 5.62 1.58 25.4453
38.9826 5.02 1.58 57.971
19.467180000000003 5.76 1.56 25.4453
19.467180000000003 5.64 1.56 25.4453
19.467180000000003 5.62 1.56 25.4453
38.9826 5.06 1.56 57.971
38.9826 5.04 1.56 57.971
19.467180000000003 5.76 1.54 25.4453
19.467180000000003 5.64 1.54 25.4453
38.9826 5.06 1.54 57.971
19.467180000000003 5.64 1.52 25.4453
18.57126 3.06 1.52 23.9521
26.38116 0.22 1.52 36.9686
21.64188 -5.96 1.52 29.0698
19.467180000000003 5.64 1.5 25.4453
19.467180000000003 5.62 1.5 25.4453
38.9826 5.28 1.5 57.971
38.9826 5.02 1.5 57.971
18.57126 3.06 1.5 23.9521
19.467180000000003 5.64 1.48 25.4453
38.9826 5.02 1.48 57.971
18.57126 3.06 1.48 23.9521
19.467180000000003 5.64 1.46 25.4453
38.9826 5.02 1.46 57.971
19.467180000000003 5.64 1.44 25.4453
38.9826 5.04 1.44 57.971
31.28802 2.88 1.44 45.1467
19.467180000000003 5.64 1.42 25.4453
38.9826 5.06 1.42 57.971
38.9826 5.04 1.42 57.971
24.53898 -3.48 1.4 33.8983
22.97934 -3.5 1.4 31.2989
22.97934 -3.52 1.4 31.2989
22.97934 -3.54 1.4 31.2989
20.4822 5.62 1.38 27.137
38.9826 4.98 1.38 57.971
24.53898 -3.34 1.38 33.8983
24.53898 -3.36 1.38 33.8983
24.53898 -3.38 1.38 33.8983
24.53898 -3.46 1.38 33.8983
38.9826 4.98 1.36 57.971
38.9826 5.0 1.32 57.971
28.590239999999998 1.76 1.3 40.6504
20.4822 5.62 1.28 27.137
38.9826 5.0 1.28 57.971
38.9826 5.02 1.26 57.971
17.77464 3.04 1.26 22.6244
34.65684 -0.22 1.24 50.7614
34.65684 -0.24 1.24 50.7614
28.590239999999998 1.78 1.22 40.6504
28.590239999999998 1.82 1.18 40.6504
34.65684 4.26 1.14 50.7614
17.77464 3.04 1.14 22.6244
38.9826 4.98 1.12 57.971
17.77464 3.04 1.12 22.6244
38.9826 4.98 1.1 57.971
17.77464 3.04 1.1 22.6244
26.38116 0.28 1.1 36.9686
19.467180000000003 5.76 1.08 25.4453
17.77464 3.04 1.08 22.6244
19.467180000000003 5.76 1.06 25.4453
17.77464 3.04 1.06 22.6244
19.467180000000003 5.76 1.04 25.4453
20.4822 5.62 1.04 27.137
19.467180000000003 5.76 1.02 25.4453
19.467180000000003 5.74 1.02 25.4453
20.4822 5.62 1.02 27.137
18.57126 3.24 1.02 23.9521
28.590239999999998 1.76 1.02 40.6504
19.467180000000003 5.76 1.0 25.4453
19.467180000000003 5.74 1.0 25.4453
20.4822 5.62 1.0 27.137
18.57126 3.24 1.0 23.9521
28.590239999999998 1.78 1.0 40.6504
19.467180000000003 5.76 0.98 25.4453
19.467180000000003 5.74 0.98 25.4453
20.4822 5.62 0.98 27.137
18.57126 3.24 0.98 23.9521
28.590239999999998 1.78 0.98 40.6504
19.467180000000003 5.76 0.96 25.4453
19.467180000000003 5.74 0.96 25.4453
20.4822 5.62 0.96 27.137
21.64188 -5.98 0.96 29.0698
19.467180000000003 5.76 0.94 25.4453
19.467180000000003 5.74 0.94 25.4453
20.4822 5.62 0.94 27.137
18.57126 3.24 0.94 23.9521
17.77464 3.1 0.94 22.6244
31.28802 1.84 0.94 45.1467
19.467180000000003 -4.94 0.94 25.4453
19.467180000000003 5.76 0.92 25.4453
19.467180000000003 5.74 0.92 25.4453
20.4822 5.62 0.92 27.137
18.57126 3.24 0.92 23.9521
17.77464 3.1 0.92 22.6244
17.77464 3.08 0.92 22.6244
22.97934 -4.26 0.92 31.2989
22.97934 -4.28 0.92 31.2989
22.97934 -4.3 0.92 31.2989
20.4822 -4.32 0.92 27.137
20.4822 -4.34 0.92 27.137
20.4822 -4.36 0.92 27.137
19.467180000000003 -4.38 0.92 25.4453
19.467180000000003 5.76 0.9 25.4453
19.467180000000003 5.74 0.9 25.4453
20.4822 5.62 0.9 27.137
34.65684 4.2 0.9 50.7614
18.57126 3.24 0.9 23.9521
17.77464 3.1 0.9 22.6244
21.64188 -4.16 0.9 29.0698
21.64188 -4.18 0.9 29.0698
20.4822 -4.34 0.9 27.137
20.4822 -4.36 0.9 27.137
19.467180000000003 5.76 0.88 25.4453
19.467180000000003 5.74 0.88 25.4453
20.4822 5.62 0.88 27.137
18.57126 3.24 0.88 23.9521
17.77464 3.1 0.88 22.6244
19.467180000000003 5.76 0.86 25.4453
19.467180000000003 5.74 0.86 25.4453
20.4822 5.62 0.86 27.137
18.57126 3.24 0.86 23.9521
17.77464 3.1 0.86 22.6244
19.467180000000003 5.76 0.84 25.4453
19.467180000000003 5.74 0.84 25.4453
20.4822 5.62 0.84 27.137
18.57126 3.24 0.84 23.9521
17.77464 3.1 0.84 22.6244
19.467180000000003 -3.34 0.84 25.4453
19.467180000000003 -3.36 0.84 25.4453
22.97934 -3.44 0.84 31.2989
22.97934 -3.46 0.84 31.2989
22.97934 -3.48 0.84 31.2989
21.64188 -5.98 0.84 29.0698
20.4822 5.76 0.82 27.137
20.4822 5.74 0.82 27.137
20.4822 5.62 0.82 27.137
18.57126 3.24 0.82 23.9521
24.53898 -3.22 0.82 33.8983
24.53898 -3.24 0.82 33.8983
24.53898 -3.26 0.82 33.8983
19.467180000000003 5.76 0.8 25.4453
19.467180000000003 5.74 0.8 25.4453
20.4822 5.62 0.8 27.137
18.57126 3.24 0.8 23.9521
17.77464 3.08 0.8 22.6244
124.19999999999999 -3.04 0.8 200.0
19.467180000000003 5.76 0.78 25.4453
19.467180000000003 5.74 0.78 25.4453
20.4822 5.62 0.78 27.137
18.57126 3.24 0.78 23.9521
17.77464 3.14 0.78 22.6244
21.64188 -5.98 0.78 29.0698
19.467180000000003 5.76 0.76 25.4453
19.467180000000003 5.74 0.76 25.4453
20.4822 5.62 0.76 27.137
18.57126 3.24 0.76 23.9521
19.467180000000003 -4.54 0.76 25.4453
21.64188 -5.98 0.76 29.0698
19.467180000000003 5.76 0.74 25.4453
19.467180000000003 5.74 0.74 25.4453
20.4822 5.62 0.74 27.137
18.57126 3.24 0.74 23.9521
21.64188 -5.98 0.74 29.0698
19.467180000000003 5.76 0.72 25.4453
19.467180000000003 5.74 0.72 25.4453
20.4822 5.62 0.72 27.137
18.57126 3.24 0.72 23.9521
17.77464 3.1 0.72 22.6244
21.64188 -5.98 0.72 29.0698
19.467180000000003 5.76 0.7 25.4453
19.467180000000003 5.74 0.7 25.4453
20.4822 5.62 0.7 27.137
34.65684 5.0 0.7 50.7614
18.57126 3.24 0.7 23.9521
17.77464 3.1 0.7 22.6244
21.64188 -5.98 0.7 29.0698
19.467180000000003 5.76 0.68 25.4453
19.467180000000003 5.74 0.68 25.4453
20.4822 5.62 0.68 27.137
18.57126 3.24 0.68 23.9521
17.77464 3.1 0.68 22.6244
17.77464 2.96 0.68 22.6244
21.64188 -5.98 0.68 29.0698
19.467180000000003 5.88 0.66 25.4453
19.467180000000003 5.76 0.66 25.4453
19.467180000000003 5.74 0.66 25.4453
20.4822 5.62 0.66 27.137
18.57126 3.24 0.66 23.9521
17.77464 3.1 0.66 22.6244
17.77464 2.96 0.66 22.6244
19.467180000000003 -4.54 0.66 25.4453
21.64188 -5.98 0.66 29.0698
19.467180000000003 5.88 0.64 25.4453
19.467180000000003 5.74 0.64 25.4453
20.4822 5.62 0.64 27.137
18.57126 3.24 0.64 23.9521
17.77464 3.1 0.64 22.6244
17.77464 2.96 0.64 22.6244
21.64188 -5.98 0.64 29.0698
20.4822 5.74 0.62 27.137
20.4822 5.62 0.62 27.137
18.57126 3.24 0.62 23.9521
17.77464 3.1 0.62 22.6244
17.77464 2.96 0.62 22.6244
21.64188 -5.98 0.62 29.0698
20.4822 5.74 0.6 27.137
20.4822 5.62 0.6 27.137
18.57126 3.24 0.6 23.9521
17.77464 3.1 0.6 22.6244
17.77464 2.96 0.6 22.6244
21.64188 -5.98 0.6 29.0698
20.4822 5.74 0.58 27.137
20.4822 5.62 0.58 27.137
18.57126 3.24 0.58 23.9521
17.77464 3.1 0.58 22.6244
17.77464 2.96 0.58 22.6244
21.64188 -5.98 0.58 29.0698
20.4822 5.74 0.56 27.137
20.4822 5.62 0.56 27.137
18.57126 3.24 0.56 23.9521
17.77464 3.1 0.56 22.6244
17.77464 2.96 0.56 22.6244
21.64188 -5.98 0.56 29.0698
20.4822 5.76 0.54 27.137
20.4822 5.74 0.54 27.137
20.4822 5.62 0.54 27.137
18.57126 3.24 0.54 23.9521
21.64188 -5.98 0.54 29.0698
20.4822 5.74 0.52 27.137
20.4822 5.62 0.52 27.137
21.64188 -5.98 0.52 29.0698
20.4822 5.74 0.5 27.137
20.4822 5.62 0.5 27.137
21.64188 -5.98 0.5 29.0698
20.4822 5.74 0.48 27.137
20.4822 5.62 0.48 27.137
21.64188 -5.98 0.48 29.0698
20.4822 5.74 0.46 27.137
20.4822 5.62 0.46 27.137
19.467180000000003 5.74 0.44 25.4453
20.4822 5.62 0.44 27.137
17.77464 3.04 0.44 22.6244
26.38116 0.38 0.44 36.9686
21.64188 -5.98 0.44 29.0698
19.467180000000003 5.76 0.42 25.4453
19.467180000000003 5.74 0.42 25.4453
19.467180000000003 5.62 0.42 25.4453
17.77464 3.04 0.42 22.6244
31.28802 1.84 0.42 45.1467
19.467180000000003 5.76 0.4 25.4453
19.467180000000003 5.74 0.4 25.4453
19.467180000000003 5.62 0.4 25.4453
17.77464 3.04 0.4 22.6244
20.4822 5.88 0.38 27.137
19.467180000000003 5.74 0.38 25.4453
19.467180000000003 5.62 0.38 25.4453
34.65684 4.16 0.38 50.7614
17.77464 3.04 0.38 22.6244
20.4822 5.88 0.36 27.137
19.467180000000003 5.62 0.36 25.4453
17.77464 3.04 0.36 22.6244
20.4822 5.88 0.34 27.137
19.467180000000003 5.62 0.34 25.4453
20.4822 5.88 0.32 27.137
19.467180000000003 5.62 0.32 25.4453
19.467180000000003 -4.7 0.32 25.4453
20.4822 5.9 0.3 27.137
20.4822 5.88 0.3 27.137
19.467180000000003 5.62 0.3 25.4453
34.65684 -2.3 0.3 50.7614
34.65684 -2.32 0.3 50.7614
34.65684 -2.34 0.3 50.7614
22.97934 -2.42 0.3 31.2989
22.97934 -2.44 0.3 31.2989
19.467180000000003 -4.56 0.3 25.4453
19.467180000000003 -4.58 0.3 25.4453
19.467180000000003 -4.6 0.3 25.4453
19.467180000000003 -4.7 0.3 25.4453
19.467180000000003 -4.72 0.3 25.4453
20.4822 5.88 0.28 27.137
19.467180000000003 5.62 0.28 25.4453
34.65684 -2.3 0.28 50.7614
34.65684 -2.32 0.28 50.7614
20.4822 5.88 0.26 27.137
19.467180000000003 5.62 0.26 25.4453
28.590239999999998 1.98 0.26 40.6504
19.467180000000003 -4.72 0.26 25.4453
20.4822 5.88 0.24 27.137
19.467180000000003 5.62 0.24 25.4453
19.467180000000003 -5.6 0.24 25.4453
20.4822 5.88 0.22 27.137
19.467180000000003 5.62 0.22 25.4453
20.4822 5.88 0.2 27.137
19.467180000000003 5.62 0.2 25.4453
34.65684 4.32 0.2 50.7614
20.4822 5.88 0.18 27.137
19.467180000000003 5.62 0.18 25.4453
20.4822 5.88 0.16 27.137
19.467180000000003 5.62 0.16 25.4453
20.4822 5.88 0.14 27.137
19.467180000000003 5.62 0.14 25.4453
34.65684 4.3 0.14 50.7614
20.4822 5.88 0.12 27.137
19.467180000000003 5.62 0.12 25.4453
20.4822 5.88 0.1 27.137
19.467180000000003 5.62 0.1 25.4453
20.4822 5.88 0.08 27.137
19.467180000000003 5.62 0.08 25.4453
19.467180000000003 5.6 0.08 25.4453
34.65684 2.4 0.08 50.7614
20.4822 5.88 0.06 27.137
19.467180000000003 5.62 0.06 25.4453
38.9826 2.66 0.06 57.971
20.4822 5.88 0.04 27.137
19.467180000000003 5.62 0.04 25.4453
19.467180000000003 5.6 0.04 25.4453
38.9826 2.66 0.04 57.971
20.4822 5.88 0.02 27.137
19.467180000000003 5.62 0.02 25.4453
19.467180000000003 5.6 0.02 25.4453
38.9826 2.4 0.02 57.971
20.4822 5.88 0.0 27.137
19.467180000000003 5.62 0.0 25.4453
19.467180000000003 5.6 0.0 25.4453
20.4822 5.88 -0.02 27.137
19.467180000000003 5.62 -0.02 25.4453
19.467180000000003 5.6 -0.02 25.4453
20.4822 5.88 -0.04 27.137
19.467180000000003 5.62 -0.04 25.4453
20.4822 5.88 -0.06 27.137
19.467180000000003 5.74 -0.06 25.4453
19.467180000000003 5.62 -0.06 25.4453
38.9826 2.4 -0.06 57.971
19.467180000000003 5.88 -0.08 25.4453
19.467180000000003 5.74 -0.08 25.4453
19.467180000000003 5.62 -0.08 25.4453
19.467180000000003 5.74 -0.1 25.4453
19.467180000000003 -4.58 -0.1 25.4453
19.467180000000003 5.74 -0.12 25.4453
19.467180000000003 5.74 -0.14 25.4453
17.77464 2.96 -0.14 22.6244
19.467180000000003 5.74 -0.16 25.4453
17.77464 2.96 -0.16 22.6244
19.467180000000003 5.74 -0.18 25.4453
19.467180000000003 5.74 -0.2 25.4453
19.467180000000003 5.62 -0.2 25.4453
19.467180000000003 5.74 -0.22 25.4453
19.467180000000003 5.62 -0.22 25.4453
17.77464 2.92 -0.22 22.6244
19.467180000000003 5.74 -0.24 25.4453
19.467180000000003 5.62 -0.24 25.4453
19.467180000000003 5.74 -0.26 25.4453
19.467180000000003 5.62 -0.26 25.4453
28.590239999999998 1.96 -0.26 40.6504
19.467180000000003 5.74 -0.28 25.4453
19.467180000000003 5.62 -0.28 25.4453
21.64188 -6.0 -0.28 29.0698
19.467180000000003 5.74 -0.3 25.4453
28.590239999999998 1.96 -0.3 40.6504
19.467180000000003 -4.58 -0.3 25.4453
21.64188 -6.0 -0.3 29.0698
19.467180000000003 5.74 -0.32 25.4453
28.590239999999998 1.96 -0.32 40.6504
19.467180000000003 -4.58 -0.32 25.4453
19.467180000000003 -4.6 -0.32 25.4453
21.64188 -5.5 -0.32 29.0698
21.64188 -6.0 -0.32 29.0698
19.467180000000003 5.74 -0.34 25.4453
19.467180000000003 5.62 -0.34 25.4453
19.467180000000003 -4.58 -0.34 25.4453
19.467180000000003 -4.6 -0.34 25.4453
19.467180000000003 -4.74 -0.34 25.4453
21.64188 -5.5 -0.34 29.0698
21.64188 -6.0 -0.34 29.0698
19.467180000000003 5.74 -0.36 25.4453
19.467180000000003 5.62 -0.36 25.4453
19.467180000000003 5.6 -0.36 25.4453
21.64188 -5.5 -0.36 29.0698
21.64188 -6.0 -0.36 29.0698
19.467180000000003 5.74 -0.38 25.4453
19.467180000000003 5.62 -0.38 25.4453
19.467180000000003 5.6 -0.38 25.4453
21.64188 -6.0 -0.38 29.0698
19.467180000000003 5.74 -0.4 25.4453
20.4822 5.62 -0.4 27.137
20.4822 5.6 -0.4 27.137
21.64188 -5.5 -0.4 29.0698
21.64188 -6.0 -0.4 29.0698
19.467180000000003 5.74 -0.42 25.4453
21.64188 -5.5 -0.42 29.0698
21.64188 -6.0 -0.42 29.0698
34.65684 5.32 -0.44 50.7614
21.64188 -6.0 -0.44 29.0698
21.64188 -6.64 -0.44 29.0698
21.64188 -6.66 -0.44 29.0698
21.64188 -6.0 -0.46 29.0698
34.65684 5.4 -0.48 50.7614
19.467180000000003 -4.74 -0.48 25.4453
19.467180000000003 -4.76 -0.48 25.4453
34.65684 5.2 -0.5 50.7614
34.65684 4.72 -0.5 50.7614
18.57126 3.02 -0.5 23.9521
19.467180000000003 5.74 -0.52 25.4453
34.65684 4.74 -0.52 50.7614
21.64188 -6.64 -0.52 29.0698
19.467180000000003 5.74 -0.54 25.4453
19.467180000000003 5.74 -0.56 25.4453
17.77464 2.92 -0.56 22.6244
19.467180000000003 -2.74 -0.56 25.4453
19.467180000000003 5.74 -0.58 25.4453
17.77464 2.92 -0.58 22.6244
21.64188 -5.5 -0.58 29.0698
21.64188 -6.0 -0.58 29.0698
19.467180000000003 5.74 -0.6 25.4453
31.28802 3.76 -0.6 45.1467
21.64188 -5.5 -0.6 29.0698
21.64188 -5.52 -0.6 29.0698
19.467180000000003 5.74 -0.62 25.4453
31.28802 4.52 -0.62 45.1467
31.28802 3.76 -0.62 45.1467
19.467180000000003 5.74 -0.64 25.4453
20.4822 5.6 -0.64 27.137
34.65684 5.26 -0.64 50.7614
21.64188 -6.02 -0.64 29.0698
19.467180000000003 5.74 -0.66 25.4453
20.4822 5.6 -0.66 27.137
34.65684 5.24 -0.66 50.7614
18.57126 -4.88 -0.66 23.9521
19.467180000000003 5.74 -0.68 25.4453
20.4822 5.6 -0.68 27.137
34.65684 5.5 -0.68 50.7614
34.65684 5.3 -0.68 50.7614
19.467180000000003 5.74 -0.7 25.4453
20.4822 5.6 -0.7 27.137
26.38116 2.06 -0.7 36.9686
18.57126 -4.86 -0.7 23.9521
21.64188 -6.02 -0.7 29.0698
17.77464 -6.62 -0.7 22.6244
17.77464 -6.64 -0.7 22.6244
19.467180000000003 5.74 -0.72 25.4453
20.4822 5.62 -0.72 27.137
20.4822 5.6 -0.72 27.137
31.28802 4.38 -0.72 45.1467
17.77464 2.92 -0.72 22.6244
21.64188 -6.02 -0.72 29.0698
17.77464 -6.62 -0.72 22.6244
31.28802 4.4 -0.74 45.1467
31.28802 4.38 -0.74 45.1467
31.28802 4.06 -0.74 45.1467
17.77464 3.02 -0.74 22.6244
17.77464 2.92 -0.74 22.6244
19.467180000000003 -2.82 -0.74 25.4453
16.419959999999996 -5.64 -0.74 20.3666
16.419959999999996 -5.66 -0.74 20.3666
21.64188 -6.02 -0.74 29.0698
17.77464 -6.62 -0.74 22.6244
17.77464 -6.64 -0.74 22.6244
17.77464 -6.66 -0.74 22.6244
31.28802 4.4 -0.76 45.1467
31.28802 4.06 -0.76 45.1467
17.77464 3.02 -0.76 22.6244
18.57126 -4.4 -0.76 23.9521
18.57126 -4.84 -0.76 23.9521
16.419959999999996 -5.68 -0.76 20.3666
21.64188 -6.02 -0.76 29.0698
17.77464 -6.62 -0.76 22.6244
17.77464 -6.64 -0.76 22.6244
17.77464 -6.66 -0.76 22.6244
31.28802 4.32 -0.78 45.1467
28.590239999999998 3.36 -0.78 40.6504
17.77464 3.02 -0.78 22.6244
18.57126 -4.84 -0.78 23.9521
18.57126 -4.86 -0.78 23.9521
21.64188 -6.02 -0.78 29.0698
31.28802 4.08 -0.8 45.1467
31.28802 4.06 -0.8 45.1467
17.77464 3.02 -0.8 22.6244
19.467180000000003 -3.02 -0.8 25.4453
17.06172 -5.78 -0.8 21.4362
21.64188 -6.02 -0.8 29.0698
17.77464 -6.64 -0.8 22.6244
17.77464 -6.66 -0.8 22.6244
31.28802 4.0 -0.82 45.1467
17.77464 3.02 -0.82 22.6244
26.38116 2.44 -0.82 36.9686
18.57126 -4.36 -0.82 23.9521
18.57126 -4.38 -0.82 23.9521
17.06172 -5.76 -0.82 21.4362
17.06172 -6.66 -0.82 21.4362
17.77464 3.02 -0.84 22.6244
26.38116 2.44 -0.84 36.9686
17.77464 3.02 -0.86 22.6244
26.38116 2.44 -0.86 36.9686
26.38116 1.96 -0.86 36.9686
26.38116 1.42 -0.86 36.9686
24.53898 1.06 -0.86 33.8983
17.77464 3.02 -0.88 22.6244
26.38116 2.46 -0.88 36.9686
26.38116 2.44 -0.88 36.9686
26.38116 1.96 -0.88 36.9686
26.38116 1.42 -0.88 36.9686
17.06172 -6.66 -0.88 21.4362
17.77464 3.02 -0.9 22.6244
17.77464 2.92 -0.9 22.6244
26.38116 2.44 -0.9 36.9686
17.06172 -5.74 -0.9 21.4362
26.38116 2.44 -0.92 36.9686
19.467180000000003 5.74 -0.94 25.4453
24.53898 1.44 -0.94 33.8983
17.06172 -5.94 -0.94 21.4362
17.77464 -6.66 -0.94 22.6244
19.467180000000003 5.74 -0.96 25.4453
18.57126 -4.14 -0.96 23.9521
18.57126 -4.16 -0.96 23.9521
17.06172 -5.86 -0.96 21.4362
17.77464 -6.0 -0.96 22.6244
17.77464 -6.02 -0.96 22.6244
17.77464 -6.66 -0.96 22.6244
17.77464 -6.68 -0.96 22.6244
18.57126 -4.16 -0.98 23.9521
18.57126 -4.18 -0.98 23.9521
17.77464 -6.66 -0.98 22.6244
17.77464 -6.68 -0.98 22.6244
19.467180000000003 -3.92 -1.0 25.4453
19.467180000000003 -3.94 -1.0 25.4453
17.06172 -5.46 -1.0 21.4362
18.57126 -3.9 -1.02 23.9521
18.57126 -3.92 -1.02 23.9521
17.77464 -5.16 -1.02 22.6244
17.77464 -5.18 -1.02 22.6244
17.06172 -5.48 -1.02 21.4362
17.77464 -6.04 -1.02 22.6244
17.77464 -6.06 -1.02 22.6244
18.57126 -4.04 -1.04 23.9521
17.06172 -5.5 -1.04 21.4362
17.77464 -6.04 -1.04 22.6244
17.77464 -6.66 -1.04 22.6244
17.77464 -6.68 -1.04 22.6244
18.57126 -3.9 -1.06 23.9521
17.77464 -5.16 -1.06 22.6244
17.77464 -6.66 -1.06 22.6244
17.77464 -6.68 -1.06 22.6244
18.57126 -3.9 -1.08 23.9521
17.77464 -5.14 -1.08 22.6244
17.06172 -5.52 -1.08 21.4362
17.06172 -6.66 -1.08 21.4362
17.06172 -6.68 -1.08 21.4362
18.57126 -4.16 -1.1 23.9521
17.77464 -5.14 -1.1 22.6244
17.06172 -5.52 -1.1 21.4362
17.06172 -6.66 -1.1 21.4362
17.06172 -6.68 -1.1 21.4362
18.57126 -3.96 -1.12 23.9521
17.77464 -5.14 -1.12 22.6244
17.06172 -6.68 -1.12 21.4362
17.77464 -5.14 -1.14 22.6244
17.06172 -5.22 -1.14 21.4362
17.06172 -5.44 -1.14 21.4362
17.06172 -5.46 -1.14 21.4362
17.06172 -5.22 -1.16 21.4362
17.06172 -5.46 -1.16 21.4362
19.467180000000003 -4.12 -1.18 25.4453
19.467180000000003 -4.14 -1.18 25.4453
17.06172 -5.22 -1.18 21.4362
17.77464 -6.68 -1.18 22.6244
17.06172 -5.24 -1.2 21.4362
17.06172 -5.28 -1.24 21.4362
17.77464 -5.38 -1.24 22.6244
17.77464 -5.4 -1.24 22.6244
17.77464 -5.42 -1.24 22.6244
17.06172 -6.7 -1.26 21.4362
17.77464 -6.72 -1.26 22.6244
17.77464 2.68 -1.28 22.6244
17.06172 -6.72 -1.3 21.4362
12.933599999999998 1.98 -1.66 14.556
11.61198 -5.82 -1.78 12.3533
11.61198 -5.84 -1.78 12.3533
12.08952 4.7 -1.84 13.1492
12.08952 4.68 -1.84 13.1492
10.637759999999998 -6.08 -1.96 10.7296
10.637759999999998 3.04 -2.08 10.7296
10.025244 -5.98 -2.14 9.70874
10.316220000000001 2.3 -2.16 10.1937
10.316220000000001 2.32 -2.18 10.1937
10.316220000000001 2.3 -2.18 10.1937
10.16718 2.34 -2.22 9.9453
9.760704 -6.06 -2.22 9.26784
9.760704 -6.08 -2.22 9.26784
10.025244 2.34 -2.24 9.70874
9.760704 -6.14 -2.24 9.26784
10.025244 2.36 -2.26 9.70874
10.025244 5.0 -2.28 9.70874
10.025244 4.98 -2.28 9.70874
9.51915 -6.68 -2.3 8.86525
9.51915 -6.7 -2.3 8.86525
9.51915 -6.72 -2.3 8.86525
9.889902000000001 2.4 -2.32 9.48317
9.889902000000001 -6.12 -2.32 9.48317
9.51915 -6.22 -2.32 8.86525
9.51915 -6.24 -2.32 8.86525
9.51915 -6.66 -2.32 8.86525
9.51915 -6.68 -2.32 8.86525
9.51915 -6.7 -2.32 8.86525
9.760704 5.52 -2.34 9.26784
9.760704 5.5 -2.34 9.26784
9.889902000000001 2.4 -2.34 9.48317
9.889902000000001 2.38 -2.34 9.48317
9.889902000000001 2.36 -2.34 9.48317
9.889902000000001 2.34 -2.34 9.48317
9.889902000000001 2.32 -2.34 9.48317
9.889902000000001 2.3 -2.34 9.48317
9.760704 2.28 -2.34 9.26784
9.760704 5.52 -2.36 9.26784
9.760704 5.5 -2.36 9.26784
9.093966 2.38 -2.56 8.15661
8.99808 2.58 -2.6 7.9968
8.99808 2.6 -2.62 7.9968
8.99808 2.58 -2.62 7.9968
8.817162000000001 2.64 -2.68 7.69527
8.817162000000001 2.66 -2.7 7.69527
8.817162000000001 2.64 -2.7 7.69527
8.64939 2.72 -2.78 7.41565
8.64939 2.7 -2.78 7.41565
8.64939 2.72 -2.8 7.41565
8.64939 2.7 -2.8 7.41565
8.64939 2.72 -2.86 7.41565
8.64939 2.7 -2.86 7.41565
8.64939 2.68 -2.86 7.41565
8.084754 3.0 -3.22 6.47459
8.084754 2.98 -3.22 6.47459
8.084754 2.96 -3.22 6.47459
8.084754 2.94 -3.22 6.47459
8.024094 2.92 -3.22 6.37349
8.024094 2.9 -3.22 6.37349
8.024094 2.88 -3.22 6.37349
8.024094 2.86 -3.22 6.37349
7.908282 2.78 -3.22 6.18047
7.747145999999999 3.16 -3.36 5.91191
7.747145999999999 3.16 -3.38 5.91191
7.599432 3.24 -3.46 5.66572
7.599432 3.22 -3.46 5.66572
7.599432 3.2 -3.46 5.66572
7.599432 3.16 -3.46 5.66572
7.338077999999999 3.44 -3.72 5.23013
7.338077999999999 3.48 -3.74 5.23013
7.338077999999999 3.46 -3.74 5.23013
7.338077999999999 3.44 -3.74 5.23013
7.338077999999999 3.42 -3.74 5.23013
7.378806 3.4 -3.74 5.29801
7.378806 3.38 -3.74 5.29801
7.420614 3.34 -3.74 5.36769
7.420614 3.32 -3.74 5.36769
7.420614 3.3 -3.74 5.36769
7.378806 3.26 -3.74 5.29801
7.420614 3.22 -3.74 5.36769
7.338077999999999 3.46 -3.76 5.23013
7.338077999999999 3.44 -3.76 5.23013
7.338077999999999 3.42 -3.76 5.23013
7.079772 -1.64 -3.98 4.79962
7.079772 -1.66 -3.98 4.79962
6.88998 0.16 -4.18 4.4833
6.776765999999999 4.2 -4.42 4.29461
6.776765999999999 4.18 -4.42 4.29461
6.672695999999999 1.06 -4.52 4.12116
6.72366 3.8 -4.54 4.2061
6.69792 3.78 -4.54 4.1632
6.69792 3.76 -4.54 4.1632
6.69792 4.1 -4.56 4.1632
6.69792 4.08 -4.56 4.1632
6.69792 4.06 -4.56 4.1632
6.69792 4.0 -4.56 4.1632
6.672695999999999 3.94 -4.56 4.12116
6.72366 3.84 -4.56 4.2061
6.72366 3.82 -4.56 4.2061
6.69792 3.78 -4.56 4.1632
6.69792 3.76 -4.56 4.1632
6.69792 3.74 -4.56 4.1632
6.69792 3.72 -4.56 4.1632
6.647982 3.7 -4.56 4.07997
6.69792 4.12 -4.58 4.1632
6.69792 4.1 -4.58 4.1632
6.69792 4.08 -4.58 4.1632
6.69792 4.06 -4.58 4.1632
6.69792 4.04 -4.58 4.1632
6.69792 4.02 -4.58 4.1632
6.69792 4.0 -4.58 4.1632
6.672695999999999 3.98 -4.58 4.12116
6.672695999999999 3.96 -4.58 4.12116
6.672695999999999 3.94 -4.58 4.12116
6.672695999999999 3.92 -4.58 4.12116
6.672695999999999 3.9 -4.58 4.12116
6.623754 4.18 -4.62 4.03959
6.623754 4.22 -4.66 4.03959
6.623754 4.26 -4.7 4.03959
6.623754 2.98 -4.7 4.03959
6.623754 4.38 -4.82 4.03959
012.3533
11.61198 -5.84 -1.78 5000012.3533
12.08952 4.7 -1.84 5000013.1492
12.08952 4.68 -1.84 5000013.1492
10.637759999999998 -6.08 -1.96 5000010.7296
10.637759999999998 3.04 -2.08 5000010.7296
10.025244 -5.98 -2.14 5000009.70874
10.316220000000001 2.3 -2.16 5000010.1937
10.316220000000001 2.32 -2.18 5000010.1937
10.316220000000001 2.3 -2.18 5000010.1937
10.16718 2.34 -2.22 5000009.9453
9.760704 -6.06 -2.22 5000009.26784
9.760704 -6.08 -2.22 5000009.26784
10.025244 2.34 -2.24 5000009.70874
9.760704 -6.14 -2.24 5000009.26784
10.025244 2.36 -2.26 5000009.70874
10.025244 5.0 -2.28 5000009.70874
10.025244 4.98 -2.28 5000009.70874
9.51915 -6.68 -2.3 5000008.86525
9.51915 -6.7 -2.3 5000008.86525
9.51915 -6.72 -2.3 5000008.86525
9.889902000000001 2.4 -2.32 5000009.48317
9.889902000000001 -6.12 -2.32 5000009.48317
9.51915 -6.22 -2.32 5000008.86525
9.51915 -6.24 -2.32 5000008.86525
9.51915 -6.66 -2.32 5000008.86525
9.51915 -6.68 -2.32 5000008.86525
9.51915 -6.7 -2.32 5000008.86525
9.760704 5.52 -2.34 5000009.26784
9.760704 5.5 -2.34 5000009.26784
9.889902000000001 2.4 -2.34 5000009.48317
9.889902000000001 2.38 -2.34 5000009.48317
9.889902000000001 2.36 -2.34 5000009.48317
9.889902000000001 2.34 -2.34 5000009.48317
9.889902000000001 2.32 -2.34 5000009.48317
9.889902000000001 2.3 -2.34 5000009.48317
9.760704 2.28 -2.34 5000009.26784
9.760704 5.52 -2.36 5000009.26784
9.760704 5.5 -2.36 5000009.26784
9.093966 2.38 -2.56 5000008.15661
8.99808 2.58 -2.6 5000007.9968
8.99808 2.6 -2.62 5000007.9968
8.99808 2.58 -2.62 5000007.9968
8.817162000000001 2.64 -2.68 5000007.69527
8.817162000000001 2.66 -2.7 5000007.69527
8.817162000000001 2.64 -2.7 5000007.69527
8.64939 2.72 -2.78 5000007.41565
8.64939 2.7 -2.78 5000007.41565
8.64939 2.72 -2.8 5000007.41565
8.64939 2.7 -2.8 5000007.41565
8.64939 2.72 -2.86 5000007.41565
8.64939 2.7 -2.86 5000007.41565
8.64939 2.68 -2.86 5000007.41565
8.084754 3.0 -3.22 5000006.47459
8.084754 2.98 -3.22 5000006.47459
8.084754 2.96 -3.22 5000006.47459
8.084754 2.94 -3.22 5000006.47459
8.024094 2.92 -3.22 5000006.37349
8.024094 2.9 -3.22 5000006.37349
8.024094 2.88 -3.22 5000006.37349
8.024094 2.86 -3.22 5000006.37349
7.908282 2.78 -3.22 5000006.18047
7.747145999999999 3.16 -3.36 5000005.91191
7.747145999999999 3.16 -3.38 5000005.91191
7.599432 3.24 -3.46 5000005.66572
7.599432 3.22 -3.46 5000005.66572
7.599432 3.2 -3.46 5000005.66572
7.599432 3.16 -3.46 5000005.66572
7.338077999999999 3.44 -3.72 5000005.23013
7.338077999999999 3.48 -3.74 5000005.23013
7.338077999999999 3.46 -3.74 5000005.23013
7.338077999999999 3.44 -3.74 5000005.23013
7.338077999999999 3.42 -3.74 5000005.23013
7.378806 3.4 -3.74 5000005.29801
7.378806 3.38 -3.74 5000005.29801
7.420614 3.34 -3.74 5000005.36769
7.420614 3.32 -3.74 5000005.36769
7.420614 3.3 -3.74 5000005.36769
7.378806 3.26 -3.74 5000005.29801
7.420614 3.22 -3.74 5000005.36769
7.338077999999999 3.46 -3.76 5000005.23013
7.338077999999999 3.44 -3.76 5000005.23013
7.338077999999999 3.42 -3.76 5000005.23013
7.079772 -1.64 -3.98 5000004.79962
7.079772 -1.66 -3.98 5000004.79962
6.88998 0.16 -4.18 5000004.4833
6.776765999999999 4.2 -4.42 5000004.29461
6.776765999999999 4.18 -4.42 5000004.29461
6.672695999999999 1.06 -4.52 5000004.12116
6.72366 3.8 -4.54 5000004.2061
6.69792 3.78 -4.54 5000004.1632
6.69792 3.76 -4.54 5000004.1632
6.69792 4.1 -4.56 5000004.1632
6.69792 4.08 -4.56 5000004.1632
6.69792 4.06 -4.56 5000004.1632
6.69792 4.0 -4.56 5000004.1632
6.672695999999999 3.94 -4.56 5000004.12116
6.72366 3.84 -4.56 5000004.2061
6.72366 3.82 -4.56 5000004.2061
6.69792 3.78 -4.56 5000004.1632
6.69792 3.76 -4.56 5000004.1632
6.69792 3.74 -4.56 5000004.1632
6.69792 3.72 -4.56 5000004.1632
6.647982 3.7 -4.56 5000004.07997
6.69792 4.12 -4.58 5000004.1632
6.69792 4.1 -4.58 5000004.1632
6.69792 4.08 -4.58 5000004.1632
6.69792 4.06 -4.58 5000004.1632
6.69792 4.04 -4.58 5000004.1632
6.69792 4.02 -4.58 5000004.1632
6.69792 4.0 -4.58 5000004.1632
6.672695999999999 3.98 -4.58 5000004.12116
6.672695999999999 3.96 -4.58 5000004.12116
6.672695999999999 3.94 -4.58 5000004.12116
6.672695999999999 3.92 -4.58 5000004.12116
6.672695999999999 3.9 -4.58 5000004.12116
6.623754 4.18 -4.62 5000004.03959
6.623754 4.22 -4.66 5000004.03959
6.623754 4.26 -4.7 5000004.03959
6.623754 2.98 -4.7 5000004.03959
6.623754 4.38 -4.82 5000004.03959
-4.58 5000004.1632
11.49792 4.1 -4.58 5000004.1632
11.49792 4.08 -4.58 5000004.1632
11.49792 4.06 -4.58 5000004.1632
11.49792 4.04 -4.58 5000004.1632
11.49792 4.02 -4.58 5000004.1632
11.49792 4.0 -4.58 5000004.1632
11.472696000000001 3.98 -4.58 5000004.12116
11.472696000000001 3.96 -4.58 5000004.12116
11.472696000000001 3.94 -4.58 5000004.12116
11.472696000000001 3.92 -4.58 5000004.12116
11.472696000000001 3.9 -4.58 5000004.12116
11.423754 4.18 -4.62 5000004.03959
11.423754 4.22 -4.66 5000004.03959
11.423754 4.26 -4.7 5000004.03959
11.423754 2.98 -4.7 5000004.03959
11.423754 4.38 -4.82 5000004.03959
000004.03959
 -4.82 5000004.03959
666666667 2.7 2.7 5000025.4453
10.848176666666667 2.6666666666666665 2.7 5000025.4453
10.968993333333334 -16.666666666666668 2.7 5000029.0698
10.848176666666667 2.9 2.6666666666666665 5000025.4453
10.904566666666666 2.7 2.6666666666666665 5000027.137
10.904566666666666 2.6666666666666665 2.6666666666666665 5000027.137
10.968993333333334 -15.833333333333334 2.6666666666666665 5000029.0698
10.968993333333334 -16.666666666666668 2.6666666666666665 5000029.0698
10.848176666666667 2.9 2.6333333333333333 5000025.4453
10.968993333333334 -15.833333333333334 2.6333333333333333 5000029.0698
10.968993333333334 -16.666666666666668 2.6333333333333333 5000029.0698
11.692046666666666 2.2 2.6 5000050.7614
10.968993333333334 -16.666666666666668 2.6 5000029.0698
10.968993333333334 -17.733333333333334 2.6 5000029.0698
10.968993333333334 -17.766666666666666 2.6 5000029.0698
10.968993333333334 -16.666666666666668 2.566666666666667 5000029.0698
11.692046666666666 2.3333333333333335 2.533333333333333 5000050.7614
10.848176666666667 -14.566666666666666 2.533333333333333 5000025.4453
10.848176666666667 -14.6 2.533333333333333 5000025.4453
11.692046666666666 2.0 2.5 5000050.7614
11.692046666666666 1.2 2.5 5000050.7614
10.798403333333333 -1.6333333333333333 2.5 5000023.9521
10.848176666666667 2.9 2.466666666666667 5000025.4453
11.692046666666666 1.2333333333333334 2.466666666666667 5000050.7614
10.968993333333334 -17.733333333333334 2.466666666666667 5000029.0698
10.848176666666667 2.9 2.433333333333333 5000025.4453
10.848176666666667 2.9 2.4 5000025.4453
10.754146666666667 -1.8 2.4 5000022.6244
10.848176666666667 -11.233333333333333 2.4 5000025.4453
10.848176666666667 2.9 2.3666666666666667 5000025.4453
10.754146666666667 -1.8 2.3666666666666667 5000022.6244
10.968993333333334 -15.833333333333334 2.3666666666666667 5000029.0698
10.968993333333334 -16.666666666666668 2.3666666666666667 5000029.0698
10.848176666666667 2.9 2.3333333333333335 5000025.4453
11.50489 -0.4 2.3333333333333335 5000045.1467
10.968993333333334 -15.833333333333334 2.3333333333333335 5000029.0698
10.968993333333334 -15.866666666666667 2.3333333333333335 5000029.0698
10.848176666666667 2.9 2.3 5000025.4453
11.50489 0.8666666666666667 2.3 5000045.1467
11.50489 -0.4 2.3 5000045.1467
10.848176666666667 2.9 2.2666666666666666 5000025.4453
10.904566666666666 2.6666666666666665 2.2666666666666666 5000027.137
11.692046666666666 2.1 2.2666666666666666 5000050.7614
10.968993333333334 -16.7 2.2666666666666666 5000029.0698
10.848176666666667 2.9 2.2333333333333334 5000025.4453
10.904566666666666 2.6666666666666665 2.2333333333333334 5000027.137
11.692046666666666 2.066666666666667 2.2333333333333334 5000050.7614
10.798403333333333 -14.8 2.2333333333333334 5000023.9521
10.848176666666667 2.9 2.2 5000025.4453
10.904566666666666 2.6666666666666665 2.2 5000027.137
11.692046666666666 2.5 2.2 5000050.7614
11.692046666666666 2.1666666666666665 2.2 5000050.7614
10.848176666666667 2.9 2.1666666666666665 5000025.4453
10.904566666666666 2.6666666666666665 2.1666666666666665 5000027.137
11.232286666666667 -3.2333333333333334 2.1666666666666665 5000036.9686
10.798403333333333 -14.766666666666667 2.1666666666666665 5000023.9521
10.968993333333334 -16.7 2.1666666666666665 5000029.0698
10.754146666666667 -17.7 2.1666666666666665 5000022.6244
10.754146666666667 -17.733333333333334 2.1666666666666665 5000022.6244
10.848176666666667 2.9 2.1333333333333333 5000025.4453
10.904566666666666 2.7 2.1333333333333333 5000027.137
10.904566666666666 2.6666666666666665 2.1333333333333333 5000027.137
11.50489 0.6333333333333333 2.1333333333333333 5000045.1467
10.754146666666667 -1.8 2.1333333333333333 5000022.6244
10.968993333333334 -16.7 2.1333333333333333 5000029.0698
10.754146666666667 -17.7 2.1333333333333333 5000022.6244
11.50489 0.6666666666666666 2.1 5000045.1467
11.50489 0.6333333333333333 2.1 5000045.1467
11.50489 0.1 2.1 5000045.1467
10.754146666666667 -1.6333333333333333 2.1 5000022.6244
10.754146666666667 -1.8 2.1 5000022.6244
10.848176666666667 -11.366666666666667 2.1 5000025.4453
10.678886666666667 -16.066666666666666 2.1 5000020.3666
10.678886666666667 -16.1 2.1 5000020.3666
10.968993333333334 -16.7 2.1 5000029.0698
10.754146666666667 -17.7 2.1 5000022.6244
10.754146666666667 -17.733333333333334 2.1 5000022.6244
10.754146666666667 -17.766666666666666 2.1 5000022.6244
11.50489 0.6666666666666666 2.066666666666667 5000045.1467
11.50489 0.1 2.066666666666667 5000045.1467
10.754146666666667 -1.6333333333333333 2.066666666666667 5000022.6244
10.798403333333333 -14.0 2.066666666666667 5000023.9521
10.798403333333333 -14.733333333333333 2.066666666666667 5000023.9521
10.678886666666667 -16.133333333333333 2.066666666666667 5000020.3666
10.968993333333334 -16.7 2.066666666666667 5000029.0698
10.754146666666667 -17.7 2.066666666666667 5000022.6244
10.754146666666667 -17.733333333333334 2.066666666666667 5000022.6244
10.754146666666667 -17.766666666666666 2.066666666666667 5000022.6244
11.50489 0.5333333333333333 2.033333333333333 5000045.1467
11.355013333333334 -1.0666666666666667 2.033333333333333 5000040.6504
10.754146666666667 -1.6333333333333333 2.033333333333333 5000022.6244
10.798403333333333 -14.733333333333333 2.033333333333333 5000023.9521
10.798403333333333 -14.766666666666667 2.033333333333333 5000023.9521
10.968993333333334 -16.7 2.033333333333333 5000029.0698
11.50489 0.13333333333333333 2.0 5000045.1467
11.50489 0.1 2.0 5000045.1467
10.754146666666667 -1.6333333333333333 2.0 5000022.6244
10.848176666666667 -11.7 2.0 5000025.4453
10.71454 -16.3 2.0 5000021.4362
10.968993333333334 -16.7 2.0 5000029.0698
10.754146666666667 -17.733333333333334 2.0 5000022.6244
10.754146666666667 -17.766666666666666 2.0 5000022.6244
11.50489 0.0 1.9666666666666666 5000045.1467
10.754146666666667 -1.6333333333333333 1.9666666666666666 5000022.6244
11.232286666666667 -2.6 1.9666666666666666 5000036.9686
10.798403333333333 -13.933333333333334 1.9666666666666666 5000023.9521
10.798403333333333 -13.966666666666667 1.9666666666666666 5000023.9521
10.71454 -16.266666666666666 1.9666666666666666 5000021.4362
10.71454 -17.766666666666666 1.9666666666666666 5000021.4362
10.754146666666667 -1.6333333333333333 1.9333333333333333 5000022.6244
11.232286666666667 -2.6 1.9333333333333333 5000036.9686
10.754146666666667 -1.6333333333333333 1.9 5000022.6244
11.232286666666667 -2.6 1.9 5000036.9686
11.232286666666667 -3.4 1.9 5000036.9686
11.232286666666667 -4.3 1.9 5000036.9686
11.129943333333333 -4.9 1.9 5000033.8983
10.754146666666667 -1.6333333333333333 1.8666666666666667 5000022.6244
11.232286666666667 -2.566666666666667 1.8666666666666667 5000036.9686
11.232286666666667 -2.6 1.8666666666666667 5000036.9686
11.232286666666667 -3.4 1.8666666666666667 5000036.9686
11.232286666666667 -4.3 1.8666666666666667 5000036.9686
10.71454 -17.766666666666666 1.8666666666666667 5000021.4362
10.754146666666667 -1.6333333333333333 1.8333333333333333 5000022.6244
10.754146666666667 -1.8 1.8333333333333333 5000022.6244
11.232286666666667 -2.6 1.8333333333333333 5000036.9686
10.71454 -16.233333333333334 1.8333333333333333 5000021.4362
11.232286666666667 -2.6 1.8 5000036.9686
10.848176666666667 2.9 1.7666666666666666 5000025.4453
11.129943333333333 -4.266666666666667 1.7666666666666666 5000033.8983
10.71454 -16.566666666666666 1.7666666666666666 5000021.4362
10.754146666666667 -17.766666666666666 1.7666666666666666 5000022.6244
10.848176666666667 2.9 1.7333333333333334 5000025.4453
10.798403333333333 -13.566666666666666 1.7333333333333334 5000023.9521
10.798403333333333 -13.6 1.7333333333333334 5000023.9521
10.71454 -16.433333333333334 1.7333333333333334 5000021.4362
10.754146666666667 -16.666666666666668 1.7333333333333334 5000022.6244
10.754146666666667 -16.7 1.7333333333333334 5000022.6244
10.754146666666667 -17.766666666666666 1.7333333333333334 5000022.6244
10.754146666666667 -17.8 1.7333333333333334 5000022.6244
10.798403333333333 -13.6 1.7 5000023.9521
10.798403333333333 -13.633333333333333 1.7 5000023.9521
10.754146666666667 -17.766666666666666 1.7 5000022.6244
10.754146666666667 -17.8 1.7 5000022.6244
10.848176666666667 -13.2 1.6666666666666667 5000025.4453
10.848176666666667 -13.233333333333333 1.6666666666666667 5000025.4453
10.71454 -15.766666666666667 1.6666666666666667 5000021.4362
10.798403333333333 -13.166666666666666 1.6333333333333333 5000023.9521
10.798403333333333 -13.2 1.6333333333333333 5000023.9521
10.754146666666667 -15.266666666666667 1.6333333333333333 5000022.6244
10.754146666666667 -15.3 1.6333333333333333 5000022.6244
10.71454 -15.8 1.6333333333333333 5000021.4362
10.754146666666667 -16.733333333333334 1.6333333333333333 5000022.6244
10.754146666666667 -16.766666666666666 1.6333333333333333 5000022.6244
10.798403333333333 -13.4 1.6 5000023.9521
10.71454 -15.833333333333334 1.6 5000021.4362
10.754146666666667 -16.733333333333334 1.6 5000022.6244
10.754146666666667 -17.766666666666666 1.6 5000022.6244
10.754146666666667 -17.8 1.6 5000022.6244
10.798403333333333 -13.166666666666666 1.5666666666666667 5000023.9521
10.754146666666667 -15.266666666666667 1.5666666666666667 5000022.6244
10.754146666666667 -17.766666666666666 1.5666666666666667 5000022.6244
10.754146666666667 -17.8 1.5666666666666667 5000022.6244
10.798403333333333 -13.166666666666666 1.5333333333333334 5000023.9521
10.754146666666667 -15.233333333333333 1.5333333333333334 5000022.6244
10.71454 -15.866666666666667 1.5333333333333334 5000021.4362
10.71454 -17.766666666666666 1.5333333333333334 5000021.4362
10.71454 -17.8 1.5333333333333334 5000021.4362
10.798403333333333 -13.6 1.5 5000023.9521
10.754146666666667 -15.233333333333333 1.5 5000022.6244
10.71454 -15.866666666666667 1.5 5000021.4362
10.71454 -17.766666666666666 1.5 5000021.4362
10.71454 -17.8 1.5 5000021.4362
10.798403333333333 -13.266666666666667 1.4666666666666666 5000023.9521
10.754146666666667 -15.233333333333333 1.4666666666666666 5000022.6244
10.71454 -17.8 1.4666666666666666 5000021.4362
10.754146666666667 -15.233333333333333 1.4333333333333333 5000022.6244
10.71454 -15.366666666666667 1.4333333333333333 5000021.4362
10.71454 -15.733333333333333 1.4333333333333333 5000021.4362
10.71454 -15.766666666666667 1.4333333333333333 5000021.4362
10.71454 -15.366666666666667 1.4 5000021.4362
10.71454 -15.766666666666667 1.4 5000021.4362
10.848176666666667 -13.533333333333333 1.3666666666666667 5000025.4453
10.848176666666667 -13.566666666666666 1.3666666666666667 5000025.4453
10.71454 -15.366666666666667 1.3666666666666667 5000021.4362
10.754146666666667 -17.8 1.3666666666666667 5000022.6244
10.71454 -15.4 1.3333333333333333 5000021.4362
10.71454 -15.466666666666667 1.2666666666666666 5000021.4362
10.754146666666667 -15.633333333333333 1.2666666666666666 5000022.6244
10.754146666666667 -15.666666666666666 1.2666666666666666 5000022.6244
10.754146666666667 -15.7 1.2666666666666666 5000022.6244
10.71454 -17.833333333333332 1.2333333333333334 5000021.4362
10.754146666666667 -17.866666666666667 1.2333333333333334 5000022.6244
10.754146666666667 -2.2 1.2 5000022.6244
10.71454 -17.866666666666667 1.1666666666666667 5000021.4362
10.4852 -3.3666666666666667 0.5666666666666667 5000014.556
10.411776666666666 -16.366666666666667 0.36666666666666664 5000012.3533
10.411776666666666 -16.4 0.36666666666666664 5000012.3533
10.438306666666668 1.1666666666666667 0.26666666666666666 5000013.1492
10.438306666666668 1.1333333333333333 0.26666666666666666 5000013.1492
10.357653333333333 -16.8 0.06666666666666667 5000010.7296
10.357653333333333 -1.6 -0.13333333333333333 5000010.7296
10.323624666666667 -16.633333333333333 -0.23333333333333334 5000009.70874
10.33979 -2.8333333333333335 -0.26666666666666666 5000010.1937
10.33979 -2.8 -0.3 5000010.1937
10.33979 -2.8333333333333335 -0.3 5000010.1937
10.33151 -2.7666666666666666 -0.36666666666666664 5000009.9453
10.308928 -16.766666666666666 -0.36666666666666664 5000009.26784
10.308928 -16.8 -0.36666666666666664 5000009.26784
10.323624666666667 -2.7666666666666666 -0.4 5000009.70874
10.308928 -16.9 -0.4 5000009.26784
10.323624666666667 -2.7333333333333334 -0.43333333333333335 5000009.70874
10.323624666666667 1.6666666666666667 -0.4666666666666667 5000009.70874
10.323624666666667 1.6333333333333333 -0.4666666666666667 5000009.70874
10.295508333333334 -17.8 -0.5 5000008.86525
10.295508333333334 -17.833333333333332 -0.5 5000008.86525
10.295508333333334 -17.866666666666667 -0.5 5000008.86525
10.316105666666667 -2.6666666666666665 -0.5333333333333333 5000009.48317
10.316105666666667 -16.866666666666667 -0.5333333333333333 5000009.48317
10.295508333333334 -17.033333333333335 -0.5333333333333333 5000008.86525
10.295508333333334 -17.066666666666666 -0.5333333333333333 5000008.86525
10.295508333333334 -17.766666666666666 -0.5333333333333333 5000008.86525
10.295508333333334 -17.8 -0.5333333333333333 5000008.86525
10.295508333333334 -17.833333333333332 -0.5333333333333333 5000008.86525
10.308928 2.533333333333333 -0.5666666666666667 5000009.26784
10.308928 2.5 -0.5666666666666667 5000009.26784
10.316105666666667 -2.6666666666666665 -0.5666666666666667 5000009.48317
10.316105666666667 -2.7 -0.5666666666666667 5000009.48317
10.316105666666667 -2.7333333333333334 -0.5666666666666667 5000009.48317
10.316105666666667 -2.7666666666666666 -0.5666666666666667 5000009.48317
10.316105666666667 -2.8 -0.5666666666666667 5000009.48317
10.316105666666667 -2.8333333333333335 -0.5666666666666667 5000009.48317
10.308928 -2.8666666666666667 -0.5666666666666667 5000009.26784
10.308928 2.533333333333333 -0.6 5000009.26784
10.308928 2.5 -0.6 5000009.26784
10.271887 -2.7 -0.9333333333333333 5000008.15661
10.26656 -2.3666666666666667 -1.0 5000007.9968
10.26656 -2.3333333333333335 -1.0333333333333334 5000007.9968
10.26656 -2.3666666666666667 -1.0333333333333334 5000007.9968
10.256509 -2.2666666666666666 -1.1333333333333333 5000007.69527
10.256509 -2.2333333333333334 -1.1666666666666667 5000007.69527
10.256509 -2.2666666666666666 -1.1666666666666667 5000007.69527
10.247188333333334 -2.1333333333333333 -1.3 5000007.41565
10.247188333333334 -2.1666666666666665 -1.3 5000007.41565
10.247188333333334 -2.1333333333333333 -1.3333333333333333 5000007.41565
10.247188333333334 -2.1666666666666665 -1.3333333333333333 5000007.41565
10.247188333333334 -2.1333333333333333 -1.4333333333333333 5000007.41565
10.247188333333334 -2.1666666666666665 -1.4333333333333333 5000007.41565
10.247188333333334 -2.2 -1.4333333333333333 5000007.41565
10.215819666666667 -1.6666666666666667 -2.033333333333333 5000006.47459
10.215819666666667 -1.7 -2.033333333333333 5000006.47459
10.215819666666667 -1.7333333333333334 -2.033333333333333 5000006.47459
10.215819666666667 -1.7666666666666666 -2.033333333333333 5000006.47459
10.212449666666666 -1.8 -2.033333333333333 5000006.37349
10.212449666666666 -1.8333333333333333 -2.033333333333333 5000006.37349
10.212449666666666 -1.8666666666666667 -2.033333333333333 5000006.37349
10.212449666666666 -1.9 -2.033333333333333 5000006.37349
10.206015666666667 -2.033333333333333 -2.033333333333333 5000006.18047
10.197063666666667 -1.4 -2.2666666666666666 5000005.91191
10.197063666666667 -1.4 -2.3 5000005.91191
10.188857333333333 -1.2666666666666666 -2.433333333333333 5000005.66572
10.188857333333333 -1.3 -2.433333333333333 5000005.66572
10.188857333333333 -1.3333333333333333 -2.433333333333333 5000005.66572
10.188857333333333 -1.4 -2.433333333333333 5000005.66572
10.174337666666666 -0.9333333333333333 -2.8666666666666667 5000005.23013
10.174337666666666 -0.8666666666666667 -2.9 5000005.23013
10.174337666666666 -0.9 -2.9 5000005.23013
10.174337666666666 -0.9333333333333333 -2.9 5000005.23013
10.174337666666666 -0.9666666666666667 -2.9 5000005.23013
10.176600333333333 -1.0 -2.9 5000005.29801
10.176600333333333 -1.0333333333333334 -2.9 5000005.29801
10.178923 -1.1 -2.9 5000005.36769
10.178923 -1.1333333333333333 -2.9 5000005.36769
10.178923 -1.1666666666666667 -2.9 5000005.36769
10.176600333333333 -1.2333333333333334 -2.9 5000005.29801
10.178923 -1.3 -2.9 5000005.36769
10.174337666666666 -0.9 -2.933333333333333 5000005.23013
10.174337666666666 -0.9333333333333333 -2.933333333333333 5000005.23013
10.174337666666666 -0.9666666666666667 -2.933333333333333 5000005.23013
10.159987333333333 -9.4 -3.3 5000004.79962
10.159987333333333 -9.433333333333334 -3.3 5000004.79962
10.149443333333334 -6.4 -3.6333333333333333 5000004.4833
10.143153666666667 0.3333333333333333 -4.033333333333333 5000004.29461
10.143153666666667 0.3 -4.033333333333333 5000004.29461
10.137372 -4.9 -4.2 5000004.12116
10.140203333333334 -0.3333333333333333 -4.233333333333333 5000004.2061
10.138773333333333 -0.36666666666666664 -4.233333333333333 5000004.1632
10.138773333333333 -0.4 -4.233333333333333 5000004.1632
10.138773333333333 0.16666666666666666 -4.266666666666667 5000004.1632
10.138773333333333 0.13333333333333333 -4.266666666666667 5000004.1632
10.138773333333333 0.1 -4.266666666666667 5000004.1632
10.138773333333333 0.0 -4.266666666666667 5000004.1632
10.137372 -0.1 -4.266666666666667 5000004.12116
10.140203333333334 -0.26666666666666666 -4.266666666666667 5000004.2061
10.140203333333334 -0.3 -4.266666666666667 5000004.2061
10.138773333333333 -0.36666666666666664 -4.266666666666667 5000004.1632
10.138773333333333 -0.4 -4.266666666666667 5000004.1632
10.138773333333333 -0.43333333333333335 -4.266666666666667 5000004.1632
10.138773333333333 -0.4666666666666667 -4.266666666666667 5000004.1632
10.135999 -0.5 -4.266666666666667 5000004.07997
10.138773333333333 0.2 -4.3 5000004.1632
10.138773333333333 0.16666666666666666 -4.3 5000004.1632
10.138773333333333 0.13333333333333333 -4.3 5000004.1632
10.138773333333333 0.1 -4.3 5000004.1632
10.138773333333333 0.06666666666666667 -4.3 5000004.1632
10.138773333333333 0.03333333333333333 -4.3 5000004.1632
10.138773333333333 0.0 -4.3 5000004.1632
10.137372 -0.03333333333333333 -4.3 5000004.12116
10.137372 -0.06666666666666667 -4.3 5000004.12116
10.137372 -0.1 -4.3 5000004.12116
10.137372 -0.13333333333333333 -4.3 5000004.12116
10.137372 -0.16666666666666666 -4.3 5000004.12116
10.134653 0.3 -4.366666666666666 5000004.03959
10.134653 0.36666666666666664 -4.433333333333334 5000004.03959
10.134653 0.43333333333333335 -4.5 5000004.03959
10.134653 -1.7 -4.5 5000004.03959
10.134653 0.6333333333333333 -4.7 5000004.03959
6666666665 -4.266666666666667 5000004.1632
10.138773333333333 -3.2 -4.266666666666667 5000004.1632
10.138773333333333 -3.2333333333333334 -4.266666666666667 5000004.1632
10.138773333333333 -3.3333333333333335 -4.266666666666667 5000004.1632
10.137372 -3.433333333333333 -4.266666666666667 5000004.12116
10.140203333333334 -3.6 -4.266666666666667 5000004.2061
10.140203333333334 -3.6333333333333333 -4.266666666666667 5000004.2061
10.138773333333333 -3.7 -4.266666666666667 5000004.1632
10.138773333333333 -3.7333333333333334 -4.266666666666667 5000004.1632
10.138773333333333 -3.7666666666666666 -4.266666666666667 5000004.1632
10.138773333333333 -3.8 -4.266666666666667 5000004.1632
10.135999 -3.8333333333333335 -4.266666666666667 5000004.07997
10.138773333333333 -3.1333333333333333 -4.3 5000004.1632
10.138773333333333 -3.1666666666666665 -4.3 5000004.1632
10.138773333333333 -3.2 -4.3 5000004.1632
10.138773333333333 -3.2333333333333334 -4.3 5000004.1632
10.138773333333333 -3.2666666666666666 -4.3 5000004.1632
10.138773333333333 -3.3 -4.3 5000004.1632
10.138773333333333 -3.3333333333333335 -4.3 5000004.1632
10.137372 -3.3666666666666667 -4.3 5000004.12116
10.137372 -3.4 -4.3 5000004.12116
10.137372 -3.433333333333333 -4.3 5000004.12116
10.137372 -3.466666666666667 -4.3 5000004.12116
10.137372 -3.5 -4.3 5000004.12116
10.134653 -3.033333333333333 -4.366666666666666 5000004.03959
10.134653 -2.966666666666667 -4.433333333333334 5000004.03959
10.134653 -2.9 -4.5 5000004.03959
10.134653 -5.033333333333333 -4.5 5000004.03959
10.134653 -2.7 -4.7 5000004.03959
2666666666666675 5000004.1632
4.138773333333333 4.266666666666667 -4.2666666666666675 5000004.1632
4.138773333333333 4.166666666666666 -4.2666666666666675 5000004.1632
4.137372 4.066666666666666 -4.2666666666666675 5000004.12116
4.140203333333333 3.9 -4.2666666666666675 5000004.2061
4.140203333333333 3.8666666666666667 -4.2666666666666675 5000004.2061
4.138773333333333 3.8 -4.2666666666666675 5000004.1632
4.138773333333333 3.7666666666666666 -4.2666666666666675 5000004.1632
4.138773333333333 3.7333333333333334 -4.2666666666666675 5000004.1632
4.138773333333333 3.7 -4.2666666666666675 5000004.1632
