VERSION .7
FIELDS x y z rgb
SIZE 4 4 4 4
TYPE F F F F
COUNT 1 1 1 1
WIDTH 734
HEIGHT 1
VIEWPOINT 0 0 0 1 0 0 0
POINTS 734
DATA ascii
17.06172 -5.48 3.94 5000021.4362
22.97934 -3.94 3.92 5000031.2989
17.06172 -5.5 3.9 5000021.4362
17.06172 3.24 3.86 5000021.4362
17.06172 3.22 3.86 5000021.4362
17.06172 2.9 3.86 5000021.4362
17.06172 2.88 3.86 5000021.4362
17.06172 2.86 3.86 5000021.4362
17.77464 2.84 3.86 5000022.6244
17.77464 2.82 3.86 5000022.6244
17.06172 2.54 3.86 5000021.4362
18.57126 -4.58 3.86 5000023.9521
17.06172 -5.52 3.86 5000021.4362
17.06172 3.24 3.84 5000021.4362
17.06172 2.62 3.84 5000021.4362
17.06172 2.6 3.84 5000021.4362
17.06172 2.58 3.84 5000021.4362
17.06172 2.56 3.84 5000021.4362
17.06172 -5.52 3.84 5000021.4362
17.77464 2.64 3.82 5000022.6244
17.06172 2.62 3.82 5000021.4362
17.06172 2.6 3.82 5000021.4362
17.77464 2.66 3.8 5000022.6244
17.06172 -5.54 3.8 5000021.4362
17.06172 -5.54 3.78 5000021.4362
17.06172 3.24 3.74 5000021.4362
17.06172 -5.56 3.74 5000021.4362
17.06172 3.24 3.72 5000021.4362
17.06172 3.24 3.7 5000021.4362
18.57126 -4.6 3.7 5000023.9521
17.77464 -5.56 3.68 5000022.6244
17.77464 -5.58 3.68 5000022.6244
17.06172 3.24 3.66 5000021.4362
17.06172 3.24 3.64 5000021.4362
17.77464 -5.58 3.64 5000022.6244
17.77464 -5.6 3.64 5000022.6244
17.06172 3.24 3.62 5000021.4362
17.06172 3.24 3.6 5000021.4362
17.06172 3.24 3.58 5000021.4362
17.77464 -5.6 3.58 5000022.6244
24.53898 -2.58 3.54 5000033.8983
18.57126 -4.64 3.54 5000023.9521
17.77464 3.24 3.52 5000022.6244
17.77464 -5.62 3.52 5000022.6244
18.57126 -5.26 3.48 5000023.9521
18.57126 -5.28 3.48 5000023.9521
17.77464 -5.64 3.46 5000022.6244
17.77464 -5.66 3.46 5000022.6244
17.77464 -5.64 3.44 5000022.6244
17.77464 -5.66 3.4 5000022.6244
17.77464 -4.72 3.38 5000022.6244
17.77464 -5.66 3.38 5000022.6244
17.77464 -4.72 3.36 5000022.6244
17.77464 -4.74 3.36 5000022.6244
17.77464 -5.66 3.36 5000022.6244
22.97934 -3.96 3.3 5000031.2989
17.77464 -5.66 3.28 5000022.6244
17.77464 -5.68 3.28 5000022.6244
17.77464 -5.68 3.26 5000022.6244
17.77464 -5.68 3.24 5000022.6244
28.590239999999998 -0.24 3.22 5000040.6504
28.590239999999998 -0.26 3.22 5000040.6504
18.57126 -4.92 3.22 5000023.9521
17.77464 -5.68 3.22 5000022.6244
28.590239999999998 -0.22 3.2 5000040.6504
24.53898 -3.24 3.14 5000033.8983
18.57126 -5.14 3.12 5000023.9521
31.28802 -0.22 3.08 5000045.1467
19.467180000000003 -4.54 3.08 5000025.4453
18.57126 -4.58 3.04 5000023.9521
19.467180000000003 -4.6 3.04 5000025.4453
18.57126 -4.98 3.04 5000023.9521
18.57126 -5.22 2.76 5000023.9521
21.64188 -1.2 2.7 5000029.0698
24.53898 -3.5 2.68 5000033.8983
24.53898 -3.52 2.68 5000033.8983
18.57126 -5.22 2.66 5000023.9521
18.57126 -5.24 2.66 5000023.9521
21.64188 -6.24 2.6 5000029.0698
21.64188 -6.24 2.58 5000029.0698
21.64188 -6.24 2.56 5000029.0698
21.64188 -6.26 2.56 5000029.0698
18.57126 -5.18 2.52 5000023.9521
18.57126 -4.58 2.5 5000023.9521
21.64188 -6.24 2.46 5000029.0698
18.57126 -4.6 2.44 5000023.9521
28.590239999999998 1.8 2.4 5000040.6504
21.64188 -6.24 2.4 5000029.0698
21.64188 -6.26 2.4 5000029.0698
21.64188 -6.24 2.38 5000029.0698
21.64188 -6.26 2.38 5000029.0698
21.64188 -6.24 2.36 5000029.0698
21.64188 -6.26 2.36 5000029.0698
21.64188 -1.16 2.34 5000029.0698
28.590239999999998 -0.24 2.28 5000040.6504
28.590239999999998 -0.26 2.28 5000040.6504
20.4822 -6.26 2.28 5000027.137
28.590239999999998 -0.22 2.26 5000040.6504
18.57126 -4.54 2.26 5000023.9521
18.57126 -4.56 2.26 5000023.9521
18.57126 -5.04 2.26 5000023.9521
18.57126 -4.54 2.24 5000023.9521
20.4822 -6.26 2.24 5000027.137
20.4822 -6.26 2.22 5000027.137
20.4822 -6.26 2.18 5000027.137
18.57126 -5.12 2.16 5000023.9521
22.97934 -6.06 2.16 5000031.2989
20.4822 -6.26 2.16 5000027.137
20.4822 -6.26 2.14 5000027.137
20.4822 -6.26 2.12 5000027.137
21.64188 -3.54 2.1 5000029.0698
21.64188 -3.58 2.1 5000029.0698
24.53898 -3.6 2.1 5000033.8983
20.4822 -6.26 2.1 5000027.137
26.38116 -3.46 2.08 5000036.9686
26.38116 -3.48 2.08 5000036.9686
22.97934 -3.98 2.08 5000031.2989
18.57126 -5.16 2.06 5000023.9521
24.53898 -5.98 2.04 5000033.8983
20.4822 -6.26 2.0 5000027.137
28.590239999999998 2.9 1.96 5000040.6504
20.4822 -6.26 1.96 5000027.137
20.4822 -6.26 1.94 5000027.137
31.28802 2.94 1.9 5000045.1467
18.57126 5.92 1.86 5000023.9521
18.57126 5.92 1.84 5000023.9521
18.57126 5.92 1.82 5000023.9521
18.57126 5.92 1.8 5000023.9521
18.57126 5.92 1.78 5000023.9521
18.57126 5.92 1.76 5000023.9521
38.9826 5.1 1.76 5000057.971
18.57126 5.92 1.74 5000023.9521
38.9826 5.12 1.74 5000057.971
18.57126 5.94 1.72 5000023.9521
18.57126 5.92 1.72 5000023.9521
18.57126 5.94 1.7 5000023.9521
18.57126 5.92 1.7 5000023.9521
18.57126 5.94 1.68 5000023.9521
18.57126 5.94 1.66 5000023.9521
38.9826 5.12 1.66 5000057.971
18.57126 5.94 1.64 5000023.9521
38.9826 5.14 1.64 5000057.971
18.57126 5.94 1.62 5000023.9521
38.9826 5.14 1.62 5000057.971
18.57126 5.94 1.6 5000023.9521
20.4822 -4.42 1.6 5000027.137
34.65684 5.12 1.56 5000050.7614
34.65684 5.1 1.56 5000050.7614
38.9826 5.12 1.54 5000057.971
38.9826 5.14 1.5 5000057.971
20.4822 -3.54 1.5 5000027.137
20.4822 -3.56 1.5 5000027.137
26.38116 -3.6 1.5 5000036.9686
26.38116 -3.42 1.48 5000036.9686
26.38116 -3.44 1.48 5000036.9686
26.38116 -3.46 1.48 5000036.9686
19.467180000000003 5.92 1.4 5000025.4453
17.06172 3.24 1.4 5000021.4362
19.467180000000003 5.92 1.38 5000025.4453
19.467180000000003 5.92 1.36 5000025.4453
38.9826 5.1 1.34 5000057.971
17.06172 3.24 1.34 5000021.4362
38.9826 5.1 1.32 5000057.971
17.77464 3.24 1.26 5000022.6244
17.77464 3.24 1.24 5000022.6244
20.4822 -6.28 1.24 5000027.137
20.4822 -6.28 1.22 5000027.137
20.4822 -6.28 1.2 5000027.137
38.9826 5.08 1.16 5000057.971
17.06172 3.24 1.16 5000021.4362
22.97934 -6.1 1.14 5000031.2989
19.467180000000003 5.92 1.1 5000025.4453
19.467180000000003 5.92 1.06 5000025.4453
17.06172 3.36 1.06 5000021.4362
20.4822 -6.28 1.06 5000027.137
19.467180000000003 5.92 1.04 5000025.4453
17.06172 3.36 1.04 5000021.4362
28.590239999999998 1.84 1.04 5000040.6504
19.467180000000003 -4.62 1.04 5000025.4453
18.57126 -4.64 1.04 5000023.9521
19.467180000000003 5.92 1.02 5000025.4453
17.06172 3.3 1.02 5000021.4362
17.06172 3.28 1.02 5000021.4362
19.467180000000003 -4.42 1.02 5000025.4453
22.97934 -4.52 1.02 5000031.2989
19.467180000000003 -4.58 1.02 5000025.4453
19.467180000000003 -4.6 1.02 5000025.4453
19.467180000000003 -4.62 1.02 5000025.4453
18.57126 -4.64 1.02 5000023.9521
19.467180000000003 5.92 1.0 5000025.4453
17.06172 3.3 1.0 5000021.4362
19.467180000000003 -4.4 1.0 5000025.4453
19.467180000000003 -4.42 1.0 5000025.4453
19.467180000000003 -4.58 1.0 5000025.4453
19.467180000000003 -4.6 1.0 5000025.4453
19.467180000000003 5.92 0.98 5000025.4453
17.06172 3.3 0.98 5000021.4362
19.467180000000003 5.92 0.96 5000025.4453
31.28802 4.3 0.96 5000045.1467
17.06172 3.3 0.96 5000021.4362
19.467180000000003 5.92 0.94 5000025.4453
17.06172 3.3 0.94 5000021.4362
19.467180000000003 5.92 0.92 5000025.4453
17.06172 3.34 0.92 5000021.4362
19.467180000000003 -3.42 0.92 5000025.4453
19.467180000000003 -3.44 0.92 5000025.4453
19.467180000000003 -3.46 0.92 5000025.4453
31.28802 -3.54 0.92 5000045.1467
19.467180000000003 5.92 0.9 5000025.4453
17.06172 3.34 0.9 5000021.4362
21.64188 -6.28 0.9 5000029.0698
19.467180000000003 5.92 0.88 5000025.4453
17.06172 3.34 0.88 5000021.4362
21.64188 -6.28 0.88 5000029.0698
19.467180000000003 5.92 0.86 5000025.4453
18.57126 -4.78 0.86 5000023.9521
18.57126 -4.8 0.86 5000023.9521
18.57126 -4.82 0.86 5000023.9521
18.57126 5.92 0.84 5000023.9521
17.06172 3.44 0.84 5000021.4362
17.06172 3.3 0.84 5000021.4362
21.64188 -6.28 0.84 5000029.0698
18.57126 5.92 0.82 5000023.9521
17.06172 3.3 0.82 5000021.4362
21.64188 -6.28 0.82 5000029.0698
18.57126 5.92 0.8 5000023.9521
17.06172 3.44 0.8 5000021.4362
17.06172 3.3 0.8 5000021.4362
21.64188 -6.28 0.8 5000029.0698
18.57126 5.92 0.78 5000023.9521
17.06172 3.44 0.78 5000021.4362
17.06172 3.3 0.78 5000021.4362
24.53898 -3.3 0.78 5000033.8983
18.57126 -4.8 0.78 5000023.9521
18.57126 -4.82 0.78 5000023.9521
18.57126 5.92 0.76 5000023.9521
17.06172 3.44 0.76 5000021.4362
17.06172 3.3 0.76 5000021.4362
17.06172 3.16 0.76 5000021.4362
18.57126 -4.8 0.76 5000023.9521
18.57126 -4.82 0.76 5000023.9521
18.57126 -4.96 0.76 5000023.9521
21.64188 -6.28 0.76 5000029.0698
18.57126 5.92 0.74 5000023.9521
17.06172 3.3 0.74 5000021.4362
17.06172 3.14 0.74 5000021.4362
18.57126 -4.96 0.74 5000023.9521
18.57126 5.92 0.72 5000023.9521
17.06172 3.3 0.72 5000021.4362
21.64188 -6.28 0.72 5000029.0698
17.77464 3.44 0.7 5000022.6244
17.06172 3.3 0.7 5000021.4362
21.64188 -6.28 0.7 5000029.0698
21.64188 -6.3 0.7 5000029.0698
18.57126 5.9 0.68 5000023.9521
17.77464 3.44 0.68 5000022.6244
17.06172 3.3 0.68 5000021.4362
17.06172 3.14 0.68 5000021.4362
18.57126 -4.78 0.68 5000023.9521
18.57126 5.92 0.66 5000023.9521
18.57126 5.9 0.66 5000023.9521
17.06172 3.3 0.66 5000021.4362
17.06172 3.14 0.66 5000021.4362
20.4822 -6.3 0.66 5000027.137
18.57126 5.92 0.64 5000023.9521
17.77464 3.44 0.64 5000022.6244
17.06172 3.3 0.64 5000021.4362
17.06172 3.14 0.64 5000021.4362
20.4822 -6.28 0.64 5000027.137
20.4822 -6.3 0.64 5000027.137
18.57126 5.92 0.62 5000023.9521
22.97934 -4.02 0.62 5000031.2989
20.4822 -6.28 0.62 5000027.137
20.4822 -6.3 0.62 5000027.137
18.57126 5.92 0.6 5000023.9521
20.4822 -6.3 0.6 5000027.137
18.57126 5.92 0.58 5000023.9521
20.4822 -6.28 0.58 5000027.137
20.4822 -6.3 0.58 5000027.137
18.57126 5.92 0.56 5000023.9521
18.57126 5.92 0.54 5000023.9521
17.06172 3.22 0.54 5000021.4362
18.57126 5.92 0.52 5000023.9521
17.06172 3.22 0.52 5000021.4362
18.57126 5.92 0.5 5000023.9521
17.06172 3.22 0.5 5000021.4362
20.4822 -6.3 0.5 5000027.137
18.57126 5.92 0.48 5000023.9521
18.57126 5.92 0.46 5000023.9521
17.06172 3.22 0.46 5000021.4362
18.57126 5.92 0.44 5000023.9521
18.57126 5.92 0.42 5000023.9521
17.77464 3.22 0.42 5000022.6244
18.57126 5.92 0.4 5000023.9521
18.57126 -4.98 0.4 5000023.9521
18.57126 5.92 0.38 5000023.9521
18.57126 5.9 0.38 5000023.9521
18.57126 -4.98 0.38 5000023.9521
18.57126 -5.0 0.38 5000023.9521
20.4822 -6.3 0.38 5000027.137
18.57126 5.92 0.36 5000023.9521
18.57126 5.9 0.36 5000023.9521
17.77464 3.22 0.36 5000022.6244
38.9826 -2.38 0.36 5000057.971
38.9826 -2.4 0.36 5000057.971
38.9826 -2.42 0.36 5000057.971
21.64188 -2.52 0.36 5000029.0698
18.57126 -4.98 0.36 5000023.9521
19.467180000000003 5.92 0.34 5000025.4453
19.467180000000003 5.9 0.34 5000025.4453
38.9826 -2.38 0.34 5000057.971
38.9826 -2.4 0.34 5000057.971
38.9826 -2.42 0.34 5000057.971
18.57126 -5.0 0.34 5000023.9521
19.467180000000003 5.92 0.32 5000025.4453
19.467180000000003 5.9 0.32 5000025.4453
19.467180000000003 5.92 0.3 5000025.4453
19.467180000000003 5.9 0.3 5000025.4453
18.57126 -5.94 0.3 5000023.9521
18.57126 -5.98 0.3 5000023.9521
19.467180000000003 5.92 0.28 5000025.4453
19.467180000000003 5.9 0.28 5000025.4453
19.467180000000003 -4.84 0.28 5000025.4453
19.467180000000003 -4.86 0.28 5000025.4453
19.467180000000003 5.92 0.26 5000025.4453
19.467180000000003 5.9 0.26 5000025.4453
19.467180000000003 5.92 0.24 5000025.4453
19.467180000000003 5.9 0.24 5000025.4453
18.57126 -5.74 0.24 5000023.9521
18.57126 -5.76 0.24 5000023.9521
19.467180000000003 5.92 0.22 5000025.4453
19.467180000000003 5.9 0.22 5000025.4453
18.57126 -5.74 0.22 5000023.9521
19.467180000000003 5.92 0.2 5000025.4453
19.467180000000003 5.9 0.2 5000025.4453
24.53898 -3.3 0.2 5000033.8983
21.64188 -5.62 0.2 5000029.0698
19.467180000000003 5.92 0.18 5000025.4453
19.467180000000003 5.9 0.18 5000025.4453
19.467180000000003 5.92 0.16 5000025.4453
19.467180000000003 5.9 0.16 5000025.4453
19.467180000000003 5.9 0.14 5000025.4453
18.57126 -5.74 0.14 5000023.9521
18.57126 -5.76 0.14 5000023.9521
19.467180000000003 5.9 0.12 5000025.4453
19.467180000000003 5.9 0.1 5000025.4453
19.467180000000003 5.9 0.08 5000025.4453
18.57126 -5.74 0.08 5000023.9521
18.57126 -5.76 0.08 5000023.9521
19.467180000000003 5.9 0.06 5000025.4453
18.57126 -5.74 0.06 5000023.9521
18.57126 -5.76 0.06 5000023.9521
19.467180000000003 5.9 0.04 5000025.4453
18.57126 -5.74 0.04 5000023.9521
18.57126 -5.76 0.04 5000023.9521
19.467180000000003 5.9 0.02 5000025.4453
18.57126 -5.74 0.02 5000023.9521
18.57126 -5.76 0.02 5000023.9521
19.467180000000003 5.9 0.0 5000025.4453
19.467180000000003 5.9 -0.02 5000025.4453
22.97934 -4.04 -0.02 5000031.2989
19.467180000000003 5.9 -0.04 5000025.4453
18.57126 -4.84 -0.04 5000023.9521
19.467180000000003 5.9 -0.06 5000025.4453
18.57126 -5.74 -0.06 5000023.9521
18.57126 -5.76 -0.06 5000023.9521
19.467180000000003 5.9 -0.08 5000025.4453
18.57126 -4.86 -0.08 5000023.9521
18.57126 -5.74 -0.08 5000023.9521
18.57126 -5.76 -0.08 5000023.9521
19.467180000000003 5.9 -0.1 5000025.4453
17.06172 3.14 -0.1 5000021.4362
18.57126 -5.74 -0.1 5000023.9521
19.467180000000003 5.9 -0.12 5000025.4453
17.06172 3.14 -0.12 5000021.4362
19.467180000000003 5.9 -0.14 5000025.4453
19.467180000000003 5.9 -0.16 5000025.4453
19.467180000000003 5.9 -0.18 5000025.4453
19.467180000000003 5.9 -0.2 5000025.4453
19.467180000000003 5.9 -0.22 5000025.4453
19.467180000000003 5.9 -0.24 5000025.4453
21.64188 -6.3 -0.24 5000029.0698
21.64188 -6.32 -0.24 5000029.0698
21.64188 -6.3 -0.26 5000029.0698
21.64188 -6.32 -0.26 5000029.0698
19.467180000000003 5.9 -0.28 5000025.4453
19.467180000000003 -4.84 -0.28 5000025.4453
19.467180000000003 -4.86 -0.28 5000025.4453
18.57126 -5.02 -0.28 5000023.9521
19.467180000000003 -5.82 -0.28 5000025.4453
20.4822 -6.3 -0.28 5000027.137
20.4822 -6.32 -0.28 5000027.137
19.467180000000003 5.9 -0.3 5000025.4453
19.467180000000003 -4.84 -0.3 5000025.4453
19.467180000000003 -4.86 -0.3 5000025.4453
18.57126 -5.02 -0.3 5000023.9521
19.467180000000003 -5.82 -0.3 5000025.4453
19.467180000000003 -5.84 -0.3 5000025.4453
20.4822 -6.3 -0.3 5000027.137
20.4822 -6.32 -0.3 5000027.137
19.467180000000003 5.9 -0.32 5000025.4453
20.4822 -6.32 -0.32 5000027.137
19.467180000000003 5.9 -0.34 5000025.4453
20.4822 -6.32 -0.34 5000027.137
19.467180000000003 5.9 -0.36 5000025.4453
20.4822 -6.32 -0.36 5000027.137
19.467180000000003 5.9 -0.38 5000025.4453
24.53898 -2.6 -0.38 5000033.8983
22.97934 -4.04 -0.38 5000031.2989
19.467180000000003 -5.82 -0.38 5000025.4453
19.467180000000003 -5.84 -0.38 5000025.4453
20.4822 -6.32 -0.38 5000027.137
31.28802 -3.26 -0.4 5000045.1467
24.53898 -3.32 -0.4 5000033.8983
22.97934 -4.0 -0.4 5000031.2989
20.4822 -6.32 -0.4 5000027.137
22.97934 -4.0 -0.42 5000031.2989
20.4822 -6.32 -0.42 5000027.137
22.97934 -4.0 -0.44 5000031.2989
18.57126 -5.02 -0.44 5000023.9521
20.4822 -6.32 -0.44 5000027.137
22.97934 -4.0 -0.46 5000031.2989
18.57126 -5.02 -0.46 5000023.9521
22.97934 -4.0 -0.48 5000031.2989
19.467180000000003 -2.9 -0.52 5000025.4453
19.467180000000003 5.9 -0.54 5000025.4453
34.65684 5.66 -0.54 5000050.7614
19.467180000000003 -2.88 -0.54 5000025.4453
19.467180000000003 -2.9 -0.54 5000025.4453
20.4822 -6.32 -0.54 5000027.137
19.467180000000003 5.9 -0.56 5000025.4453
34.65684 5.66 -0.56 5000050.7614
19.467180000000003 -2.9 -0.56 5000025.4453
18.57126 -5.82 -0.56 5000023.9521
18.57126 -5.84 -0.56 5000023.9521
18.57126 -5.86 -0.56 5000023.9521
20.4822 -6.32 -0.56 5000027.137
19.467180000000003 5.9 -0.58 5000025.4453
20.4822 -6.32 -0.58 5000027.137
19.467180000000003 5.9 -0.6 5000025.4453
19.467180000000003 -2.92 -0.6 5000025.4453
19.467180000000003 5.9 -0.62 5000025.4453
34.65684 5.36 -0.62 5000050.7614
17.06172 -5.2 -0.62 5000021.4362
19.467180000000003 5.9 -0.64 5000025.4453
34.65684 5.62 -0.64 5000050.7614
17.06172 3.2 -0.64 5000021.4362
19.467180000000003 -2.96 -0.64 5000025.4453
17.06172 -5.2 -0.64 5000021.4362
19.467180000000003 5.9 -0.66 5000025.4453
34.65684 5.62 -0.66 5000050.7614
17.06172 3.2 -0.66 5000021.4362
19.467180000000003 -2.96 -0.66 5000025.4453
19.467180000000003 5.9 -0.68 5000025.4453
17.06172 3.2 -0.68 5000021.4362
19.467180000000003 5.9 -0.7 5000025.4453
17.06172 3.2 -0.7 5000021.4362
17.77464 -5.18 -0.7 5000022.6244
16.419959999999996 -5.72 -0.7 5000020.3666
21.64188 -6.32 -0.7 5000029.0698
31.28802 4.5 -0.72 5000045.1467
17.06172 3.2 -0.72 5000021.4362
17.06172 3.1 -0.72 5000021.4362
17.06172 -5.16 -0.72 5000021.4362
16.419959999999996 -5.7 -0.72 5000020.3666
16.419959999999996 -5.72 -0.72 5000020.3666
16.419959999999996 -6.0 -0.72 5000020.3666
21.64188 -6.32 -0.72 5000029.0698
31.28802 4.5 -0.74 5000045.1467
28.590239999999998 4.16 -0.74 5000040.6504
17.06172 3.2 -0.74 5000021.4362
17.06172 3.1 -0.74 5000021.4362
17.06172 -5.16 -0.74 5000021.4362
16.419959999999996 -6.04 -0.74 5000020.3666
15.83916 -6.06 -0.74 5000019.3986
15.83916 -6.08 -0.74 5000019.3986
31.28802 4.5 -0.76 5000045.1467
17.06172 3.2 -0.76 5000021.4362
17.06172 3.1 -0.76 5000021.4362
17.06172 -4.68 -0.76 5000021.4362
17.77464 -5.16 -0.76 5000022.6244
17.77464 -5.18 -0.76 5000022.6244
17.06172 3.2 -0.78 5000021.4362
18.57126 -3.2 -0.78 5000023.9521
17.06172 3.2 -0.8 5000021.4362
17.06172 -4.62 -0.8 5000021.4362
17.77464 -4.64 -0.8 5000022.6244
17.77464 -4.66 -0.8 5000022.6244
17.06172 -6.14 -0.8 5000021.4362
17.06172 -6.16 -0.8 5000021.4362
17.06172 3.2 -0.82 5000021.4362
17.06172 -4.64 -0.82 5000021.4362
17.06172 -4.66 -0.82 5000021.4362
16.419959999999996 -6.14 -0.82 5000020.3666
16.419959999999996 -6.26 -0.82 5000020.3666
17.06172 3.2 -0.84 5000021.4362
16.419959999999996 -6.14 -0.84 5000020.3666
17.06172 3.2 -0.86 5000021.4362
26.38116 2.52 -0.86 5000036.9686
16.419959999999996 -6.14 -0.86 5000020.3666
16.419959999999996 -6.28 -0.86 5000020.3666
16.419959999999996 -6.3 -0.86 5000020.3666
17.06172 3.2 -0.88 5000021.4362
26.38116 2.52 -0.88 5000036.9686
16.419959999999996 -6.14 -0.88 5000020.3666
17.06172 3.2 -0.9 5000021.4362
16.419959999999996 -6.14 -0.9 5000020.3666
21.64188 -3.72 -0.92 5000029.0698
21.64188 -3.72 -0.94 5000029.0698
16.419959999999996 -6.34 -0.94 5000020.3666
16.419959999999996 -6.36 -0.94 5000020.3666
17.77464 -4.22 -0.96 5000022.6244
17.77464 -4.4 -0.96 5000022.6244
16.419959999999996 -6.32 -0.96 5000020.3666
16.419959999999996 -6.34 -0.96 5000020.3666
16.419959999999996 -6.4 -0.96 5000020.3666
17.06172 -6.42 -0.96 5000021.4362
17.77464 -4.44 -0.98 5000022.6244
17.77464 -5.56 -0.98 5000022.6244
17.77464 -4.16 -1.0 5000022.6244
17.77464 -4.18 -1.0 5000022.6244
17.06172 -4.44 -1.0 5000021.4362
17.06172 -4.46 -1.0 5000021.4362
17.06172 -5.54 -1.0 5000021.4362
16.419959999999996 -5.82 -1.0 5000020.3666
16.419959999999996 -5.84 -1.0 5000020.3666
15.83916 -5.92 -1.0 5000019.3986
15.83916 -5.94 -1.0 5000019.3986
17.77464 -4.16 -1.02 5000022.6244
16.419959999999996 -5.84 -1.02 5000020.3666
16.419959999999996 -5.86 -1.02 5000020.3666
15.83916 -5.94 -1.02 5000019.3986
16.419959999999996 -6.46 -1.02 5000020.3666
17.77464 -4.14 -1.04 5000022.6244
17.77464 -4.16 -1.04 5000022.6244
17.06172 -4.48 -1.04 5000021.4362
17.06172 -5.52 -1.04 5000021.4362
16.419959999999996 -5.86 -1.04 5000020.3666
16.419959999999996 -6.44 -1.04 5000020.3666
16.419959999999996 -6.46 -1.04 5000020.3666
17.06172 -5.48 -1.06 5000021.4362
17.06172 -5.5 -1.06 5000021.4362
17.06172 -5.52 -1.06 5000021.4362
18.57126 -2.72 -1.08 5000023.9521
17.77464 -4.14 -1.08 5000022.6244
17.77464 -4.26 -1.08 5000022.6244
17.77464 -4.28 -1.08 5000022.6244
17.06172 -4.48 -1.08 5000021.4362
17.06172 -4.5 -1.08 5000021.4362
16.419959999999996 -5.66 -1.08 5000020.3666
16.419959999999996 -5.68 -1.08 5000020.3666
16.419959999999996 -5.88 -1.08 5000020.3666
16.419959999999996 -5.9 -1.08 5000020.3666
18.57126 -2.72 -1.1 5000023.9521
17.77464 -4.14 -1.1 5000022.6244
17.77464 -4.42 -1.1 5000022.6244
17.06172 -4.5 -1.1 5000021.4362
17.06172 -5.48 -1.1 5000021.4362
17.06172 -5.5 -1.1 5000021.4362
16.419959999999996 -5.64 -1.1 5000020.3666
17.77464 -4.2 -1.12 5000022.6244
17.77464 -4.42 -1.12 5000022.6244
17.77464 -4.44 -1.12 5000022.6244
17.06172 -5.48 -1.12 5000021.4362
17.06172 -5.5 -1.12 5000021.4362
16.419959999999996 -5.74 -1.12 5000020.3666
16.419959999999996 -5.9 -1.12 5000020.3666
19.467180000000003 -2.68 -1.14 5000025.4453
17.77464 -4.2 -1.14 5000022.6244
17.06172 -5.48 -1.14 5000021.4362
17.06172 -5.56 -1.14 5000021.4362
17.06172 -5.58 -1.14 5000021.4362
16.419959999999996 -5.8 -1.14 5000020.3666
16.419959999999996 -5.82 -1.14 5000020.3666
17.06172 -5.56 -1.16 5000021.4362
16.419959999999996 -5.8 -1.16 5000020.3666
16.419959999999996 -5.82 -1.16 5000020.3666
16.419959999999996 -5.84 -1.16 5000020.3666
17.06172 -6.38 -1.16 5000021.4362
22.97934 -4.28 -1.18 5000031.2989
17.77464 -4.38 -1.2 5000022.6244
17.77464 -4.4 -1.2 5000022.6244
16.419959999999996 -5.56 -1.2 5000020.3666
16.419959999999996 -5.58 -1.2 5000020.3666
17.77464 -4.38 -1.22 5000022.6244
16.419959999999996 -5.58 -1.22 5000020.3666
16.419959999999996 -5.6 -1.24 5000020.3666
17.06172 -5.76 -1.24 5000021.4362
17.06172 -5.78 -1.24 5000021.4362
17.06172 -5.8 -1.24 5000021.4362
17.77464 -6.04 -1.24 5000022.6244
17.77464 -6.06 -1.24 5000022.6244
17.06172 -5.74 -1.26 5000021.4362
17.06172 -5.76 -1.26 5000021.4362
17.06172 -5.78 -1.26 5000021.4362
17.77464 -6.04 -1.26 5000022.6244
16.419959999999996 2.86 -1.32 5000020.3666
14.82888 2.16 -1.44 5000017.7148
12.63288 -4.4 -1.66 5000014.0548
12.63288 -4.42 -1.66 5000014.0548
12.63288 -4.44 -1.66 5000014.0548
12.08952 2.2 -1.76 5000013.1492
11.61198 -5.36 -1.84 5000012.3533
11.61198 -5.38 -1.84 5000012.3533
11.61198 2.26 -1.86 5000012.3533
10.995 -6.48 -1.92 5000011.325
10.995 -6.5 -1.92 5000011.325
10.995 -6.52 -1.92 5000011.325
10.811580000000001 -6.54 -1.92 5000011.0193
11.18892 5.6 -1.96 5000011.6482
10.995 5.42 -1.98 5000011.325
11.18892 5.28 -1.98 5000011.6482
11.18892 5.26 -1.98 5000011.6482
11.18892 5.24 -2.0 5000011.6482
10.811580000000001 5.0 -2.02 5000011.0193
10.995 4.74 -2.04 5000011.325
10.811580000000001 4.58 -2.06 5000011.0193
10.811580000000001 4.32 -2.08 5000011.0193
10.637759999999998 4.16 -2.1 5000010.7296
10.637759999999998 4.14 -2.1 5000010.7296
10.472879999999998 3.9 -2.12 5000010.4548
10.316220000000001 3.44 -2.16 5000010.1937
10.316220000000001 3.42 -2.16 5000010.1937
10.316220000000001 3.16 -2.18 5000010.1937
9.760704 3.54 -2.3 5000009.26784
9.760704 3.54 -2.32 5000009.26784
9.760704 3.52 -2.32 5000009.26784
9.637241999999999 4.5 -2.38 5000009.06207
9.637241999999999 5.0 -2.42 5000009.06207
9.51915 2.72 -2.42 5000008.86525
9.51915 5.16 -2.44 5000008.86525
9.51915 2.72 -2.44 5000008.86525
9.51915 2.7 -2.44 5000008.86525
9.193757999999999 2.78 -2.52 5000008.32293
9.193757999999999 2.8 -2.54 5000008.32293
9.193757999999999 2.78 -2.54 5000008.32293
9.193757999999999 5.88 -2.56 5000008.32293
9.193757999999999 5.88 -2.58 5000008.32293
8.99808 2.84 -2.6 5000007.9968
8.99808 2.88 -2.64 5000007.9968
8.99808 2.88 -2.66 5000007.9968
8.99808 2.86 -2.66 5000007.9968
9.093966 2.84 -2.66 5000008.15661
9.093966 2.82 -2.66 5000008.15661
9.093966 2.8 -2.66 5000008.15661
8.99808 2.78 -2.66 5000007.9968
8.99808 2.76 -2.66 5000007.9968
8.99808 2.78 -2.68 5000007.9968
8.99808 2.76 -2.68 5000007.9968
8.731722000000001 2.74 -2.68 5000007.55287
8.27886 3.14 -2.98 5000006.7981
8.569992 3.1 -2.98 5000007.28332
8.27886 3.18 -3.02 5000006.7981
8.147369999999999 3.2 -3.06 5000006.57895
8.147369999999999 3.22 -3.08 5000006.57895
8.084754 3.28 -3.14 5000006.47459
7.965294 3.3 -3.18 5000006.27549
7.965294 3.32 -3.2 5000006.27549
7.747145999999999 3.42 -3.32 5000005.91191
7.747145999999999 3.44 -3.34 5000005.91191
7.747145999999999 3.42 -3.34 5000005.91191
7.747145999999999 3.46 -3.36 5000005.91191
7.747145999999999 3.44 -3.36 5000005.91191
7.6472880000000005 3.46 -3.42 5000005.74548
7.6472880000000005 3.44 -3.42 5000005.74548
7.6472880000000005 3.42 -3.42 5000005.74548
7.696506 3.3 -3.42 5000005.82751
7.6472880000000005 3.48 -3.44 5000005.74548
7.6472880000000005 3.46 -3.44 5000005.74548
7.6472880000000005 3.44 -3.44 5000005.74548
7.6472880000000005 3.42 -3.44 5000005.74548
7.6472880000000005 3.4 -3.44 5000005.74548
7.6472880000000005 3.38 -3.44 5000005.74548
7.6472880000000005 3.36 -3.44 5000005.74548
7.298376 0.54 -3.66 5000005.16396
7.079772 3.72 -4.0 5000004.79962
7.046298 4.0 -4.02 5000004.74383
7.046298 3.98 -4.02 5000004.74383
7.046298 3.9 -4.02 5000004.74383
7.114037999999999 3.84 -4.02 5000004.85673
7.114037999999999 3.82 -4.02 5000004.85673
7.114037999999999 3.8 -4.02 5000004.85673
7.114037999999999 3.78 -4.02 5000004.85673
7.079772 3.72 -4.02 5000004.79962
7.046298 3.7 -4.02 5000004.74383
7.046298 3.68 -4.02 5000004.74383
7.046298 3.66 -4.02 5000004.74383
7.046298 4.0 -4.04 5000004.74383
7.046298 3.98 -4.04 5000004.74383
7.046298 3.96 -4.04 5000004.74383
7.046298 3.94 -4.04 5000004.74383
7.114037999999999 3.86 -4.04 5000004.85673
7.114037999999999 3.84 -4.04 5000004.85673
7.079772 4.08 -4.08 5000004.79962
6.9504 -2.94 -4.18 5000004.584
6.919854 4.12 -4.24 5000004.53309
6.919854 4.26 -4.26 5000004.53309
6.919854 4.24 -4.26 5000004.53309
6.919854 4.08 -4.26 5000004.53309
6.919854 4.26 -4.28 5000004.53309
6.804168 4.36 -4.4 5000004.34028
6.804168 4.4 -4.42 5000004.34028
6.804168 4.38 -4.42 5000004.34028
6.804168 4.36 -4.42 5000004.34028
6.804168 4.34 -4.42 5000004.34028
6.804168 4.34 -4.44 5000004.34028
6.7499340000000005 4.3 -4.44 5000004.24989
6.7499340000000005 4.28 -4.44 5000004.24989
6.7499340000000005 4.26 -4.44 5000004.24989
6.7499340000000005 4.24 -4.44 5000004.24989
6.7499340000000005 4.22 -4.44 5000004.24989
6.647982 4.48 -4.56 5000004.07997
6.647982 4.36 -4.58 5000004.07997
6.647982 4.8 -4.86 5000004.07997
6.623754 4.8 -4.88 5000004.03959
6.672695999999999 4.5 -4.88 5000004.12116
6.672695999999999 4.48 -4.88 5000004.12116
6.623754 4.84 -4.9 5000004.03959
6.623754 4.82 -4.9 5000004.03959
6.623754 4.8 -4.9 5000004.03959
6.623754 4.78 -4.9 5000004.03959
6.623754 4.68 -4.9 5000004.03959
6.623754 4.58 -4.9 5000004.03959
6.623754 4.56 -4.9 5000004.03959
6.623754 4.84 -4.92 5000004.03959
6.623754 4.8 -4.92 5000004.03959
6.623754 4.78 -4.92 5000004.03959
6.623754 4.72 -4.92 5000004.03959
6.623754 4.7 -4.92 5000004.03959
6.623754 4.68 -4.92 5000004.03959
6.623754 4.66 -4.92 5000004.03959
6.623754 4.62 -4.92 5000004.03959
6.623754 4.58 -4.92 5000004.03959
6.623754 4.56 -4.92 5000004.03959
7997
11.447982 4.36 -4.58 5000004.07997
11.447982 4.8 -4.86 5000004.07997
11.423754 4.8 -4.88 5000004.03959
11.472696000000001 4.5 -4.88 5000004.12116
11.472696000000001 4.48 -4.88 5000004.12116
11.423754 4.84 -4.9 5000004.03959
11.423754 4.82 -4.9 5000004.03959
11.423754 4.8 -4.9 5000004.03959
11.423754 4.78 -4.9 5000004.03959
11.423754 4.68 -4.9 5000004.03959
11.423754 4.58 -4.9 5000004.03959
11.423754 4.56 -4.9 5000004.03959
11.423754 4.84 -4.92 5000004.03959
11.423754 4.8 -4.92 5000004.03959
11.423754 4.78 -4.92 5000004.03959
11.423754 4.72 -4.92 5000004.03959
11.423754 4.7 -4.92 5000004.03959
11.423754 4.68 -4.92 5000004.03959
11.423754 4.66 -4.92 5000004.03959
11.423754 4.62 -4.92 5000004.03959
11.423754 4.58 -4.92 5000004.03959
11.423754 4.56 -4.92 5000004.03959
.03959
7.615836 4.58 -4.92 5000004.03959
7.615836 4.56 -4.92 5000004.03959
8
11.50489 0.8333333333333334 2.1333333333333333 5000045.1467
10.71454 -1.3333333333333333 2.1333333333333333 5000021.4362
10.71454 -1.5 2.1333333333333333 5000021.4362
10.71454 -15.266666666666667 2.1333333333333333 5000021.4362
10.678886666666667 -16.166666666666668 2.1333333333333333 5000020.3666
10.678886666666667 -16.2 2.1333333333333333 5000020.3666
10.678886666666667 -16.666666666666668 2.1333333333333333 5000020.3666
10.968993333333334 -17.2 2.1333333333333333 5000029.0698
11.50489 0.8333333333333334 2.1 5000045.1467
11.355013333333334 0.26666666666666666 2.1 5000040.6504
10.71454 -1.3333333333333333 2.1 5000021.4362
10.71454 -1.5 2.1 5000021.4362
10.71454 -15.266666666666667 2.1 5000021.4362
10.678886666666667 -16.733333333333334 2.1 5000020.3666
10.64662 -16.766666666666666 2.1 5000019.3986
10.64662 -16.8 2.1 5000019.3986
11.50489 0.8333333333333334 2.066666666666667 5000045.1467
10.71454 -1.3333333333333333 2.066666666666667 5000021.4362
10.71454 -1.5 2.066666666666667 5000021.4362
10.71454 -14.466666666666667 2.066666666666667 5000021.4362
10.754146666666667 -15.266666666666667 2.066666666666667 5000022.6244
10.754146666666667 -15.3 2.066666666666667 5000022.6244
10.71454 -1.3333333333333333 2.033333333333333 5000021.4362
10.798403333333333 -12.0 2.033333333333333 5000023.9521
10.71454 -1.3333333333333333 2.0 5000021.4362
10.71454 -14.366666666666667 2.0 5000021.4362
10.754146666666667 -14.4 2.0 5000022.6244
10.754146666666667 -14.433333333333334 2.0 5000022.6244
10.71454 -16.9 2.0 5000021.4362
10.71454 -16.933333333333334 2.0 5000021.4362
10.71454 -1.3333333333333333 1.9666666666666666 5000021.4362
10.71454 -14.4 1.9666666666666666 5000021.4362
10.71454 -14.433333333333334 1.9666666666666666 5000021.4362
10.678886666666667 -16.9 1.9666666666666666 5000020.3666
10.678886666666667 -17.1 1.9666666666666666 5000020.3666
10.71454 -1.3333333333333333 1.9333333333333333 5000021.4362
10.678886666666667 -16.9 1.9333333333333333 5000020.3666
10.71454 -1.3333333333333333 1.9 5000021.4362
11.232286666666667 -2.466666666666667 1.9 5000036.9686
10.678886666666667 -16.9 1.9 5000020.3666
10.678886666666667 -17.133333333333333 1.9 5000020.3666
10.678886666666667 -17.166666666666668 1.9 5000020.3666
10.71454 -1.3333333333333333 1.8666666666666667 5000021.4362
11.232286666666667 -2.466666666666667 1.8666666666666667 5000036.9686
10.678886666666667 -16.9 1.8666666666666667 5000020.3666
10.71454 -1.3333333333333333 1.8333333333333333 5000021.4362
10.678886666666667 -16.9 1.8333333333333333 5000020.3666
10.968993333333334 -12.866666666666667 1.8 5000029.0698
10.968993333333334 -12.866666666666667 1.7666666666666666 5000029.0698
10.678886666666667 -17.233333333333334 1.7666666666666666 5000020.3666
10.678886666666667 -17.266666666666666 1.7666666666666666 5000020.3666
10.754146666666667 -13.7 1.7333333333333334 5000022.6244
10.754146666666667 -14.0 1.7333333333333334 5000022.6244
10.678886666666667 -17.2 1.7333333333333334 5000020.3666
10.678886666666667 -17.233333333333334 1.7333333333333334 5000020.3666
10.678886666666667 -17.333333333333332 1.7333333333333334 5000020.3666
10.71454 -17.366666666666667 1.7333333333333334 5000021.4362
10.754146666666667 -14.066666666666666 1.7 5000022.6244
10.754146666666667 -15.933333333333334 1.7 5000022.6244
10.754146666666667 -13.6 1.6666666666666667 5000022.6244
10.754146666666667 -13.633333333333333 1.6666666666666667 5000022.6244
10.71454 -14.066666666666666 1.6666666666666667 5000021.4362
10.71454 -14.1 1.6666666666666667 5000021.4362
10.71454 -15.9 1.6666666666666667 5000021.4362
10.678886666666667 -16.366666666666667 1.6666666666666667 5000020.3666
10.678886666666667 -16.4 1.6666666666666667 5000020.3666
10.64662 -16.533333333333335 1.6666666666666667 5000019.3986
10.64662 -16.566666666666666 1.6666666666666667 5000019.3986
10.754146666666667 -13.6 1.6333333333333333 5000022.6244
10.678886666666667 -16.4 1.6333333333333333 5000020.3666
10.678886666666667 -16.433333333333334 1.6333333333333333 5000020.3666
10.64662 -16.566666666666666 1.6333333333333333 5000019.3986
10.678886666666667 -17.433333333333334 1.6333333333333333 5000020.3666
10.754146666666667 -13.566666666666666 1.6 5000022.6244
10.754146666666667 -13.6 1.6 5000022.6244
10.71454 -14.133333333333333 1.6 5000021.4362
10.71454 -15.866666666666667 1.6 5000021.4362
10.678886666666667 -16.433333333333334 1.6 5000020.3666
10.678886666666667 -17.4 1.6 5000020.3666
10.678886666666667 -17.433333333333334 1.6 5000020.3666
10.71454 -15.8 1.5666666666666667 5000021.4362
10.71454 -15.833333333333334 1.5666666666666667 5000021.4362
10.71454 -15.866666666666667 1.5666666666666667 5000021.4362
10.798403333333333 -11.2 1.5333333333333334 5000023.9521
10.754146666666667 -13.566666666666666 1.5333333333333334 5000022.6244
10.754146666666667 -13.766666666666667 1.5333333333333334 5000022.6244
10.754146666666667 -13.8 1.5333333333333334 5000022.6244
10.71454 -14.133333333333333 1.5333333333333334 5000021.4362
10.71454 -14.166666666666666 1.5333333333333334 5000021.4362
10.678886666666667 -16.1 1.5333333333333334 5000020.3666
10.678886666666667 -16.133333333333333 1.5333333333333334 5000020.3666
10.678886666666667 -16.466666666666665 1.5333333333333334 5000020.3666
10.678886666666667 -16.5 1.5333333333333334 5000020.3666
10.798403333333333 -11.2 1.5 5000023.9521
10.754146666666667 -13.566666666666666 1.5 5000022.6244
10.754146666666667 -14.033333333333333 1.5 5000022.6244
10.71454 -14.166666666666666 1.5 5000021.4362
10.71454 -15.8 1.5 5000021.4362
10.71454 -15.833333333333334 1.5 5000021.4362
10.678886666666667 -16.066666666666666 1.5 5000020.3666
10.754146666666667 -13.666666666666666 1.4666666666666666 5000022.6244
10.754146666666667 -14.033333333333333 1.4666666666666666 5000022.6244
10.754146666666667 -14.066666666666666 1.4666666666666666 5000022.6244
10.71454 -15.8 1.4666666666666666 5000021.4362
10.71454 -15.833333333333334 1.4666666666666666 5000021.4362
10.678886666666667 -16.233333333333334 1.4666666666666666 5000020.3666
10.678886666666667 -16.5 1.4666666666666666 5000020.3666
10.848176666666667 -11.133333333333333 1.4333333333333333 5000025.4453
10.754146666666667 -13.666666666666666 1.4333333333333333 5000022.6244
10.71454 -15.8 1.4333333333333333 5000021.4362
10.71454 -15.933333333333334 1.4333333333333333 5000021.4362
10.71454 -15.966666666666667 1.4333333333333333 5000021.4362
10.678886666666667 -16.333333333333332 1.4333333333333333 5000020.3666
10.678886666666667 -16.366666666666667 1.4333333333333333 5000020.3666
10.71454 -15.933333333333334 1.4 5000021.4362
10.678886666666667 -16.333333333333332 1.4 5000020.3666
10.678886666666667 -16.366666666666667 1.4 5000020.3666
10.678886666666667 -16.4 1.4 5000020.3666
10.71454 -17.3 1.4 5000021.4362
11.043296666666667 -13.8 1.3666666666666667 5000031.2989
10.754146666666667 -13.966666666666667 1.3333333333333333 5000022.6244
10.754146666666667 -14.0 1.3333333333333333 5000022.6244
10.678886666666667 -15.933333333333334 1.3333333333333333 5000020.3666
10.678886666666667 -15.966666666666667 1.3333333333333333 5000020.3666
10.754146666666667 -13.966666666666667 1.3 5000022.6244
10.678886666666667 -15.966666666666667 1.3 5000020.3666
10.678886666666667 -16.0 1.2666666666666666 5000020.3666
10.71454 -16.266666666666666 1.2666666666666666 5000021.4362
10.71454 -16.3 1.2666666666666666 5000021.4362
10.71454 -16.333333333333332 1.2666666666666666 5000021.4362
10.754146666666667 -16.733333333333334 1.2666666666666666 5000022.6244
10.754146666666667 -16.766666666666666 1.2666666666666666 5000022.6244
10.71454 -16.233333333333334 1.2333333333333334 5000021.4362
10.71454 -16.266666666666666 1.2333333333333334 5000021.4362
10.71454 -16.3 1.2333333333333334 5000021.4362
10.754146666666667 -16.733333333333334 1.2333333333333334 5000022.6244
10.678886666666667 -1.9 1.1333333333333333 5000020.3666
10.590493333333333 -3.066666666666667 0.9333333333333333 5000017.7148
10.468493333333333 -14.0 0.5666666666666667 5000014.0548
10.468493333333333 -14.033333333333333 0.5666666666666667 5000014.0548
10.468493333333333 -14.066666666666666 0.5666666666666667 5000014.0548
10.438306666666668 -3.0 0.4 5000013.1492
10.411776666666666 -15.6 0.26666666666666666 5000012.3533
10.411776666666666 -15.633333333333333 0.26666666666666666 5000012.3533
10.411776666666666 -2.9 0.23333333333333334 5000012.3533
10.3775 -17.466666666666665 0.13333333333333333 5000011.325
10.3775 -17.5 0.13333333333333333 5000011.325
10.3775 -17.533333333333335 0.13333333333333333 5000011.325
10.36731 -17.566666666666666 0.13333333333333333 5000011.0193
10.388273333333334 2.6666666666666665 0.06666666666666667 5000011.6482
10.3775 2.3666666666666667 0.03333333333333333 5000011.325
10.388273333333334 2.1333333333333333 0.03333333333333333 5000011.6482
10.388273333333334 2.1 0.03333333333333333 5000011.6482
10.388273333333334 2.066666666666667 0.0 5000011.6482
10.36731 1.6666666666666667 -0.03333333333333333 5000011.0193
10.3775 1.2333333333333334 -0.06666666666666667 5000011.325
10.36731 0.9666666666666667 -0.1 5000011.0193
10.36731 0.5333333333333333 -0.13333333333333333 5000011.0193
10.357653333333333 0.26666666666666666 -0.16666666666666666 5000010.7296
10.357653333333333 0.23333333333333334 -0.16666666666666666 5000010.7296
10.348493333333334 -0.16666666666666666 -0.2 5000010.4548
10.33979 -0.9333333333333333 -0.26666666666666666 5000010.1937
10.33979 -0.9666666666666667 -0.26666666666666666 5000010.1937
10.33979 -1.4 -0.3 5000010.1937
10.308928 -0.7666666666666667 -0.5 5000009.26784
10.308928 -0.7666666666666667 -0.5333333333333333 5000009.26784
10.308928 -0.8 -0.5333333333333333 5000009.26784
10.302069 0.8333333333333334 -0.6333333333333333 5000009.06207
10.302069 1.6666666666666667 -0.7 5000009.06207
10.295508333333334 -2.1333333333333333 -0.7 5000008.86525
10.295508333333334 1.9333333333333333 -0.7333333333333333 5000008.86525
10.295508333333334 -2.1333333333333333 -0.7333333333333333 5000008.86525
10.295508333333334 -2.1666666666666665 -0.7333333333333333 5000008.86525
10.277431 -2.033333333333333 -0.8666666666666667 5000008.32293
10.277431 -2.0 -0.9 5000008.32293
10.277431 -2.033333333333333 -0.9 5000008.32293
10.277431 3.1333333333333333 -0.9333333333333333 5000008.32293
10.277431 3.1333333333333333 -0.9666666666666667 5000008.32293
10.26656 -1.9333333333333333 -1.0 5000007.9968
10.26656 -1.8666666666666667 -1.0666666666666667 5000007.9968
10.26656 -1.8666666666666667 -1.1 5000007.9968
10.26656 -1.9 -1.1 5000007.9968
10.271887 -1.9333333333333333 -1.1 5000008.15661
10.271887 -1.9666666666666666 -1.1 5000008.15661
10.271887 -2.0 -1.1 5000008.15661
10.26656 -2.033333333333333 -1.1 5000007.9968
10.26656 -2.066666666666667 -1.1 5000007.9968
10.26656 -2.033333333333333 -1.1333333333333333 5000007.9968
10.26656 -2.066666666666667 -1.1333333333333333 5000007.9968
10.251762333333334 -2.1 -1.1333333333333333 5000007.55287
10.226603333333333 -1.4333333333333333 -1.6333333333333333 5000006.7981
10.242777333333333 -1.5 -1.6333333333333333 5000007.28332
10.226603333333333 -1.3666666666666667 -1.7 5000006.7981
10.219298333333333 -1.3333333333333333 -1.7666666666666666 5000006.57895
10.219298333333333 -1.3 -1.8 5000006.57895
10.215819666666667 -1.2 -1.9 5000006.47459
10.209183 -1.1666666666666667 -1.9666666666666666 5000006.27549
10.209183 -1.1333333333333333 -2.0 5000006.27549
10.197063666666667 -0.9666666666666667 -2.2 5000005.91191
10.197063666666667 -0.9333333333333333 -2.2333333333333334 5000005.91191
10.197063666666667 -0.9666666666666667 -2.2333333333333334 5000005.91191
10.197063666666667 -0.9 -2.2666666666666666 5000005.91191
10.197063666666667 -0.9333333333333333 -2.2666666666666666 5000005.91191
10.191516 -0.9 -2.3666666666666667 5000005.74548
10.191516 -0.9333333333333333 -2.3666666666666667 5000005.74548
10.191516 -0.9666666666666667 -2.3666666666666667 5000005.74548
10.194250333333333 -1.1666666666666667 -2.3666666666666667 5000005.82751
10.191516 -0.8666666666666667 -2.4 5000005.74548
10.191516 -0.9 -2.4 5000005.74548
10.191516 -0.9333333333333333 -2.4 5000005.74548
10.191516 -0.9666666666666667 -2.4 5000005.74548
10.191516 -1.0 -2.4 5000005.74548
10.191516 -1.0333333333333334 -2.4 5000005.74548
10.191516 -1.0666666666666667 -2.4 5000005.74548
10.172132 -5.766666666666667 -2.7666666666666666 5000005.16396
10.159987333333333 -0.4666666666666667 -3.3333333333333335 5000004.79962
10.158127666666667 0.0 -3.3666666666666667 5000004.74383
10.158127666666667 -0.03333333333333333 -3.3666666666666667 5000004.74383
10.158127666666667 -0.16666666666666666 -3.3666666666666667 5000004.74383
10.161891 -0.26666666666666666 -3.3666666666666667 5000004.85673
10.161891 -0.3 -3.3666666666666667 5000004.85673
10.161891 -0.3333333333333333 -3.3666666666666667 5000004.85673
10.161891 -0.36666666666666664 -3.3666666666666667 5000004.85673
10.159987333333333 -0.4666666666666667 -3.3666666666666667 5000004.79962
10.158127666666667 -0.5 -3.3666666666666667 5000004.74383
10.158127666666667 -0.5333333333333333 -3.3666666666666667 5000004.74383
10.158127666666667 -0.5666666666666667 -3.3666666666666667 5000004.74383
10.158127666666667 0.0 -3.4 5000004.74383
10.158127666666667 -0.03333333333333333 -3.4 5000004.74383
10.158127666666667 -0.06666666666666667 -3.4 5000004.74383
10.158127666666667 -0.1 -3.4 5000004.74383
10.161891 -0.23333333333333334 -3.4 5000004.85673
10.161891 -0.26666666666666666 -3.4 5000004.85673
10.159987333333333 0.13333333333333333 -3.466666666666667 5000004.79962
10.1528 -11.566666666666666 -3.6333333333333333 5000004.584
10.151102999999999 0.2 -3.7333333333333334 5000004.53309
10.151102999999999 0.43333333333333335 -3.7666666666666666 5000004.53309
10.151102999999999 0.4 -3.7666666666666666 5000004.53309
10.151102999999999 0.13333333333333333 -3.7666666666666666 5000004.53309
10.151102999999999 0.43333333333333335 -3.8 5000004.53309
10.144676 0.6 -4.0 5000004.34028
10.144676 0.6666666666666666 -4.033333333333333 5000004.34028
10.144676 0.6333333333333333 -4.033333333333333 5000004.34028
10.144676 0.6 -4.033333333333333 5000004.34028
10.144676 0.5666666666666667 -4.033333333333333 5000004.34028
10.144676 0.5666666666666667 -4.066666666666666 5000004.34028
10.141663 0.5 -4.066666666666666 5000004.24989
10.141663 0.4666666666666667 -4.066666666666666 5000004.24989
10.141663 0.43333333333333335 -4.066666666666666 5000004.24989
10.141663 0.4 -4.066666666666666 5000004.24989
10.141663 0.36666666666666664 -4.066666666666666 5000004.24989
10.135999 0.8 -4.266666666666667 5000004.07997
10.135999 0.6 -4.3 5000004.07997
10.135999 1.3333333333333333 -4.766666666666667 5000004.07997
10.134653 1.3333333333333333 -4.8 5000004.03959
10.137372 0.8333333333333334 -4.8 5000004.12116
10.137372 0.8 -4.8 5000004.12116
10.134653 1.4 -4.833333333333333 5000004.03959
10.134653 1.3666666666666667 -4.833333333333333 5000004.03959
10.134653 1.3333333333333333 -4.833333333333333 5000004.03959
10.134653 1.3 -4.833333333333333 5000004.03959
10.134653 1.1333333333333333 -4.833333333333333 5000004.03959
10.134653 0.9666666666666667 -4.833333333333333 5000004.03959
10.134653 0.9333333333333333 -4.833333333333333 5000004.03959
10.134653 1.4 -4.866666666666666 5000004.03959
10.134653 1.3333333333333333 -4.866666666666666 5000004.03959
10.134653 1.3 -4.866666666666666 5000004.03959
10.134653 1.2 -4.866666666666666 5000004.03959
10.134653 1.1666666666666667 -4.866666666666666 5000004.03959
10.134653 1.1333333333333333 -4.866666666666666 5000004.03959
10.134653 1.1 -4.866666666666666 5000004.03959
10.134653 1.0333333333333334 -4.866666666666666 5000004.03959
10.134653 0.9666666666666667 -4.866666666666666 5000004.03959
10.134653 0.9333333333333333 -4.866666666666666 5000004.03959
6 5000004.03959
10.134653 -2.1333333333333333 -4.866666666666666 5000004.03959
10.134653 -2.1666666666666665 -4.866666666666666 5000004.03959
10.134653 -2.2 -4.866666666666666 5000004.03959
10.134653 -2.2333333333333334 -4.866666666666666 5000004.03959
10.134653 -2.3 -4.866666666666666 5000004.03959
10.134653 -2.3666666666666667 -4.866666666666666 5000004.03959
10.134653 -2.4 -4.866666666666666 5000004.03959
83
4.158127666666667 4.1 -3.4000000000000004 5000004.74383
4.158127666666667 4.066666666666666 -3.4000000000000004 5000004.74383
4.161891 3.933333333333333 -3.4000000000000004 5000004.85673
4.161891 3.9 -3.4000000000000004 5000004.85673
4.1599873333333335 4.3 -3.466666666666667 5000004.79962
4.1528 -7.4 -3.633333333333333 5000004.584
4.151103 4.366666666666667 -3.7333333333333325 5000004.53309
4.151103 4.6 -3.7666666666666675 5000004.53309
4.151103 4.566666666666666 -3.7666666666666675 5000004.53309
4.151103 4.3 -3.7666666666666675 5000004.53309
4.151103 4.6 -3.8000000000000007 5000004.53309
4.144676 4.766666666666667 -4.0 5000004.34028
4.144676 4.833333333333334 -4.033333333333333 5000004.34028
4.144676 4.8 -4.033333333333333 5000004.34028
4.144676 4.766666666666667 -4.033333333333333 5000004.34028
4.144676 4.733333333333333 -4.033333333333333 5000004.34028
4.144676 4.733333333333333 -4.066666666666666 5000004.34028
4.141663 4.666666666666666 -4.066666666666666 5000004.24989
4.141663 4.633333333333333 -4.066666666666666 5000004.24989
4.141663 4.6 -4.066666666666666 5000004.24989
4.141663 4.566666666666666 -4.066666666666666 5000004.24989
4.141663 4.533333333333333 -4.066666666666666 5000004.24989
4.135999 4.966666666666667 -4.2666666666666675 5000004.07997
4.135999 4.766666666666667 -4.300000000000001 5000004.07997
4.135999 5.5 -4.7666666666666675 5000004.07997
4.134653 5.5 -4.800000000000001 5000004.03959
4.137372 5.0 -4.800000000000001 5000004.12116
4.137372 4.966666666666667 -4.800000000000001 5000004.12116
4.134653 5.566666666666666 -4.833333333333334 5000004.03959
4.134653 5.533333333333333 -4.833333333333334 5000004.03959
4.134653 5.5 -4.833333333333334 5000004.03959
4.134653 5.466666666666667 -4.833333333333334 5000004.03959
4.134653 5.3 -4.833333333333334 5000004.03959
4.134653 5.133333333333333 -4.833333333333334 5000004.03959
4.134653 5.1 -4.833333333333334 5000004.03959
4.134653 5.566666666666666 -4.866666666666667 5000004.03959
4.134653 5.5 -4.866666666666667 5000004.03959
4.134653 5.466666666666667 -4.866666666666667 5000004.03959
4.134653 5.366666666666667 -4.866666666666667 5000004.03959
4.134653 5.333333333333334 -4.866666666666667 5000004.03959
4.134653 5.3 -4.866666666666667 5000004.03959
4.134653 5.266666666666667 -4.866666666666667 5000004.03959
4.134653 5.2 -4.866666666666667 5000004.03959
4.134653 5.133333333333333 -4.866666666666667 5000004.03959
4.134653 5.1 -4.866666666666667 5000004.03959
