VERSION .7
FIELDS x y z rgb
SIZE 4 4 4 4
TYPE F F F F
COUNT 1 1 1 1
WIDTH 1236
HEIGHT 1
VIEWPOINT 0 0 0 1 0 0 0
POINTS 1236
DATA ascii
16.419959999999996 3.54 0.82 20.3666
16.419959999999996 3.4 0.82 20.3666
16.419959999999996 3.24 0.82 20.3666
19.467180000000003 -4.94 0.82 25.4453
19.467180000000003 -4.96 0.82 25.4453
20.4822 -6.46 0.82 27.137
16.419959999999996 3.4 0.8 20.3666
16.419959999999996 3.24 0.8 20.3666
18.57126 -5.12 0.8 23.9521
20.4822 -6.46 0.8 27.137
16.419959999999996 3.4 0.78 20.3666
16.419959999999996 3.24 0.78 20.3666
24.53898 -2.7 0.78 33.8983
20.4822 -6.46 0.78 27.137
16.419959999999996 3.4 0.76 20.3666
16.419959999999996 3.24 0.76 20.3666
18.57126 -4.94 0.76 23.9521
18.57126 -5.12 0.76 23.9521
18.57126 -5.14 0.76 23.9521
21.64188 -6.32 0.76 29.0698
20.4822 -6.46 0.76 27.137
16.419959999999996 3.54 0.74 20.3666
16.419959999999996 3.4 0.74 20.3666
16.419959999999996 3.24 0.74 20.3666
18.57126 -4.94 0.74 23.9521
21.64188 -6.32 0.74 29.0698
20.4822 -6.46 0.74 27.137
16.419959999999996 3.4 0.72 20.3666
16.419959999999996 3.24 0.72 20.3666
24.53898 -2.28 0.72 33.8983
21.64188 -5.76 0.72 29.0698
21.64188 -6.32 0.72 29.0698
20.4822 -6.46 0.72 27.137
16.419959999999996 3.54 0.7 20.3666
16.419959999999996 3.4 0.7 20.3666
16.419959999999996 3.24 0.7 20.3666
21.64188 -5.76 0.7 29.0698
21.64188 -6.32 0.7 29.0698
21.64188 -1.34 0.68 29.0698
24.53898 -3.34 0.68 33.8983
18.57126 -4.94 0.68 23.9521
21.64188 -6.32 0.68 29.0698
21.64188 -5.76 0.66 29.0698
21.64188 -6.32 0.66 29.0698
20.4822 -6.48 0.66 27.137
22.97934 -3.46 0.64 31.2989
21.64188 -6.32 0.64 29.0698
20.4822 -6.48 0.64 27.137
22.97934 -1.34 0.62 31.2989
22.97934 -1.36 0.62 31.2989
22.97934 -3.46 0.62 31.2989
21.64188 -5.76 0.62 29.0698
21.64188 -6.32 0.62 29.0698
20.4822 -6.48 0.62 27.137
21.64188 -5.76 0.6 29.0698
21.64188 -6.32 0.6 29.0698
18.57126 -5.0 0.58 23.9521
21.64188 -5.76 0.58 29.0698
24.53898 -3.46 0.56 33.8983
17.77464 -6.0 0.56 22.6244
24.53898 -3.46 0.54 33.8983
18.57126 -5.0 0.54 23.9521
20.4822 -6.48 0.54 27.137
18.57126 -4.98 0.52 23.9521
18.57126 -5.0 0.52 23.9521
24.53898 -3.46 0.5 33.8983
21.64188 -5.76 0.5 29.0698
21.64188 -5.78 0.5 29.0698
24.53898 -3.46 0.46 33.8983
17.77464 -5.94 0.46 22.6244
24.53898 -3.46 0.44 33.8983
18.57126 -4.98 0.44 23.9521
18.57126 -5.0 0.44 23.9521
18.57126 -5.14 0.44 23.9521
20.4822 -6.52 0.44 27.137
28.590239999999998 -0.3 0.42 40.6504
24.53898 -3.46 0.42 33.8983
18.57126 -5.14 0.42 23.9521
18.57126 -5.16 0.42 23.9521
20.4822 -6.48 0.42 27.137
34.65684 -2.46 0.4 50.7614
21.64188 -2.56 0.4 29.0698
21.64188 -2.58 0.4 29.0698
21.64188 -2.6 0.4 29.0698
18.57126 -5.0 0.4 23.9521
18.57126 -5.02 0.4 23.9521
18.57126 -5.14 0.4 23.9521
18.57126 -5.16 0.4 23.9521
20.4822 -6.48 0.4 27.137
34.65684 -2.44 0.38 50.7614
34.65684 -2.46 0.38 50.7614
34.65684 -2.48 0.38 50.7614
24.53898 -3.46 0.38 33.8983
17.77464 -5.16 0.38 22.6244
20.4822 -6.48 0.38 27.137
34.65684 -2.44 0.36 50.7614
34.65684 -2.46 0.36 50.7614
17.77464 -6.14 0.36 22.6244
17.77464 -6.16 0.36 22.6244
17.77464 -6.18 0.36 22.6244
20.4822 -6.48 0.36 27.137
38.9826 -2.56 0.34 57.971
21.64188 -4.94 0.34 29.0698
18.57126 -5.0 0.34 23.9521
17.77464 -6.14 0.34 22.6244
17.77464 -6.16 0.34 22.6244
17.77464 -6.18 0.34 22.6244
20.4822 -6.48 0.34 27.137
21.64188 -4.94 0.32 29.0698
18.57126 -5.0 0.32 23.9521
18.57126 -5.02 0.32 23.9521
20.4822 -6.48 0.32 27.137
21.64188 -4.94 0.3 29.0698
20.4822 -6.48 0.3 27.137
31.28802 4.44 0.28 45.1467
22.97934 -4.14 0.28 31.2989
18.57126 -5.9 0.28 23.9521
18.57126 -5.92 0.28 23.9521
18.57126 -5.94 0.28 23.9521
20.4822 -6.48 0.28 27.137
22.97934 -4.14 0.26 31.2989
20.4822 -5.78 0.26 27.137
18.57126 -5.9 0.26 23.9521
18.57126 -5.92 0.26 23.9521
22.97934 -3.4 0.24 31.2989
22.97934 -4.14 0.24 31.2989
20.4822 -5.78 0.24 27.137
20.4822 -6.48 0.24 27.137
22.97934 -3.4 0.22 31.2989
22.97934 -4.14 0.22 31.2989
20.4822 -5.78 0.22 27.137
20.4822 -6.48 0.22 27.137
18.57126 -4.98 0.2 23.9521
24.53898 -2.72 0.18 33.8983
22.97934 -4.14 0.18 31.2989
21.64188 -1.34 0.16 29.0698
18.57126 -5.92 0.16 23.9521
24.53898 -2.72 0.14 33.8983
24.53898 -3.4 0.14 33.8983
19.467180000000003 -5.0 0.14 25.4453
19.467180000000003 -5.02 0.14 25.4453
22.97934 -4.94 0.12 31.2989
18.57126 -5.92 0.12 23.9521
20.4822 -6.52 0.12 27.137
18.57126 -5.92 0.1 23.9521
24.53898 -3.4 0.06 33.8983
22.97934 -4.14 0.06 31.2989
18.57126 -5.92 0.06 23.9521
17.77464 -5.94 0.04 22.6244
22.97934 -4.14 0.02 31.2989
18.57126 -5.0 0.02 23.9521
22.97934 -4.14 0.0 31.2989
18.57126 -5.0 0.0 23.9521
17.77464 -5.94 0.0 22.6244
18.57126 -4.98 -0.02 23.9521
18.57126 -5.0 -0.02 23.9521
17.77464 -5.94 -0.02 22.6244
18.57126 -5.0 -0.06 23.9521
16.419959999999996 3.24 -0.08 20.3666
18.57126 -5.92 -0.08 23.9521
16.419959999999996 3.24 -0.1 20.3666
21.64188 -5.78 -0.14 29.0698
16.419959999999996 3.2 -0.16 20.3666
18.57126 -5.0 -0.2 23.9521
18.57126 -5.0 -0.22 23.9521
20.4822 -6.5 -0.22 27.137
18.57126 -5.0 -0.24 23.9521
17.77464 -6.02 -0.24 22.6244
17.77464 -6.04 -0.24 22.6244
20.4822 -6.48 -0.24 27.137
20.4822 -6.5 -0.24 27.137
18.57126 -5.0 -0.26 23.9521
18.57126 -5.02 -0.26 23.9521
18.57126 -5.18 -0.26 23.9521
17.77464 -6.02 -0.26 22.6244
17.77464 -6.04 -0.26 22.6244
20.4822 -6.48 -0.26 27.137
20.4822 -6.5 -0.26 27.137
18.57126 -5.0 -0.28 23.9521
18.57126 -5.02 -0.28 23.9521
18.57126 -5.18 -0.28 23.9521
18.57126 -5.2 -0.28 23.9521
22.97934 -5.9 -0.28 31.2989
17.77464 -6.02 -0.28 22.6244
17.77464 -6.04 -0.28 22.6244
20.4822 -6.48 -0.28 27.137
20.4822 -6.5 -0.28 27.137
17.77464 -6.04 -0.3 22.6244
20.4822 -6.5 -0.3 27.137
21.64188 -4.96 -0.32 29.0698
21.64188 -5.72 -0.32 29.0698
21.64188 -5.78 -0.32 29.0698
21.64188 -5.8 -0.32 29.0698
22.97934 -5.9 -0.32 31.2989
17.77464 -6.02 -0.32 22.6244
17.77464 -6.04 -0.32 22.6244
20.4822 -6.5 -0.32 27.137
24.53898 -2.66 -0.34 33.8983
22.97934 -4.1 -0.34 31.2989
21.64188 -4.96 -0.34 29.0698
21.64188 -5.78 -0.34 29.0698
17.77464 -6.02 -0.34 22.6244
17.77464 -6.04 -0.34 22.6244
20.4822 -6.5 -0.34 27.137
24.53898 -2.66 -0.36 33.8983
21.64188 -4.16 -0.36 29.0698
21.64188 -5.78 -0.36 29.0698
17.77464 -6.02 -0.36 22.6244
17.77464 -6.04 -0.36 22.6244
20.4822 -6.5 -0.36 27.137
24.53898 -3.36 -0.38 33.8983
22.97934 -3.42 -0.38 31.2989
22.97934 -4.1 -0.38 31.2989
17.77464 -5.2 -0.38 22.6244
21.64188 -5.78 -0.38 29.0698
21.64188 -5.8 -0.38 29.0698
17.77464 -6.04 -0.38 22.6244
20.4822 -6.5 -0.38 27.137
34.65684 5.5 -0.4 50.7614
24.53898 -3.36 -0.4 33.8983
22.97934 -4.1 -0.4 31.2989
21.64188 -5.78 -0.4 29.0698
21.64188 -5.8 -0.4 29.0698
20.4822 -6.5 -0.4 27.137
19.467180000000003 -2.94 -0.42 25.4453
22.97934 -4.1 -0.42 31.2989
17.77464 -5.18 -0.42 22.6244
17.77464 -5.2 -0.42 22.6244
21.64188 -5.72 -0.42 29.0698
21.64188 -5.78 -0.42 29.0698
21.64188 -5.8 -0.42 29.0698
17.77464 -6.04 -0.42 22.6244
20.4822 -6.5 -0.42 27.137
34.65684 5.56 -0.44 50.7614
19.467180000000003 -2.94 -0.44 25.4453
19.467180000000003 -2.96 -0.44 25.4453
22.97934 -4.1 -0.44 31.2989
18.57126 -5.18 -0.44 23.9521
18.57126 -5.2 -0.44 23.9521
21.64188 -5.72 -0.44 29.0698
22.97934 -4.1 -0.46 31.2989
21.64188 -5.72 -0.46 29.0698
22.97934 -4.1 -0.48 31.2989
20.4822 -5.8 -0.48 27.137
18.57126 -3.0 -0.5 23.9521
18.57126 -3.02 -0.5 23.9521
21.64188 -5.72 -0.5 29.0698
20.4822 -5.8 -0.5 27.137
34.65684 5.7 -0.52 50.7614
18.57126 -2.98 -0.52 23.9521
18.57126 -3.0 -0.52 23.9521
18.57126 -5.18 -0.52 23.9521
20.4822 -5.8 -0.52 27.137
20.4822 -6.5 -0.52 27.137
34.65684 5.72 -0.54 50.7614
18.57126 -2.98 -0.54 23.9521
18.57126 -3.0 -0.54 23.9521
17.77464 -6.02 -0.54 22.6244
17.77464 -6.04 -0.54 22.6244
17.77464 -6.06 -0.54 22.6244
20.4822 -6.5 -0.54 27.137
17.77464 -6.02 -0.56 22.6244
17.77464 -6.04 -0.56 22.6244
17.77464 -6.06 -0.56 22.6244
20.4822 -6.5 -0.56 27.137
18.57126 -3.02 -0.58 23.9521
20.4822 -6.5 -0.58 27.137
18.57126 -3.02 -0.6 23.9521
18.57126 -3.04 -0.6 23.9521
17.06172 -5.38 -0.6 21.4362
17.06172 -5.4 -0.6 21.4362
20.4822 -6.5 -0.6 27.137
16.419959999999996 3.3 -0.62 20.3666
18.57126 -3.04 -0.62 23.9521
18.57126 -3.06 -0.62 23.9521
17.06172 -5.38 -0.62 21.4362
17.06172 -5.98 -0.62 21.4362
20.4822 -6.5 -0.62 27.137
34.65684 5.66 -0.64 50.7614
16.419959999999996 3.3 -0.64 20.3666
18.57126 -3.06 -0.64 23.9521
20.4822 -6.5 -0.64 27.137
16.419959999999996 3.3 -0.66 20.3666
18.57126 -3.06 -0.66 23.9521
17.06172 -5.36 -0.66 21.4362
17.06172 -5.38 -0.66 21.4362
20.4822 -6.5 -0.66 27.137
16.419959999999996 3.3 -0.68 20.3666
17.06172 -5.36 -0.68 21.4362
16.419959999999996 -5.92 -0.68 20.3666
15.83916 -6.16 -0.68 19.3986
20.4822 -6.5 -0.68 27.137
31.28802 4.54 -0.7 45.1467
16.419959999999996 3.3 -0.7 20.3666
18.57126 -3.08 -0.7 23.9521
18.57126 -3.1 -0.7 23.9521
16.419959999999996 -5.92 -0.7 20.3666
16.419959999999996 -5.94 -0.7 20.3666
15.83916 -6.2 -0.7 19.3986
20.4822 -6.5 -0.7 27.137
31.28802 4.54 -0.72 45.1467
28.590239999999998 4.2 -0.72 40.6504
16.419959999999996 3.3 -0.72 20.3666
18.57126 -3.08 -0.72 23.9521
18.57126 -3.1 -0.72 23.9521
17.06172 -5.34 -0.72 21.4362
17.06172 -5.36 -0.72 21.4362
16.419959999999996 -5.92 -0.72 20.3666
15.83916 -6.24 -0.72 19.3986
15.83916 -6.26 -0.72 19.3986
15.3111 -6.28 -0.72 18.5185
20.4822 -6.5 -0.72 27.137
16.419959999999996 3.3 -0.74 20.3666
21.64188 -4.12 -0.74 29.0698
16.419959999999996 -4.86 -0.74 20.3666
16.419959999999996 -5.26 -0.74 20.3666
17.06172 -5.34 -0.74 21.4362
17.06172 -5.36 -0.74 21.4362
16.419959999999996 -5.9 -0.74 20.3666
15.83916 -6.26 -0.74 19.3986
15.3111 -6.28 -0.74 18.5185
15.3111 -6.3 -0.74 18.5185
15.3111 -6.32 -0.74 18.5185
16.419959999999996 3.3 -0.76 20.3666
17.06172 3.2 -0.76 21.4362
16.419959999999996 -4.86 -0.76 20.3666
17.06172 -5.34 -0.76 21.4362
17.06172 -5.36 -0.76 21.4362
16.419959999999996 3.3 -0.78 20.3666
17.06172 3.2 -0.78 21.4362
18.57126 -3.3 -0.78 23.9521
24.53898 -4.2 -0.78 33.8983
17.06172 -4.78 -0.78 21.4362
15.83916 -6.4 -0.78 19.3986
16.419959999999996 3.3 -0.8 20.3666
17.06172 3.2 -0.8 21.4362
24.53898 2.54 -0.8 33.8983
17.06172 -4.78 -0.8 21.4362
17.06172 -4.8 -0.8 21.4362
17.06172 -4.82 -0.8 21.4362
15.83916 -6.38 -0.8 19.3986
16.419959999999996 3.3 -0.82 20.3666
17.06172 3.2 -0.82 21.4362
22.97934 -4.12 -0.82 31.2989
17.06172 -4.82 -0.82 21.4362
15.83916 -6.38 -0.82 19.3986
16.419959999999996 -6.48 -0.82 20.3666
16.419959999999996 -6.5 -0.82 20.3666
16.419959999999996 -6.52 -0.82 20.3666
15.83916 -6.64 -0.82 19.3986
16.419959999999996 3.3 -0.84 20.3666
16.419959999999996 -6.36 -0.84 20.3666
16.419959999999996 -6.38 -0.84 20.3666
16.419959999999996 3.3 -0.86 20.3666
22.97934 -3.38 -0.86 31.2989
16.419959999999996 -6.36 -0.86 20.3666
16.419959999999996 -6.38 -0.86 20.3666
15.83916 -6.5 -0.86 19.3986
15.83916 -6.52 -0.86 19.3986
15.83916 -6.54 -0.86 19.3986
16.419959999999996 3.3 -0.88 20.3666
16.419959999999996 -6.36 -0.88 20.3666
15.83916 -6.52 -0.88 19.3986
18.57126 -2.84 -0.9 23.9521
21.64188 -3.82 -0.9 29.0698
16.419959999999996 -6.36 -0.9 20.3666
16.419959999999996 -6.38 -0.9 20.3666
18.57126 -2.86 -0.92 23.9521
21.64188 -3.82 -0.92 29.0698
17.06172 -4.38 -0.94 21.4362
17.06172 -4.4 -0.94 21.4362
16.419959999999996 -6.56 -0.94 20.3666
16.419959999999996 -6.58 -0.94 20.3666
16.419959999999996 -6.64 -0.94 20.3666
17.77464 -4.34 -0.96 22.6244
17.77464 -4.36 -0.96 22.6244
17.06172 -4.56 -0.96 21.4362
17.06172 -4.58 -0.96 21.4362
16.419959999999996 -6.56 -0.96 20.3666
16.419959999999996 -6.58 -0.96 20.3666
16.419959999999996 -6.64 -0.96 20.3666
17.77464 -4.32 -0.98 22.6244
17.77464 -4.34 -0.98 22.6244
17.06172 -4.58 -0.98 21.4362
17.06172 -4.6 -0.98 21.4362
17.06172 -5.74 -0.98 21.4362
17.06172 -5.76 -0.98 21.4362
17.06172 -5.78 -0.98 21.4362
15.83916 -6.5 -0.98 19.3986
16.419959999999996 -6.64 -0.98 20.3666
18.57126 -3.34 -1.0 23.9521
17.77464 -4.3 -1.0 22.6244
17.77464 -4.32 -1.0 22.6244
17.06172 -4.6 -1.0 21.4362
16.419959999999996 -4.62 -1.0 20.3666
17.06172 -5.74 -1.0 21.4362
17.06172 -5.76 -1.0 21.4362
15.83916 -6.04 -1.0 19.3986
15.83916 -6.06 -1.0 19.3986
15.83916 -6.14 -1.0 19.3986
15.83916 -6.16 -1.0 19.3986
18.57126 -3.32 -1.02 23.9521
18.57126 -3.34 -1.02 23.9521
17.77464 -4.3 -1.02 22.6244
17.77464 -4.32 -1.02 22.6244
17.06172 -4.62 -1.02 21.4362
17.06172 -5.72 -1.02 21.4362
17.06172 -5.74 -1.02 21.4362
15.83916 -6.06 -1.02 19.3986
15.83916 -6.08 -1.02 19.3986
15.83916 -6.14 -1.02 19.3986
15.83916 -6.16 -1.02 19.3986
15.83916 -6.18 -1.02 19.3986
16.419959999999996 -6.68 -1.02 20.3666
17.77464 -4.3 -1.04 22.6244
17.06172 -4.64 -1.04 21.4362
17.06172 -5.7 -1.04 21.4362
16.419959999999996 -5.72 -1.04 20.3666
15.83916 -6.08 -1.04 19.3986
16.419959999999996 -6.68 -1.04 20.3666
17.77464 -4.28 -1.06 22.6244
17.77464 -4.3 -1.06 22.6244
17.77464 -4.5 -1.06 22.6244
17.06172 -4.64 -1.06 21.4362
17.06172 -5.7 -1.06 21.4362
15.83916 -6.1 -1.06 19.3986
16.419959999999996 -6.68 -1.06 20.3666
18.57126 -2.8 -1.08 23.9521
18.57126 -2.82 -1.08 23.9521
17.77464 -4.28 -1.08 22.6244
17.06172 -4.42 -1.08 21.4362
17.06172 -4.64 -1.08 21.4362
16.419959999999996 -5.68 -1.08 20.3666
16.419959999999996 -5.7 -1.08 20.3666
16.419959999999996 -5.88 -1.08 20.3666
16.419959999999996 -5.9 -1.08 20.3666
15.83916 -6.1 -1.08 19.3986
15.83916 -6.12 -1.08 19.3986
20.4822 -1.82 -1.1 27.137
18.57126 -2.8 -1.1 23.9521
19.467180000000003 -3.16 -1.1 25.4453
17.77464 -4.28 -1.1 22.6244
17.06172 -4.56 -1.1 21.4362
17.06172 -4.58 -1.1 21.4362
17.06172 -4.66 -1.1 21.4362
16.419959999999996 -5.68 -1.1 20.3666
15.83916 -6.12 -1.1 19.3986
17.77464 -4.34 -1.12 22.6244
17.77464 -4.36 -1.12 22.6244
17.06172 -4.56 -1.12 21.4362
17.06172 -4.58 -1.12 21.4362
17.06172 -4.64 -1.12 21.4362
17.06172 -4.66 -1.12 21.4362
16.419959999999996 -5.68 -1.12 20.3666
16.419959999999996 -5.7 -1.12 20.3666
16.419959999999996 -5.84 -1.12 20.3666
16.419959999999996 -5.86 -1.12 20.3666
15.83916 -5.94 -1.12 19.3986
16.419959999999996 -5.96 -1.12 20.3666
15.83916 -6.12 -1.12 19.3986
16.419959999999996 -6.66 -1.12 20.3666
18.57126 -2.76 -1.14 23.9521
18.57126 -2.78 -1.14 23.9521
17.77464 -4.34 -1.14 22.6244
17.06172 -4.58 -1.14 21.4362
17.06172 -4.66 -1.14 21.4362
16.419959999999996 -5.68 -1.14 20.3666
16.419959999999996 -5.7 -1.14 20.3666
17.77464 -4.52 -1.16 22.6244
16.419959999999996 -5.68 -1.16 20.3666
16.419959999999996 -5.76 -1.16 20.3666
16.419959999999996 -5.78 -1.16 20.3666
15.83916 -6.02 -1.16 19.3986
15.83916 -6.04 -1.16 19.3986
15.83916 -6.06 -1.16 19.3986
17.06172 -6.6 -1.16 21.4362
16.419959999999996 -6.62 -1.16 20.3666
16.419959999999996 -5.76 -1.18 20.3666
16.419959999999996 -5.78 -1.18 20.3666
15.83916 -6.02 -1.18 19.3986
15.83916 -6.04 -1.18 19.3986
17.06172 -4.54 -1.2 21.4362
17.06172 -4.56 -1.2 21.4362
16.419959999999996 -5.76 -1.2 20.3666
16.419959999999996 -5.78 -1.2 20.3666
18.57126 -5.92 -1.2 23.9521
18.57126 -5.94 -1.2 23.9521
18.57126 -5.96 -1.2 23.9521
17.06172 -4.52 -1.22 21.4362
17.06172 -4.54 -1.22 21.4362
17.06172 -4.56 -1.22 21.4362
15.83916 -5.78 -1.24 19.3986
15.83916 -5.8 -1.24 19.3986
16.419959999999996 -5.86 -1.24 20.3666
17.06172 -5.88 -1.24 21.4362
16.419959999999996 -5.82 -1.26 20.3666
17.06172 -5.94 -1.26 21.4362
17.06172 -5.96 -1.26 21.4362
17.06172 -5.98 -1.26 21.4362
16.419959999999996 -6.0 -1.26 20.3666
16.419959999999996 -6.02 -1.26 20.3666
17.77464 -6.24 -1.26 22.6244
17.77464 -6.26 -1.26 22.6244
17.06172 -5.96 -1.28 21.4362
17.06172 -5.98 -1.28 21.4362
16.419959999999996 -6.0 -1.28 20.3666
15.83916 4.6 -1.3 19.3986
15.83916 2.94 -1.32 19.3986
15.83916 2.94 -1.34 19.3986
14.386740000000001 2.26 -1.44 16.9779
14.386740000000001 2.24 -1.46 16.9779
14.386740000000001 2.24 -1.48 16.9779
12.08952 -4.64 -1.72 13.1492
12.08952 -4.66 -1.72 13.1492
12.3522 -5.08 -1.8 13.587
11.843340000000001 -5.14 -1.8 12.7389
11.61198 2.32 -1.82 12.3533
11.18892 2.4 -1.92 11.6482
10.995 -5.68 -1.92 11.325
10.995 -5.7 -1.92 11.325
10.995 -5.72 -1.92 11.325
10.811580000000001 -5.74 -1.92 11.0193
10.811580000000001 2.46 -1.98 11.0193
10.637759999999998 -4.58 -2.0 10.7296
10.637759999999998 -4.6 -2.0 10.7296
10.811580000000001 5.62 -2.06 11.0193
10.811580000000001 5.6 -2.06 11.0193
10.811580000000001 5.6 -2.08 11.0193
10.811580000000001 5.58 -2.08 11.0193
10.637759999999998 5.34 -2.1 10.7296
10.472879999999998 5.2 -2.12 10.4548
10.472879999999998 5.18 -2.12 10.4548
10.472879999999998 5.16 -2.12 10.4548
10.472879999999998 5.0 -2.14 10.4548
10.472879999999998 4.78 -2.16 10.4548
10.472879999999998 4.76 -2.16 10.4548
10.472879999999998 4.74 -2.16 10.4548
10.16718 4.66 -2.18 9.9453
10.316220000000001 4.64 -2.18 10.1937
10.316220000000001 4.62 -2.18 10.1937
10.316220000000001 4.6 -2.18 10.1937
10.316220000000001 4.58 -2.18 10.1937
10.16718 4.46 -2.2 9.9453
10.16718 4.44 -2.2 9.9453
10.16718 4.42 -2.2 9.9453
10.16718 4.4 -2.2 9.9453
10.025244 4.26 -2.22 9.70874
10.16718 4.2 -2.22 9.9453
10.16718 4.18 -2.22 9.9453
10.16718 4.16 -2.22 9.9453
10.025244 4.06 -2.24 9.70874
10.025244 4.04 -2.24 9.70874
10.025244 4.0 -2.24 9.70874
9.889902000000001 3.84 -2.26 9.48317
10.16718 3.78 -2.26 9.9453
10.16718 3.76 -2.26 9.9453
10.16718 3.74 -2.26 9.9453
9.889902000000001 3.64 -2.28 9.48317
9.889902000000001 3.62 -2.28 9.48317
9.889902000000001 3.6 -2.28 9.48317
9.889902000000001 3.58 -2.28 9.48317
9.760704 3.42 -2.3 9.26784
9.760704 3.4 -2.3 9.26784
9.760704 3.38 -2.3 9.26784
9.889902000000001 3.36 -2.3 9.48317
9.889902000000001 3.34 -2.3 9.48317
9.889902000000001 3.32 -2.3 9.48317
9.406074 -6.7 -2.3 8.67679
9.406074 -6.72 -2.3 8.67679
9.637241999999999 3.2 -2.32 9.06207
9.406074 -5.92 -2.32 8.67679
9.406074 -5.96 -2.32 8.67679
9.637241999999999 2.82 -2.36 9.06207
9.760704 3.9 -2.44 9.26784
9.297708 3.84 -2.44 8.49618
9.297708 3.84 -2.46 8.49618
9.297708 3.82 -2.46 8.49618
9.297708 4.32 -2.48 8.49618
9.51915 4.6 -2.5 8.86525
9.51915 4.58 -2.5 8.86525
9.51915 4.88 -2.52 8.86525
9.193757999999999 4.72 -2.52 8.32293
9.51915 5.1 -2.54 8.86525
9.51915 5.08 -2.54 8.86525
9.51915 4.9 -2.54 8.86525
9.193757999999999 5.44 -2.58 8.32293
9.193757999999999 5.42 -2.58 8.32293
8.99808 2.96 -2.58 7.9968
9.093966 5.62 -2.6 8.15661
8.99808 2.98 -2.6 7.9968
8.99808 2.96 -2.6 7.9968
8.817162000000001 3.04 -2.68 7.69527
8.731722000000001 3.06 -2.7 7.55287
8.731722000000001 3.08 -2.72 7.55287
8.731722000000001 3.06 -2.72 7.55287
8.731722000000001 3.08 -2.74 7.55287
8.64939 3.1 -2.76 7.41565
8.64939 3.12 -2.78 7.41565
8.569992 3.14 -2.8 7.28332
8.569992 3.16 -2.82 7.28332
8.493384 3.18 -2.84 7.15564
8.493384 3.2 -2.86 7.15564
8.493384 3.18 -2.86 7.15564
8.493384 3.16 -2.86 7.15564
8.493384 3.14 -2.86 7.15564
8.493384 3.12 -2.86 7.15564
8.493384 3.18 -2.88 7.15564
8.493384 3.16 -2.88 7.15564
8.493384 3.14 -2.88 7.15564
8.419410000000001 3.12 -2.88 7.03235
8.419410000000001 3.08 -2.88 7.03235
8.419410000000001 3.06 -2.88 7.03235
8.419410000000001 3.04 -2.88 7.03235
8.347944 3.02 -2.88 6.91324
7.908282 3.5 -3.26 6.18047
7.908282 3.48 -3.26 6.18047
7.908282 3.46 -3.26 6.18047
7.908282 3.44 -3.26 6.18047
7.908282 3.42 -3.26 6.18047
7.8529680000000015 3.38 -3.26 6.08828
7.8529680000000015 3.36 -3.26 6.08828
7.8529680000000015 3.34 -3.26 6.08828
7.8529680000000015 3.3 -3.26 6.08828
7.7992799999999995 3.58 -3.3 5.9988
7.7992799999999995 3.56 -3.3 5.9988
7.747145999999999 3.58 -3.32 5.91191
7.747145999999999 3.6 -3.34 5.91191
7.747145999999999 3.62 -3.36 5.91191
7.747145999999999 3.6 -3.36 5.91191
7.696506 3.66 -3.4 5.82751
7.696506 3.64 -3.4 5.82751
7.6472880000000005 3.7 -3.44 5.74548
7.599432 3.72 -3.46 5.66572
7.552889999999999 3.74 -3.48 5.58815
7.552889999999999 3.72 -3.48 5.58815
7.552889999999999 3.74 -3.5 5.58815
7.552889999999999 3.58 -3.5 5.58815
7.552889999999999 3.76 -3.52 5.58815
7.552889999999999 3.74 -3.52 5.58815
7.552889999999999 3.78 -3.54 5.58815
7.552889999999999 3.82 -3.58 5.58815
7.420614 3.88 -3.64 5.36769
7.420614 3.9 -3.66 5.36769
7.420614 3.92 -3.68 5.36769
7.420614 3.9 -3.68 5.36769
7.378806 3.62 -3.68 5.29801
7.378806 3.92 -3.7 5.29801
7.378806 3.9 -3.7 5.29801
7.338077999999999 3.94 -3.72 5.23013
7.338077999999999 3.96 -3.74 5.23013
7.338077999999999 3.94 -3.74 5.23013
7.259664000000001 4.0 -3.82 5.09944
7.259664000000001 3.98 -3.82 5.09944
7.259664000000001 3.96 -3.82 5.09944
7.259664000000001 3.94 -3.82 5.09944
7.338077999999999 3.86 -3.82 5.23013
7.338077999999999 3.84 -3.82 5.23013
7.338077999999999 3.82 -3.82 5.23013
7.298376 3.8 -3.82 5.16396
7.259664000000001 3.78 -3.82 5.09944
7.259664000000001 3.76 -3.82 5.09944
7.259664000000001 3.74 -3.82 5.09944
7.259664000000001 4.02 -3.84 5.09944
7.259664000000001 4.0 -3.84 5.09944
7.259664000000001 3.98 -3.84 5.09944
7.259664000000001 3.96 -3.84 5.09944
7.259664000000001 3.94 -3.84 5.09944
7.259664000000001 3.92 -3.84 5.09944
7.259664000000001 3.9 -3.84 5.09944
7.259664000000001 3.88 -3.84 5.09944
7.338077999999999 3.86 -3.84 5.23013
6.981642 -1.68 -4.06 4.63607
6.981642 -1.7 -4.06 4.63607
6.9504 0.72 -4.14 4.584
6.9504 0.7 -4.14 4.584
6.9504 0.68 -4.14 4.584
6.9504 0.66 -4.14 4.584
6.72366 -2.8 -4.42 4.2061
6.72366 -2.82 -4.42 4.2061
6.72366 -2.84 -4.42 4.2061
6.72366 -2.86 -4.42 4.2061
6.672695999999999 4.46 -4.6 4.12116
6.647982 4.44 -4.6 4.07997
6.647982 4.58 -4.62 4.07997
6.647982 4.56 -4.62 4.07997
6.69792 4.54 -4.62 4.1632
6.672695999999999 4.52 -4.62 4.12116
6.672695999999999 4.5 -4.62 4.12116
6.672695999999999 4.48 -4.62 4.12116
6.672695999999999 4.46 -4.62 4.12116
6.647982 4.44 -4.62 4.07997
6.647982 4.42 -4.62 4.07997
6.647982 4.4 -4.62 4.07997
6.647982 4.38 -4.62 4.07997
6.72366 4.82 -4.64 4.2061
6.72366 4.8 -4.64 4.2061
6.72366 4.78 -4.64 4.2061
6.672695999999999 4.76 -4.64 4.12116
6.672695999999999 4.74 -4.64 4.12116
6.672695999999999 4.72 -4.64 4.12116
6.672695999999999 4.7 -4.64 4.12116
6.672695999999999 4.68 -4.64 4.12116
6.672695999999999 4.66 -4.64 4.12116
6.672695999999999 4.64 -4.64 4.12116
6.672695999999999 4.62 -4.64 4.12116
6.647982 4.6 -4.64 4.07997
6.647982 4.58 -4.64 4.07997
6.647982 4.56 -4.64 4.07997
6.69792 4.54 -4.64 4.1632
6.672695999999999 4.52 -4.64 4.12116
6.672695999999999 4.5 -4.64 4.12116
6.647982 4.38 -4.64 4.07997
6.672695999999999 4.72 -4.66 4.12116
6.672695999999999 4.7 -4.66 4.12116
6.672695999999999 4.68 -4.66 4.12116
6.647982 4.84 -4.68 4.07997
6.72366 4.82 -4.68 4.2061
6.623754 4.82 -4.7 4.03959
6.623754 4.44 -4.7 4.03959
6.647982 4.88 -4.72 4.07997
6.623754 5.08 -4.9 4.03959
 -2.52 5000008.86525
9.193757999999999 4.72 -2.52 5000008.32293
9.51915 5.1 -2.54 5000008.86525
9.51915 5.08 -2.54 5000008.86525
9.51915 4.9 -2.54 5000008.86525
9.193757999999999 5.44 -2.58 5000008.32293
9.193757999999999 5.42 -2.58 5000008.32293
8.99808 2.96 -2.58 5000007.9968
9.093966 5.62 -2.6 5000008.15661
8.99808 2.98 -2.6 5000007.9968
8.99808 2.96 -2.6 5000007.9968
8.817162000000001 3.04 -2.68 5000007.69527
8.731722000000001 3.06 -2.7 5000007.55287
8.731722000000001 3.08 -2.72 5000007.55287
8.731722000000001 3.06 -2.72 5000007.55287
8.731722000000001 3.08 -2.74 5000007.55287
8.64939 3.1 -2.76 5000007.41565
8.64939 3.12 -2.78 5000007.41565
8.569992 3.14 -2.8 5000007.28332
8.569992 3.16 -2.82 5000007.28332
8.493384 3.18 -2.84 5000007.15564
8.493384 3.2 -2.86 5000007.15564
8.493384 3.18 -2.86 5000007.15564
8.493384 3.16 -2.86 5000007.15564
8.493384 3.14 -2.86 5000007.15564
8.493384 3.12 -2.86 5000007.15564
8.493384 3.18 -2.88 5000007.15564
8.493384 3.16 -2.88 5000007.15564
8.493384 3.14 -2.88 5000007.15564
8.419410000000001 3.12 -2.88 5000007.03235
8.419410000000001 3.08 -2.88 5000007.03235
8.419410000000001 3.06 -2.88 5000007.03235
8.419410000000001 3.04 -2.88 5000007.03235
8.347944 3.02 -2.88 5000006.91324
7.908282 3.5 -3.26 5000006.18047
7.908282 3.48 -3.26 5000006.18047
7.908282 3.46 -3.26 5000006.18047
7.908282 3.44 -3.26 5000006.18047
7.908282 3.42 -3.26 5000006.18047
7.8529680000000015 3.38 -3.26 5000006.08828
7.8529680000000015 3.36 -3.26 5000006.08828
7.8529680000000015 3.34 -3.26 5000006.08828
7.8529680000000015 3.3 -3.26 5000006.08828
7.7992799999999995 3.58 -3.3 5000005.9988
7.7992799999999995 3.56 -3.3 5000005.9988
7.747145999999999 3.58 -3.32 5000005.91191
7.747145999999999 3.6 -3.34 5000005.91191
7.747145999999999 3.62 -3.36 5000005.91191
7.747145999999999 3.6 -3.36 5000005.91191
7.696506 3.66 -3.4 5000005.82751
7.696506 3.64 -3.4 5000005.82751
7.6472880000000005 3.7 -3.44 5000005.74548
7.599432 3.72 -3.46 5000005.66572
7.552889999999999 3.74 -3.48 5000005.58815
7.552889999999999 3.72 -3.48 5000005.58815
7.552889999999999 3.74 -3.5 5000005.58815
7.552889999999999 3.58 -3.5 5000005.58815
7.552889999999999 3.76 -3.52 5000005.58815
7.552889999999999 3.74 -3.52 5000005.58815
7.552889999999999 3.78 -3.54 5000005.58815
7.552889999999999 3.82 -3.58 5000005.58815
7.420614 3.88 -3.64 5000005.36769
7.420614 3.9 -3.66 5000005.36769
7.420614 3.92 -3.68 5000005.36769
7.420614 3.9 -3.68 5000005.36769
7.378806 3.62 -3.68 5000005.29801
7.378806 3.92 -3.7 5000005.29801
7.378806 3.9 -3.7 5000005.29801
7.338077999999999 3.94 -3.72 5000005.23013
7.338077999999999 3.96 -3.74 5000005.23013
7.338077999999999 3.94 -3.74 5000005.23013
7.259664000000001 4.0 -3.82 5000005.09944
7.259664000000001 3.98 -3.82 5000005.09944
7.259664000000001 3.96 -3.82 5000005.09944
7.259664000000001 3.94 -3.82 5000005.09944
7.338077999999999 3.86 -3.82 5000005.23013
7.338077999999999 3.84 -3.82 5000005.23013
7.338077999999999 3.82 -3.82 5000005.23013
7.298376 3.8 -3.82 5000005.16396
7.259664000000001 3.78 -3.82 5000005.09944
7.259664000000001 3.76 -3.82 5000005.09944
7.259664000000001 3.74 -3.82 5000005.09944
7.259664000000001 4.02 -3.84 5000005.09944
7.259664000000001 4.0 -3.84 5000005.09944
7.259664000000001 3.98 -3.84 5000005.09944
7.259664000000001 3.96 -3.84 5000005.09944
7.259664000000001 3.94 -3.84 5000005.09944
7.259664000000001 3.92 -3.84 5000005.09944
7.259664000000001 3.9 -3.84 5000005.09944
7.259664000000001 3.88 -3.84 5000005.09944
7.338077999999999 3.86 -3.84 5000005.23013
6.981642 -1.68 -4.06 5000004.63607
6.981642 -1.7 -4.06 5000004.63607
6.9504 0.72 -4.14 5000004.584
6.9504 0.7 -4.14 5000004.584
6.9504 0.68 -4.14 5000004.584
6.9504 0.66 -4.14 5000004.584
6.72366 -2.8 -4.42 5000004.2061
6.72366 -2.82 -4.42 5000004.2061
6.72366 -2.84 -4.42 5000004.2061
6.72366 -2.86 -4.42 5000004.2061
6.672695999999999 4.46 -4.6 5000004.12116
6.647982 4.44 -4.6 5000004.07997
6.647982 4.58 -4.62 5000004.07997
6.647982 4.56 -4.62 5000004.07997
6.69792 4.54 -4.62 5000004.1632
6.672695999999999 4.52 -4.62 5000004.12116
6.672695999999999 4.5 -4.62 5000004.12116
6.672695999999999 4.48 -4.62 5000004.12116
6.672695999999999 4.46 -4.62 5000004.12116
6.647982 4.44 -4.62 5000004.07997
6.647982 4.42 -4.62 5000004.07997
6.647982 4.4 -4.62 5000004.07997
6.647982 4.38 -4.62 5000004.07997
6.72366 4.82 -4.64 5000004.2061
6.72366 4.8 -4.64 5000004.2061
6.72366 4.78 -4.64 5000004.2061
6.672695999999999 4.76 -4.64 5000004.12116
6.672695999999999 4.74 -4.64 5000004.12116
6.672695999999999 4.72 -4.64 5000004.12116
6.672695999999999 4.7 -4.64 5000004.12116
6.672695999999999 4.68 -4.64 5000004.12116
6.672695999999999 4.66 -4.64 5000004.12116
6.672695999999999 4.64 -4.64 5000004.12116
6.672695999999999 4.62 -4.64 5000004.12116
6.647982 4.6 -4.64 5000004.07997
6.647982 4.58 -4.64 5000004.07997
6.647982 4.56 -4.64 5000004.07997
6.69792 4.54 -4.64 5000004.1632
6.672695999999999 4.52 -4.64 5000004.12116
6.672695999999999 4.5 -4.64 5000004.12116
6.647982 4.38 -4.64 5000004.07997
6.672695999999999 4.72 -4.66 5000004.12116
6.672695999999999 4.7 -4.66 5000004.12116
6.672695999999999 4.68 -4.66 5000004.12116
6.647982 4.84 -4.68 5000004.07997
6.72366 4.82 -4.68 5000004.2061
6.623754 4.82 -4.7 5000004.03959
6.623754 4.44 -4.7 5000004.03959
6.647982 4.88 -4.72 5000004.07997
6.623754 5.08 -4.9 5000004.03959
11.750399999999999 0.66 -4.14 5000004.584
11.52366 -2.8 -4.42 5000004.2061
11.52366 -2.82 -4.42 5000004.2061
11.52366 -2.84 -4.42 5000004.2061
11.52366 -2.86 -4.42 5000004.2061
11.472696000000001 4.46 -4.6 5000004.12116
11.447982 4.44 -4.6 5000004.07997
11.447982 4.58 -4.62 5000004.07997
11.447982 4.56 -4.62 5000004.07997
11.49792 4.54 -4.62 5000004.1632
11.472696000000001 4.52 -4.62 5000004.12116
11.472696000000001 4.5 -4.62 5000004.12116
11.472696000000001 4.48 -4.62 5000004.12116
11.472696000000001 4.46 -4.62 5000004.12116
11.447982 4.44 -4.62 5000004.07997
11.447982 4.42 -4.62 5000004.07997
11.447982 4.4 -4.62 5000004.07997
11.447982 4.38 -4.62 5000004.07997
11.52366 4.82 -4.64 5000004.2061
11.52366 4.8 -4.64 5000004.2061
11.52366 4.78 -4.64 5000004.2061
11.472696000000001 4.76 -4.64 5000004.12116
11.472696000000001 4.74 -4.64 5000004.12116
11.472696000000001 4.72 -4.64 5000004.12116
11.472696000000001 4.7 -4.64 5000004.12116
11.472696000000001 4.68 -4.64 5000004.12116
11.472696000000001 4.66 -4.64 5000004.12116
11.472696000000001 4.64 -4.64 5000004.12116
11.472696000000001 4.62 -4.64 5000004.12116
11.447982 4.6 -4.64 5000004.07997
11.447982 4.58 -4.64 5000004.07997
11.447982 4.56 -4.64 5000004.07997
11.49792 4.54 -4.64 5000004.1632
11.472696000000001 4.52 -4.64 5000004.12116
11.472696000000001 4.5 -4.64 5000004.12116
11.447982 4.38 -4.64 5000004.07997
11.472696000000001 4.72 -4.66 5000004.12116
11.472696000000001 4.7 -4.66 5000004.12116
11.472696000000001 4.68 -4.66 5000004.12116
11.447982 4.84 -4.68 5000004.07997
11.52366 4.82 -4.68 5000004.2061
11.423754 4.82 -4.7 5000004.03959
11.423754 4.44 -4.7 5000004.03959
11.447982 4.88 -4.72 5000004.07997
11.423754 5.08 -4.9 5000004.03959
03959
7.615836 4.44 -4.7 5000004.03959
7.631988 4.88 -4.72 5000004.07997
7.615836 5.08 -4.9 5000004.03959
129943333333333 -2.433333333333333 2.0 5000033.8983
10.71454 -14.633333333333333 2.0 5000021.4362
10.71454 -14.666666666666666 2.0 5000021.4362
10.71454 -14.7 2.0 5000021.4362
10.64662 -17.3 2.0 5000019.3986
10.678886666666667 -1.1666666666666667 1.9666666666666666 5000020.3666
10.71454 -1.3333333333333333 1.9666666666666666 5000021.4362
11.043296666666667 -13.533333333333333 1.9666666666666666 5000031.2989
10.71454 -14.7 1.9666666666666666 5000021.4362
10.64662 -17.3 1.9666666666666666 5000019.3986
10.678886666666667 -17.466666666666665 1.9666666666666666 5000020.3666
10.678886666666667 -17.5 1.9666666666666666 5000020.3666
10.678886666666667 -17.533333333333335 1.9666666666666666 5000020.3666
10.64662 -17.733333333333334 1.9666666666666666 5000019.3986
10.678886666666667 -1.1666666666666667 1.9333333333333333 5000020.3666
10.678886666666667 -17.266666666666666 1.9333333333333333 5000020.3666
10.678886666666667 -17.3 1.9333333333333333 5000020.3666
10.678886666666667 -1.1666666666666667 1.9 5000020.3666
11.043296666666667 -12.3 1.9 5000031.2989
10.678886666666667 -17.266666666666666 1.9 5000020.3666
10.678886666666667 -17.3 1.9 5000020.3666
10.64662 -17.5 1.9 5000019.3986
10.64662 -17.533333333333335 1.9 5000019.3986
10.64662 -17.566666666666666 1.9 5000019.3986
10.678886666666667 -1.1666666666666667 1.8666666666666667 5000020.3666
10.678886666666667 -17.266666666666666 1.8666666666666667 5000020.3666
10.64662 -17.533333333333335 1.8666666666666667 5000019.3986
10.798403333333333 -11.4 1.8333333333333333 5000023.9521
10.968993333333334 -13.033333333333333 1.8333333333333333 5000029.0698
10.678886666666667 -17.266666666666666 1.8333333333333333 5000020.3666
10.678886666666667 -17.3 1.8333333333333333 5000020.3666
10.798403333333333 -11.433333333333334 1.8 5000023.9521
10.968993333333334 -13.033333333333333 1.8 5000029.0698
10.71454 -13.966666666666667 1.7666666666666666 5000021.4362
10.71454 -14.0 1.7666666666666666 5000021.4362
10.678886666666667 -17.6 1.7666666666666666 5000020.3666
10.678886666666667 -17.633333333333333 1.7666666666666666 5000020.3666
10.678886666666667 -17.733333333333334 1.7666666666666666 5000020.3666
10.754146666666667 -13.9 1.7333333333333334 5000022.6244
10.754146666666667 -13.933333333333334 1.7333333333333334 5000022.6244
10.71454 -14.266666666666667 1.7333333333333334 5000021.4362
10.71454 -14.3 1.7333333333333334 5000021.4362
10.678886666666667 -17.6 1.7333333333333334 5000020.3666
10.678886666666667 -17.633333333333333 1.7333333333333334 5000020.3666
10.678886666666667 -17.733333333333334 1.7333333333333334 5000020.3666
10.754146666666667 -13.866666666666667 1.7 5000022.6244
10.754146666666667 -13.9 1.7 5000022.6244
10.71454 -14.3 1.7 5000021.4362
10.71454 -14.333333333333334 1.7 5000021.4362
10.71454 -16.233333333333334 1.7 5000021.4362
10.71454 -16.266666666666666 1.7 5000021.4362
10.71454 -16.3 1.7 5000021.4362
10.64662 -17.5 1.7 5000019.3986
10.678886666666667 -17.733333333333334 1.7 5000020.3666
10.798403333333333 -12.233333333333333 1.6666666666666667 5000023.9521
10.754146666666667 -13.833333333333334 1.6666666666666667 5000022.6244
10.754146666666667 -13.866666666666667 1.6666666666666667 5000022.6244
10.71454 -14.333333333333334 1.6666666666666667 5000021.4362
10.678886666666667 -14.366666666666667 1.6666666666666667 5000020.3666
10.71454 -16.233333333333334 1.6666666666666667 5000021.4362
10.71454 -16.266666666666666 1.6666666666666667 5000021.4362
10.64662 -16.733333333333334 1.6666666666666667 5000019.3986
10.64662 -16.766666666666666 1.6666666666666667 5000019.3986
10.64662 -16.9 1.6666666666666667 5000019.3986
10.64662 -16.933333333333334 1.6666666666666667 5000019.3986
10.798403333333333 -12.2 1.6333333333333333 5000023.9521
10.798403333333333 -12.233333333333333 1.6333333333333333 5000023.9521
10.754146666666667 -13.833333333333334 1.6333333333333333 5000022.6244
10.754146666666667 -13.866666666666667 1.6333333333333333 5000022.6244
10.71454 -14.366666666666667 1.6333333333333333 5000021.4362
10.71454 -16.2 1.6333333333333333 5000021.4362
10.71454 -16.233333333333334 1.6333333333333333 5000021.4362
10.64662 -16.766666666666666 1.6333333333333333 5000019.3986
10.64662 -16.8 1.6333333333333333 5000019.3986
10.64662 -16.9 1.6333333333333333 5000019.3986
10.64662 -16.933333333333334 1.6333333333333333 5000019.3986
10.64662 -16.966666666666665 1.6333333333333333 5000019.3986
10.678886666666667 -17.8 1.6333333333333333 5000020.3666
10.754146666666667 -13.833333333333334 1.6 5000022.6244
10.71454 -14.4 1.6 5000021.4362
10.71454 -16.166666666666668 1.6 5000021.4362
10.678886666666667 -16.2 1.6 5000020.3666
10.64662 -16.8 1.6 5000019.3986
10.678886666666667 -17.8 1.6 5000020.3666
10.754146666666667 -13.8 1.5666666666666667 5000022.6244
10.754146666666667 -13.833333333333334 1.5666666666666667 5000022.6244
10.754146666666667 -14.166666666666666 1.5666666666666667 5000022.6244
10.71454 -14.4 1.5666666666666667 5000021.4362
10.71454 -16.166666666666668 1.5666666666666667 5000021.4362
10.64662 -16.833333333333332 1.5666666666666667 5000019.3986
10.678886666666667 -17.8 1.5666666666666667 5000020.3666
10.798403333333333 -11.333333333333334 1.5333333333333334 5000023.9521
10.798403333333333 -11.366666666666667 1.5333333333333334 5000023.9521
10.754146666666667 -13.8 1.5333333333333334 5000022.6244
10.71454 -14.033333333333333 1.5333333333333334 5000021.4362
10.71454 -14.4 1.5333333333333334 5000021.4362
10.678886666666667 -16.133333333333333 1.5333333333333334 5000020.3666
10.678886666666667 -16.166666666666668 1.5333333333333334 5000020.3666
10.678886666666667 -16.466666666666665 1.5333333333333334 5000020.3666
10.678886666666667 -16.5 1.5333333333333334 5000020.3666
10.64662 -16.833333333333332 1.5333333333333334 5000019.3986
10.64662 -16.866666666666667 1.5333333333333334 5000019.3986
10.904566666666666 -9.7 1.5 5000027.137
10.798403333333333 -11.333333333333334 1.5 5000023.9521
10.848176666666667 -11.933333333333334 1.5 5000025.4453
10.754146666666667 -13.8 1.5 5000022.6244
10.71454 -14.266666666666667 1.5 5000021.4362
10.71454 -14.3 1.5 5000021.4362
10.71454 -14.433333333333334 1.5 5000021.4362
10.678886666666667 -16.133333333333333 1.5 5000020.3666
10.64662 -16.866666666666667 1.5 5000019.3986
10.754146666666667 -13.9 1.4666666666666666 5000022.6244
10.754146666666667 -13.933333333333334 1.4666666666666666 5000022.6244
10.71454 -14.266666666666667 1.4666666666666666 5000021.4362
10.71454 -14.3 1.4666666666666666 5000021.4362
10.71454 -14.4 1.4666666666666666 5000021.4362
10.71454 -14.433333333333334 1.4666666666666666 5000021.4362
10.678886666666667 -16.133333333333333 1.4666666666666666 5000020.3666
10.678886666666667 -16.166666666666668 1.4666666666666666 5000020.3666
10.678886666666667 -16.4 1.4666666666666666 5000020.3666
10.678886666666667 -16.433333333333334 1.4666666666666666 5000020.3666
10.64662 -16.566666666666666 1.4666666666666666 5000019.3986
10.678886666666667 -16.6 1.4666666666666666 5000020.3666
10.64662 -16.866666666666667 1.4666666666666666 5000019.3986
10.678886666666667 -17.766666666666666 1.4666666666666666 5000020.3666
10.798403333333333 -11.266666666666667 1.4333333333333333 5000023.9521
10.798403333333333 -11.3 1.4333333333333333 5000023.9521
10.754146666666667 -13.9 1.4333333333333333 5000022.6244
10.71454 -14.3 1.4333333333333333 5000021.4362
10.71454 -14.433333333333334 1.4333333333333333 5000021.4362
10.678886666666667 -16.133333333333333 1.4333333333333333 5000020.3666
10.678886666666667 -16.166666666666668 1.4333333333333333 5000020.3666
10.754146666666667 -14.2 1.4 5000022.6244
10.678886666666667 -16.133333333333333 1.4 5000020.3666
10.678886666666667 -16.266666666666666 1.4 5000020.3666
10.678886666666667 -16.3 1.4 5000020.3666
10.64662 -16.7 1.4 5000019.3986
10.64662 -16.733333333333334 1.4 5000019.3986
10.64662 -16.766666666666666 1.4 5000019.3986
10.71454 -17.666666666666668 1.4 5000021.4362
10.678886666666667 -17.7 1.4 5000020.3666
10.678886666666667 -16.266666666666666 1.3666666666666667 5000020.3666
10.678886666666667 -16.3 1.3666666666666667 5000020.3666
10.64662 -16.7 1.3666666666666667 5000019.3986
10.64662 -16.733333333333334 1.3666666666666667 5000019.3986
10.71454 -14.233333333333333 1.3333333333333333 5000021.4362
10.71454 -14.266666666666667 1.3333333333333333 5000021.4362
10.678886666666667 -16.266666666666666 1.3333333333333333 5000020.3666
10.678886666666667 -16.3 1.3333333333333333 5000020.3666
10.798403333333333 -16.533333333333335 1.3333333333333333 5000023.9521
10.798403333333333 -16.566666666666666 1.3333333333333333 5000023.9521
10.798403333333333 -16.6 1.3333333333333333 5000023.9521
10.71454 -14.2 1.3 5000021.4362
10.71454 -14.233333333333333 1.3 5000021.4362
10.71454 -14.266666666666667 1.3 5000021.4362
10.64662 -16.3 1.2666666666666666 5000019.3986
10.64662 -16.333333333333332 1.2666666666666666 5000019.3986
10.678886666666667 -16.433333333333334 1.2666666666666666 5000020.3666
10.71454 -16.466666666666665 1.2666666666666666 5000021.4362
10.678886666666667 -16.366666666666667 1.2333333333333334 5000020.3666
10.71454 -16.566666666666666 1.2333333333333334 5000021.4362
10.71454 -16.6 1.2333333333333334 5000021.4362
10.71454 -16.633333333333333 1.2333333333333334 5000021.4362
10.678886666666667 -16.666666666666668 1.2333333333333334 5000020.3666
10.678886666666667 -16.7 1.2333333333333334 5000020.3666
10.754146666666667 -17.066666666666666 1.2333333333333334 5000022.6244
10.754146666666667 -17.1 1.2333333333333334 5000022.6244
10.71454 -16.6 1.2 5000021.4362
10.71454 -16.633333333333333 1.2 5000021.4362
10.678886666666667 -16.666666666666668 1.2 5000020.3666
10.64662 1.0 1.1666666666666667 5000019.3986
10.64662 -1.7666666666666666 1.1333333333333333 5000019.3986
10.64662 -1.7666666666666666 1.1 5000019.3986
10.56593 -2.9 0.9333333333333333 5000016.9779
10.56593 -2.933333333333333 0.9 5000016.9779
10.56593 -2.933333333333333 0.8666666666666667 5000016.9779
10.438306666666668 -14.4 0.4666666666666667 5000013.1492
10.438306666666668 -14.433333333333334 0.4666666666666667 5000013.1492
10.4529 -15.133333333333333 0.3333333333333333 5000013.587
10.42463 -15.233333333333333 0.3333333333333333 5000012.7389
10.411776666666666 -2.8 0.3 5000012.3533
10.388273333333334 -2.6666666666666665 0.13333333333333333 5000011.6482
10.3775 -16.133333333333333 0.13333333333333333 5000011.325
10.3775 -16.166666666666668 0.13333333333333333 5000011.325
10.3775 -16.2 0.13333333333333333 5000011.325
10.36731 -16.233333333333334 0.13333333333333333 5000011.0193
10.36731 -2.566666666666667 0.03333333333333333 5000011.0193
10.357653333333333 -14.3 0.0 5000010.7296
10.357653333333333 -14.333333333333334 0.0 5000010.7296
10.36731 2.7 -0.1 5000011.0193
10.36731 2.6666666666666665 -0.1 5000011.0193
10.36731 2.6666666666666665 -0.13333333333333333 5000011.0193
10.36731 2.6333333333333333 -0.13333333333333333 5000011.0193
10.357653333333333 2.2333333333333334 -0.16666666666666666 5000010.7296
10.348493333333334 2.0 -0.2 5000010.4548
10.348493333333334 1.9666666666666666 -0.2 5000010.4548
10.348493333333334 1.9333333333333333 -0.2 5000010.4548
10.348493333333334 1.6666666666666667 -0.23333333333333334 5000010.4548
10.348493333333334 1.3 -0.26666666666666666 5000010.4548
10.348493333333334 1.2666666666666666 -0.26666666666666666 5000010.4548
10.348493333333334 1.2333333333333334 -0.26666666666666666 5000010.4548
10.33151 1.1 -0.3 5000009.9453
10.33979 1.0666666666666667 -0.3 5000010.1937
10.33979 1.0333333333333334 -0.3 5000010.1937
10.33979 1.0 -0.3 5000010.1937
10.33979 0.9666666666666667 -0.3 5000010.1937
10.33151 0.7666666666666667 -0.3333333333333333 5000009.9453
10.33151 0.7333333333333333 -0.3333333333333333 5000009.9453
10.33151 0.7 -0.3333333333333333 5000009.9453
10.33151 0.6666666666666666 -0.3333333333333333 5000009.9453
10.323624666666667 0.43333333333333335 -0.36666666666666664 5000009.70874
10.33151 0.3333333333333333 -0.36666666666666664 5000009.9453
10.33151 0.3 -0.36666666666666664 5000009.9453
10.33151 0.26666666666666666 -0.36666666666666664 5000009.9453
10.323624666666667 0.1 -0.4 5000009.70874
10.323624666666667 0.06666666666666667 -0.4 5000009.70874
10.323624666666667 0.0 -0.4 5000009.70874
10.316105666666667 -0.26666666666666666 -0.43333333333333335 5000009.48317
10.33151 -0.36666666666666664 -0.43333333333333335 5000009.9453
10.33151 -0.4 -0.43333333333333335 5000009.9453
10.33151 -0.43333333333333335 -0.43333333333333335 5000009.9453
10.316105666666667 -0.6 -0.4666666666666667 5000009.48317
10.316105666666667 -0.6333333333333333 -0.4666666666666667 5000009.48317
10.316105666666667 -0.6666666666666666 -0.4666666666666667 5000009.48317
10.316105666666667 -0.7 -0.4666666666666667 5000009.48317
10.308928 -0.9666666666666667 -0.5 5000009.26784
10.308928 -1.0 -0.5 5000009.26784
10.308928 -1.0333333333333334 -0.5 5000009.26784
10.316105666666667 -1.0666666666666667 -0.5 5000009.48317
10.316105666666667 -1.1 -0.5 5000009.48317
10.316105666666667 -1.1333333333333333 -0.5 5000009.48317
10.289226333333334 -17.833333333333332 -0.5 5000008.67679
10.289226333333334 -17.866666666666667 -0.5 5000008.67679
10.302069 -1.3333333333333333 -0.5333333333333333 5000009.06207
10.289226333333334 -16.533333333333335 -0.5333333333333333 5000008.67679
10.289226333333334 -16.6 -0.5333333333333333 5000008.67679
10.302069 -1.9666666666666666 -0.6 5000009.06207
10.308928 -0.16666666666666666 -0.7333333333333333 5000009.26784
10.283206 -0.26666666666666666 -0.7333333333333333 5000008.49618
10.283206 -0.26666666666666666 -0.7666666666666667 5000008.49618
10.283206 -0.3 -0.7666666666666667 5000008.49618
10.283206 0.5333333333333333 -0.8 5000008.49618
10.295508333333334 1.0 -0.8333333333333334 5000008.86525
10.295508333333334 0.9666666666666667 -0.8333333333333334 5000008.86525
10.295508333333334 1.4666666666666666 -0.8666666666666667 5000008.86525
10.277431 1.2 -0.8666666666666667 5000008.32293
10.295508333333334 1.8333333333333333 -0.9 5000008.86525
10.295508333333334 1.8 -0.9 5000008.86525
10.295508333333334 1.5 -0.9 5000008.86525
10.277431 2.4 -0.9666666666666667 5000008.32293
10.277431 2.3666666666666667 -0.9666666666666667 5000008.32293
10.26656 -1.7333333333333334 -0.9666666666666667 5000007.9968
10.271887 2.7 -1.0 5000008.15661
10.26656 -1.7 -1.0 5000007.9968
10.26656 -1.7333333333333334 -1.0 5000007.9968
10.256509 -1.6 -1.1333333333333333 5000007.69527
10.251762333333334 -1.5666666666666667 -1.1666666666666667 5000007.55287
10.251762333333334 -1.5333333333333334 -1.2 5000007.55287
10.251762333333334 -1.5666666666666667 -1.2 5000007.55287
10.251762333333334 -1.5333333333333334 -1.2333333333333334 5000007.55287
10.247188333333334 -1.5 -1.2666666666666666 5000007.41565
10.247188333333334 -1.4666666666666666 -1.3 5000007.41565
10.242777333333333 -1.4333333333333333 -1.3333333333333333 5000007.28332
10.242777333333333 -1.4 -1.3666666666666667 5000007.28332
10.238521333333333 -1.3666666666666667 -1.4 5000007.15564
10.238521333333333 -1.3333333333333333 -1.4333333333333333 5000007.15564
10.238521333333333 -1.3666666666666667 -1.4333333333333333 5000007.15564
10.238521333333333 -1.4 -1.4333333333333333 5000007.15564
10.238521333333333 -1.4333333333333333 -1.4333333333333333 5000007.15564
10.238521333333333 -1.4666666666666666 -1.4333333333333333 5000007.15564
10.238521333333333 -1.3666666666666667 -1.4666666666666666 5000007.15564
10.238521333333333 -1.4 -1.4666666666666666 5000007.15564
10.238521333333333 -1.4333333333333333 -1.4666666666666666 5000007.15564
10.234411666666666 -1.4666666666666666 -1.4666666666666666 5000007.03235
10.234411666666666 -1.5333333333333334 -1.4666666666666666 5000007.03235
10.234411666666666 -1.5666666666666667 -1.4666666666666666 5000007.03235
10.234411666666666 -1.6 -1.4666666666666666 5000007.03235
10.230441333333333 -1.6333333333333333 -1.4666666666666666 5000006.91324
10.206015666666667 -0.8333333333333334 -2.1 5000006.18047
10.206015666666667 -0.8666666666666667 -2.1 5000006.18047
10.206015666666667 -0.9 -2.1 5000006.18047
10.206015666666667 -0.9333333333333333 -2.1 5000006.18047
10.206015666666667 -0.9666666666666667 -2.1 5000006.18047
10.202942666666667 -1.0333333333333334 -2.1 5000006.08828
10.202942666666667 -1.0666666666666667 -2.1 5000006.08828
10.202942666666667 -1.1 -2.1 5000006.08828
10.202942666666667 -1.1666666666666667 -2.1 5000006.08828
10.19996 -0.7 -2.1666666666666665 5000005.9988
10.19996 -0.7333333333333333 -2.1666666666666665 5000005.9988
10.197063666666667 -0.7 -2.2 5000005.91191
10.197063666666667 -0.6666666666666666 -2.2333333333333334 5000005.91191
10.197063666666667 -0.6333333333333333 -2.2666666666666666 5000005.91191
10.197063666666667 -0.6666666666666666 -2.2666666666666666 5000005.91191
10.194250333333333 -0.5666666666666667 -2.3333333333333335 5000005.82751
10.194250333333333 -0.6 -2.3333333333333335 5000005.82751
10.191516 -0.5 -2.4 5000005.74548
10.188857333333333 -0.4666666666666667 -2.433333333333333 5000005.66572
10.186271666666666 -0.43333333333333335 -2.466666666666667 5000005.58815
10.186271666666666 -0.4666666666666667 -2.466666666666667 5000005.58815
10.186271666666666 -0.43333333333333335 -2.5 5000005.58815
10.186271666666666 -0.7 -2.5 5000005.58815
10.186271666666666 -0.4 -2.533333333333333 5000005.58815
10.186271666666666 -0.43333333333333335 -2.533333333333333 5000005.58815
10.186271666666666 -0.36666666666666664 -2.566666666666667 5000005.58815
10.186271666666666 -0.3 -2.6333333333333333 5000005.58815
10.178923 -0.2 -2.7333333333333334 5000005.36769
10.178923 -0.16666666666666666 -2.7666666666666666 5000005.36769
10.178923 -0.13333333333333333 -2.8 5000005.36769
10.178923 -0.16666666666666666 -2.8 5000005.36769
10.176600333333333 -0.6333333333333333 -2.8 5000005.29801
10.176600333333333 -0.13333333333333333 -2.8333333333333335 5000005.29801
10.176600333333333 -0.16666666666666666 -2.8333333333333335 5000005.29801
10.174337666666666 -0.1 -2.8666666666666667 5000005.23013
10.174337666666666 -0.06666666666666667 -2.9 5000005.23013
10.174337666666666 -0.1 -2.9 5000005.23013
10.169981333333334 0.0 -3.033333333333333 5000005.09944
10.169981333333334 -0.03333333333333333 -3.033333333333333 5000005.09944
10.169981333333334 -0.06666666666666667 -3.033333333333333 5000005.09944
10.169981333333334 -0.1 -3.033333333333333 5000005.09944
10.174337666666666 -0.23333333333333334 -3.033333333333333 5000005.23013
10.174337666666666 -0.26666666666666666 -3.033333333333333 5000005.23013
10.174337666666666 -0.3 -3.033333333333333 5000005.23013
10.172132 -0.3333333333333333 -3.033333333333333 5000005.16396
10.169981333333334 -0.36666666666666664 -3.033333333333333 5000005.09944
10.169981333333334 -0.4 -3.033333333333333 5000005.09944
