VERSION .7
FIELDS x y z rgb
SIZE 4 4 4 4
TYPE F F F F
COUNT 1 1 1 1
WIDTH 1120
HEIGHT 1
VIEWPOINT 0 0 0 1 0 0 0
POINTS 1120
DATA ascii
20.4822 -6.66 0.68 5000027.137
20.4822 -6.68 0.68 5000027.137
22.97934 -1.4 0.66 5000031.2989
20.4822 -5.94 0.66 5000027.137
21.64188 -6.5 0.66 5000029.0698
20.4822 -6.66 0.66 5000027.137
20.4822 -6.68 0.66 5000027.137
22.97934 -3.56 0.64 5000031.2989
20.4822 -5.94 0.64 5000027.137
17.06172 -6.22 0.64 5000021.4362
21.64188 -6.5 0.64 5000029.0698
20.4822 -6.66 0.64 5000027.137
22.97934 -3.56 0.62 5000031.2989
21.64188 -5.08 0.62 5000029.0698
18.57126 -5.16 0.62 5000023.9521
20.4822 -5.94 0.62 5000027.137
22.97934 -3.56 0.6 5000031.2989
21.64188 -5.08 0.6 5000029.0698
20.4822 -5.94 0.6 5000027.137
17.06172 -6.22 0.6 5000021.4362
22.97934 -3.56 0.58 5000031.2989
20.4822 -6.66 0.58 5000027.137
20.4822 -6.68 0.58 5000027.137
22.97934 -3.56 0.56 5000031.2989
21.64188 -5.08 0.56 5000029.0698
18.57126 -5.16 0.56 5000023.9521
17.06172 -6.22 0.56 5000021.4362
22.97934 -3.56 0.54 5000031.2989
21.64188 -5.08 0.54 5000029.0698
20.4822 -5.94 0.54 5000027.137
22.97934 -3.56 0.52 5000031.2989
22.97934 -4.3 0.5 5000031.2989
21.64188 -5.08 0.5 5000029.0698
17.77464 -6.14 0.5 5000022.6244
17.77464 -6.16 0.5 5000022.6244
22.97934 -3.56 0.48 5000031.2989
21.64188 -5.08 0.48 5000029.0698
17.77464 -5.14 0.48 5000022.6244
17.77464 -5.16 0.48 5000022.6244
17.77464 -5.32 0.48 5000022.6244
24.53898 -0.34 0.46 5000033.8983
22.97934 -3.56 0.46 5000031.2989
17.77464 -5.32 0.46 5000022.6244
17.77464 -5.34 0.46 5000022.6244
22.97934 -3.56 0.44 5000031.2989
17.77464 -5.18 0.44 5000022.6244
17.77464 -5.2 0.44 5000022.6244
17.77464 -5.32 0.44 5000022.6244
17.77464 -5.34 0.44 5000022.6244
19.467180000000003 -6.06 0.44 5000025.4453
19.467180000000003 -6.08 0.44 5000025.4453
19.467180000000003 -6.1 0.44 5000025.4453
34.65684 -2.5 0.42 5000050.7614
34.65684 -2.52 0.42 5000050.7614
34.65684 -2.54 0.42 5000050.7614
21.64188 -2.62 0.42 5000029.0698
21.64188 -2.64 0.42 5000029.0698
21.64188 -2.66 0.42 5000029.0698
17.77464 -5.34 0.42 5000022.6244
34.65684 -2.5 0.4 5000050.7614
34.65684 -2.52 0.4 5000050.7614
17.77464 -5.34 0.4 5000022.6244
17.77464 -6.36 0.4 5000022.6244
17.77464 -6.38 0.4 5000022.6244
17.77464 -6.4 0.4 5000022.6244
21.64188 -5.08 0.38 5000029.0698
17.77464 -5.18 0.38 5000022.6244
17.77464 -6.36 0.38 5000022.6244
17.77464 -6.4 0.38 5000022.6244
38.9826 -2.62 0.36 5000057.971
21.64188 -5.08 0.36 5000029.0698
17.77464 -5.18 0.36 5000022.6244
17.77464 -5.2 0.36 5000022.6244
17.06172 -6.0 0.36 5000021.4362
21.64188 -5.08 0.34 5000029.0698
21.64188 -4.26 0.32 5000029.0698
21.64188 -5.08 0.32 5000029.0698
17.77464 -5.18 0.32 5000022.6244
28.590239999999998 -0.34 0.3 5000040.6504
21.64188 -4.26 0.3 5000029.0698
21.64188 -4.28 0.3 5000029.0698
21.64188 -5.08 0.3 5000029.0698
19.467180000000003 -6.08 0.3 5000025.4453
19.467180000000003 -6.1 0.3 5000025.4453
21.64188 -5.08 0.28 5000029.0698
20.4822 -5.94 0.28 5000027.137
22.97934 -3.48 0.26 5000031.2989
22.97934 -3.5 0.26 5000031.2989
22.97934 -3.5 0.24 5000031.2989
22.97934 -4.26 0.24 5000031.2989
17.77464 -5.14 0.24 5000022.6244
17.77464 -5.16 0.24 5000022.6244
22.97934 -3.5 0.22 5000031.2989
21.64188 -5.08 0.22 5000029.0698
20.4822 -6.72 0.22 5000027.137
17.77464 -5.18 0.2 5000022.6244
17.77464 -5.2 0.2 5000022.6244
20.4822 -6.72 0.2 5000027.137
22.97934 -3.5 0.18 5000031.2989
24.53898 -2.8 0.16 5000033.8983
22.97934 -3.5 0.16 5000031.2989
22.97934 -5.08 0.14 5000031.2989
20.4822 -6.72 0.14 5000027.137
18.57126 -5.16 0.06 5000023.9521
22.97934 -4.26 0.04 5000031.2989
18.57126 -5.16 0.04 5000023.9521
17.06172 -6.16 0.04 5000021.4362
22.97934 -4.26 0.02 5000031.2989
18.57126 -5.16 0.02 5000023.9521
17.06172 -6.14 0.02 5000021.4362
17.06172 -6.16 0.02 5000021.4362
17.06172 -6.24 0.02 5000021.4362
18.57126 -5.16 0.0 5000023.9521
18.57126 -5.18 0.0 5000023.9521
20.4822 -5.96 0.0 5000027.137
17.06172 -6.16 0.0 5000021.4362
17.06172 -6.24 0.0 5000021.4362
52.78302 5.62 -0.02 5000080.9717
20.4822 -5.96 -0.02 5000027.137
16.419959999999996 3.34 -0.04 5000020.3666
34.65684 2.24 -0.04 5000050.7614
18.57126 -5.18 -0.04 5000023.9521
16.419959999999996 3.34 -0.06 5000020.3666
22.97934 -4.26 -0.06 5000031.2989
18.57126 -5.16 -0.06 5000023.9521
20.4822 -5.96 -0.06 5000027.137
20.4822 -5.96 -0.08 5000027.137
22.97934 -4.26 -0.12 5000031.2989
20.4822 -5.96 -0.12 5000027.137
15.83916 3.3 -0.14 5000019.3986
18.57126 -5.16 -0.16 5000023.9521
20.4822 -5.96 -0.16 5000027.137
20.4822 -6.68 -0.18 5000027.137
17.77464 -5.18 -0.2 5000022.6244
20.4822 -6.68 -0.2 5000027.137
20.4822 -6.7 -0.2 5000027.137
17.77464 -5.18 -0.22 5000022.6244
17.06172 -6.24 -0.22 5000021.4362
17.06172 -6.26 -0.22 5000021.4362
20.4822 -6.68 -0.22 5000027.137
20.4822 -6.7 -0.22 5000027.137
17.77464 -5.16 -0.24 5000022.6244
17.77464 -5.18 -0.24 5000022.6244
17.77464 -5.2 -0.24 5000022.6244
17.77464 -5.36 -0.24 5000022.6244
17.06172 -6.24 -0.24 5000021.4362
17.06172 -6.26 -0.24 5000021.4362
20.4822 -6.68 -0.24 5000027.137
20.4822 -6.7 -0.24 5000027.137
17.77464 -5.18 -0.26 5000022.6244
17.77464 -5.2 -0.26 5000022.6244
17.77464 -5.36 -0.26 5000022.6244
17.77464 -5.38 -0.26 5000022.6244
17.06172 -6.24 -0.26 5000021.4362
17.06172 -6.26 -0.26 5000021.4362
20.4822 -6.68 -0.26 5000027.137
20.4822 -6.7 -0.26 5000027.137
17.77464 -6.24 -0.28 5000022.6244
17.77464 -6.26 -0.28 5000022.6244
20.4822 -6.68 -0.28 5000027.137
20.4822 -6.7 -0.28 5000027.137
21.64188 -5.1 -0.3 5000029.0698
20.4822 -5.96 -0.3 5000027.137
17.77464 -6.24 -0.3 5000022.6244
17.77464 -6.26 -0.3 5000022.6244
20.4822 -6.68 -0.3 5000027.137
20.4822 -6.7 -0.3 5000027.137
24.53898 -2.74 -0.32 5000033.8983
21.64188 -5.1 -0.32 5000029.0698
20.4822 -5.96 -0.32 5000027.137
17.77464 -6.24 -0.32 5000022.6244
17.77464 -6.26 -0.32 5000022.6244
20.4822 -6.68 -0.32 5000027.137
20.4822 -6.7 -0.32 5000027.137
24.53898 -2.74 -0.34 5000033.8983
22.97934 -4.26 -0.34 5000031.2989
22.97934 -4.28 -0.34 5000031.2989
21.64188 -5.1 -0.34 5000029.0698
20.4822 -5.96 -0.34 5000027.137
17.77464 -6.24 -0.34 5000022.6244
17.77464 -6.26 -0.34 5000022.6244
19.467180000000003 -6.68 -0.34 5000025.4453
19.467180000000003 -6.7 -0.34 5000025.4453
22.97934 -3.46 -0.36 5000031.2989
22.97934 -4.26 -0.36 5000031.2989
22.97934 -4.28 -0.36 5000031.2989
20.4822 -5.96 -0.36 5000027.137
17.77464 -6.24 -0.36 5000022.6244
17.77464 -6.26 -0.36 5000022.6244
19.467180000000003 -6.68 -0.36 5000025.4453
19.467180000000003 -6.7 -0.36 5000025.4453
34.65684 5.54 -0.38 5000050.7614
22.97934 -2.82 -0.38 5000031.2989
22.97934 -3.46 -0.38 5000031.2989
20.4822 -5.96 -0.38 5000027.137
17.77464 -6.24 -0.38 5000022.6244
17.77464 -6.26 -0.38 5000022.6244
19.467180000000003 -6.7 -0.38 5000025.4453
34.65684 5.58 -0.4 5000050.7614
22.97934 -4.22 -0.4 5000031.2989
17.77464 -5.36 -0.4 5000022.6244
20.4822 -5.96 -0.4 5000027.137
17.77464 -6.24 -0.4 5000022.6244
17.77464 -6.26 -0.4 5000022.6244
19.467180000000003 -6.7 -0.4 5000025.4453
34.65684 5.6 -0.42 5000050.7614
18.57126 -3.04 -0.42 5000023.9521
18.57126 -3.06 -0.42 5000023.9521
22.97934 -4.22 -0.42 5000031.2989
22.97934 -4.32 -0.42 5000031.2989
22.97934 -4.34 -0.42 5000031.2989
17.77464 -5.36 -0.42 5000022.6244
17.77464 -5.38 -0.42 5000022.6244
20.4822 -5.96 -0.42 5000027.137
18.57126 -6.12 -0.42 5000023.9521
17.77464 -6.24 -0.42 5000022.6244
31.28802 4.92 -0.44 5000045.1467
22.97934 -4.22 -0.44 5000031.2989
21.64188 -5.88 -0.44 5000029.0698
22.97934 -4.22 -0.46 5000031.2989
20.4822 -5.96 -0.46 5000027.137
18.57126 -3.1 -0.48 5000023.9521
18.57126 -3.12 -0.48 5000023.9521
21.64188 -5.1 -0.48 5000029.0698
20.4822 -5.96 -0.48 5000027.137
34.65684 5.74 -0.5 5000050.7614
18.57126 -3.08 -0.5 5000023.9521
18.57126 -3.1 -0.5 5000023.9521
21.64188 -5.1 -0.5 5000029.0698
20.4822 -5.96 -0.5 5000027.137
34.65684 5.76 -0.52 5000050.7614
18.57126 -3.08 -0.52 5000023.9521
18.57126 -3.1 -0.52 5000023.9521
21.64188 -5.1 -0.52 5000029.0698
19.467180000000003 -6.1 -0.52 5000025.4453
17.06172 -6.24 -0.52 5000021.4362
17.06172 -6.26 -0.52 5000021.4362
17.06172 -6.28 -0.52 5000021.4362
20.4822 -6.7 -0.52 5000027.137
18.57126 -3.1 -0.54 5000023.9521
18.57126 -3.12 -0.54 5000023.9521
17.06172 -6.24 -0.54 5000021.4362
17.06172 -6.26 -0.54 5000021.4362
17.06172 -6.28 -0.54 5000021.4362
20.4822 -6.7 -0.54 5000027.137
17.06172 -6.26 -0.56 5000021.4362
20.4822 -6.7 -0.56 5000027.137
31.28802 5.72 -0.58 5000045.1467
17.77464 -3.12 -0.58 5000022.6244
17.77464 -3.14 -0.58 5000022.6244
16.419959999999996 -5.6 -0.58 5000020.3666
20.4822 -6.7 -0.58 5000027.137
17.77464 -3.14 -0.6 5000022.6244
17.77464 -3.16 -0.6 5000022.6244
16.419959999999996 -5.58 -0.6 5000020.3666
16.419959999999996 -5.6 -0.6 5000020.3666
20.4822 -6.7 -0.6 5000027.137
15.83916 3.4 -0.62 5000019.3986
17.77464 -3.16 -0.62 5000022.6244
17.77464 -3.18 -0.62 5000022.6244
21.64188 -4.28 -0.62 5000029.0698
16.419959999999996 -5.58 -0.62 5000020.3666
20.4822 -6.7 -0.62 5000027.137
15.83916 3.4 -0.64 5000019.3986
17.77464 -3.18 -0.64 5000022.6244
16.419959999999996 -5.58 -0.64 5000020.3666
15.3111 -6.32 -0.64 5000018.5185
20.4822 -6.7 -0.64 5000027.137
15.83916 3.4 -0.66 5000019.3986
14.82888 -6.38 -0.66 5000017.7148
20.4822 -6.7 -0.66 5000027.137
28.590239999999998 4.58 -0.68 5000040.6504
15.83916 3.4 -0.68 5000019.3986
16.419959999999996 -5.56 -0.68 5000020.3666
16.419959999999996 -5.58 -0.68 5000020.3666
15.83916 -6.16 -0.68 5000019.3986
14.82888 -6.42 -0.68 5000017.7148
14.82888 -6.44 -0.68 5000017.7148
20.4822 -6.7 -0.68 5000027.137
28.590239999999998 4.24 -0.7 5000040.6504
15.83916 3.4 -0.7 5000019.3986
17.77464 -3.2 -0.7 5000022.6244
16.419959999999996 -5.56 -0.7 5000020.3666
15.83916 -6.16 -0.7 5000019.3986
14.82888 -6.46 -0.7 5000017.7148
20.4822 -6.7 -0.7 5000027.137
15.83916 3.4 -0.72 5000019.3986
17.77464 -3.2 -0.72 5000022.6244
22.97934 -4.22 -0.72 5000031.2989
22.97934 -4.24 -0.72 5000031.2989
16.419959999999996 -5.46 -0.72 5000020.3666
16.419959999999996 -5.56 -0.72 5000020.3666
15.83916 -6.14 -0.72 5000019.3986
14.82888 -6.52 -0.72 5000017.7148
20.4822 -6.7 -0.72 5000027.137
20.4822 -6.72 -0.72 5000027.137
22.97934 -4.22 -0.74 5000031.2989
22.97934 -4.24 -0.74 5000031.2989
16.419959999999996 -5.04 -0.74 5000020.3666
16.419959999999996 -5.54 -0.74 5000020.3666
16.419959999999996 -5.56 -0.74 5000020.3666
15.83916 -6.12 -0.74 5000019.3986
15.83916 -6.14 -0.74 5000019.3986
14.82888 -6.52 -0.74 5000017.7148
14.82888 -6.54 -0.74 5000017.7148
14.82888 -6.56 -0.74 5000017.7148
15.83916 3.4 -0.76 5000019.3986
17.77464 -3.4 -0.76 5000022.6244
17.77464 -3.42 -0.76 5000022.6244
16.419959999999996 -5.04 -0.76 5000020.3666
16.419959999999996 -5.44 -0.76 5000020.3666
16.419959999999996 -5.54 -0.76 5000020.3666
16.419959999999996 -5.56 -0.76 5000020.3666
16.419959999999996 3.4 -0.78 5000020.3666
17.77464 -3.42 -0.78 5000022.6244
17.06172 -4.94 -0.78 5000021.4362
17.06172 -4.96 -0.78 5000021.4362
15.83916 -6.64 -0.78 5000019.3986
16.419959999999996 3.4 -0.8 5000020.3666
17.06172 -4.96 -0.8 5000021.4362
16.419959999999996 -4.98 -0.8 5000020.3666
16.419959999999996 -5.0 -0.8 5000020.3666
15.83916 -6.64 -0.8 5000019.3986
16.419959999999996 3.4 -0.82 5000020.3666
16.419959999999996 -5.0 -0.82 5000020.3666
15.83916 -5.02 -0.82 5000019.3986
15.83916 -6.62 -0.82 5000019.3986
15.83916 -6.64 -0.82 5000019.3986
16.419959999999996 -6.74 -0.82 5000020.3666
16.419959999999996 3.4 -0.84 5000020.3666
22.97934 -4.16 -0.84 5000031.2989
15.83916 -6.62 -0.84 5000019.3986
15.83916 -6.64 -0.84 5000019.3986
16.419959999999996 3.4 -0.86 5000020.3666
15.83916 -6.62 -0.86 5000019.3986
15.83916 -6.62 -0.88 5000019.3986
15.83916 -6.64 -0.88 5000019.3986
17.77464 -2.96 -0.9 5000022.6244
21.64188 -3.94 -0.9 5000029.0698
15.83916 -6.62 -0.9 5000019.3986
17.77464 -2.96 -0.92 5000022.6244
21.64188 -3.94 -0.92 5000029.0698
17.06172 -4.54 -0.96 5000021.4362
16.419959999999996 -4.74 -0.96 5000020.3666
17.06172 -4.48 -0.98 5000021.4362
17.06172 -4.5 -0.98 5000021.4362
16.419959999999996 -4.74 -0.98 5000020.3666
16.419959999999996 -4.76 -0.98 5000020.3666
16.419959999999996 -6.0 -0.98 5000020.3666
16.419959999999996 -6.02 -0.98 5000020.3666
15.83916 -6.74 -0.98 5000019.3986
17.06172 -4.46 -1.0 5000021.4362
17.06172 -4.48 -1.0 5000021.4362
16.419959999999996 -4.78 -1.0 5000020.3666
16.419959999999996 -5.96 -1.0 5000020.3666
16.419959999999996 -5.98 -1.0 5000020.3666
16.419959999999996 -6.0 -1.0 5000020.3666
15.83916 -6.26 -1.0 5000019.3986
15.83916 -6.28 -1.0 5000019.3986
18.57126 -3.44 -1.02 5000023.9521
18.57126 -3.46 -1.02 5000023.9521
17.06172 -4.46 -1.02 5000021.4362
17.06172 -4.48 -1.02 5000021.4362
16.419959999999996 -4.8 -1.02 5000020.3666
15.83916 -6.28 -1.02 5000019.3986
15.83916 -6.3 -1.02 5000019.3986
15.3111 -6.36 -1.02 5000018.5185
15.3111 -6.38 -1.02 5000018.5185
15.3111 -6.4 -1.02 5000018.5185
15.3111 -6.42 -1.02 5000018.5185
17.06172 -4.44 -1.04 5000021.4362
17.06172 -4.46 -1.04 5000021.4362
16.419959999999996 -4.8 -1.04 5000020.3666
16.419959999999996 -5.92 -1.04 5000020.3666
16.419959999999996 -5.94 -1.04 5000020.3666
16.419959999999996 -5.96 -1.04 5000020.3666
15.3111 -6.3 -1.04 5000018.5185
15.3111 -6.32 -1.04 5000018.5185
15.3111 -6.4 -1.04 5000018.5185
17.06172 -4.44 -1.06 5000021.4362
17.06172 -4.46 -1.06 5000021.4362
16.419959999999996 -4.6 -1.06 5000020.3666
17.06172 -4.62 -1.06 5000021.4362
16.419959999999996 -5.92 -1.06 5000020.3666
16.419959999999996 -5.94 -1.06 5000020.3666
18.57126 -2.9 -1.08 5000023.9521
18.57126 -2.92 -1.08 5000023.9521
17.06172 -4.44 -1.08 5000021.4362
17.06172 -4.46 -1.08 5000021.4362
16.419959999999996 -4.58 -1.08 5000020.3666
16.419959999999996 -4.66 -1.08 5000020.3666
17.06172 -4.68 -1.08 5000021.4362
16.419959999999996 -4.82 -1.08 5000020.3666
16.419959999999996 -5.92 -1.08 5000020.3666
15.83916 -6.2 -1.08 5000019.3986
15.3111 -6.34 -1.08 5000018.5185
15.3111 -6.36 -1.08 5000018.5185
18.57126 -2.9 -1.1 5000023.9521
19.467180000000003 -3.26 -1.1 5000025.4453
17.06172 -4.44 -1.1 5000021.4362
16.419959999999996 -4.82 -1.1 5000020.3666
15.83916 -5.9 -1.1 5000019.3986
15.83916 -5.92 -1.1 5000019.3986
15.83916 -6.1 -1.1 5000019.3986
15.83916 -6.12 -1.1 5000019.3986
17.06172 -4.44 -1.12 5000021.4362
17.06172 -4.72 -1.12 5000021.4362
17.06172 -4.74 -1.12 5000021.4362
17.06172 -4.76 -1.12 5000021.4362
15.83916 -5.9 -1.12 5000019.3986
15.83916 -5.92 -1.12 5000019.3986
15.83916 -6.18 -1.12 5000019.3986
15.83916 -6.2 -1.12 5000019.3986
15.3111 -6.36 -1.12 5000018.5185
18.57126 -2.86 -1.14 5000023.9521
18.57126 -2.88 -1.14 5000023.9521
16.419959999999996 -4.5 -1.14 5000020.3666
16.419959999999996 -4.52 -1.14 5000020.3666
16.419959999999996 -4.82 -1.14 5000020.3666
16.419959999999996 -4.84 -1.14 5000020.3666
15.83916 -5.9 -1.14 5000019.3986
15.83916 -6.0 -1.14 5000019.3986
15.83916 -6.08 -1.14 5000019.3986
15.83916 -6.1 -1.14 5000019.3986
15.83916 -6.18 -1.14 5000019.3986
15.83916 -6.2 -1.14 5000019.3986
16.419959999999996 -4.52 -1.16 5000020.3666
15.83916 -5.9 -1.16 5000019.3986
15.83916 -5.92 -1.16 5000019.3986
15.83916 -6.0 -1.16 5000019.3986
15.83916 -6.26 -1.16 5000019.3986
16.419959999999996 -4.52 -1.18 5000020.3666
15.83916 -5.9 -1.18 5000019.3986
15.83916 -5.92 -1.18 5000019.3986
15.83916 -6.0 -1.18 5000019.3986
15.83916 -6.24 -1.18 5000019.3986
15.83916 -6.26 -1.18 5000019.3986
15.83916 -6.28 -1.18 5000019.3986
15.3111 -6.3 -1.18 5000018.5185
21.64188 -4.6 -1.2 5000029.0698
15.83916 -6.28 -1.2 5000019.3986
17.06172 -4.7 -1.22 5000021.4362
17.06172 -4.72 -1.22 5000021.4362
15.83916 -6.0 -1.22 5000019.3986
17.77464 -6.18 -1.22 5000022.6244
17.06172 -4.68 -1.24 5000021.4362
17.06172 -4.7 -1.24 5000021.4362
17.06172 -4.72 -1.24 5000021.4362
15.83916 -6.0 -1.24 5000019.3986
15.83916 -6.02 -1.24 5000019.3986
15.83916 -6.04 -1.26 5000019.3986
15.83916 -6.08 -1.26 5000019.3986
16.419959999999996 -6.1 -1.26 5000020.3666
16.419959999999996 -6.22 -1.26 5000020.3666
16.419959999999996 -6.18 -1.28 5000020.3666
16.419959999999996 -6.2 -1.28 5000020.3666
16.419959999999996 -6.22 -1.28 5000020.3666
16.419959999999996 -6.24 -1.28 5000020.3666
17.06172 -6.48 -1.28 5000021.4362
17.06172 -6.5 -1.28 5000021.4362
16.419959999999996 -6.18 -1.3 5000020.3666
16.419959999999996 -6.2 -1.3 5000020.3666
16.419959999999996 -6.22 -1.3 5000020.3666
15.83916 3.04 -1.34 5000019.3986
13.979940000000001 2.32 -1.5 5000016.2999
13.979940000000001 2.32 -1.52 5000016.2999
11.61198 -4.9 -1.78 5000012.3533
11.61198 -4.92 -1.78 5000012.3533
11.61198 -4.94 -1.78 5000012.3533
10.811580000000001 -6.06 -2.0 5000011.0193
10.811580000000001 -6.08 -2.0 5000011.0193
10.811580000000001 -6.1 -2.02 5000011.0193
10.637759999999998 2.64 -2.06 5000010.7296
10.811580000000001 -4.84 -2.1 5000011.0193
10.316220000000001 -4.9 -2.1 5000010.1937
10.16718 -4.94 -2.1 5000009.9453
10.16718 -4.96 -2.1 5000009.9453
10.316220000000001 5.56 -2.22 5000010.1937
10.316220000000001 5.54 -2.22 5000010.1937
10.16718 5.42 -2.24 5000009.9453
10.16718 5.26 -2.26 5000009.9453
10.16718 5.24 -2.26 5000009.9453
10.16718 5.22 -2.26 5000009.9453
10.16718 5.2 -2.26 5000009.9453
10.16718 5.16 -2.26 5000009.9453
10.025244 5.12 -2.28 5000009.70874
10.025244 5.1 -2.28 5000009.70874
10.025244 5.08 -2.28 5000009.70874
10.16718 5.06 -2.28 5000009.9453
10.16718 5.04 -2.28 5000009.9453
10.16718 5.02 -2.28 5000009.9453
9.889902000000001 4.94 -2.3 5000009.48317
9.889902000000001 4.92 -2.3 5000009.48317
9.889902000000001 4.9 -2.3 5000009.48317
10.025244 4.88 -2.3 5000009.70874
10.025244 4.86 -2.3 5000009.70874
9.889902000000001 4.78 -2.32 5000009.48317
9.889902000000001 4.76 -2.32 5000009.48317
10.025244 4.7 -2.32 5000009.70874
10.025244 4.68 -2.32 5000009.70874
10.025244 4.66 -2.32 5000009.70874
9.889902000000001 4.54 -2.34 5000009.48317
9.889902000000001 4.52 -2.34 5000009.48317
10.025244 4.48 -2.34 5000009.70874
9.760704 4.38 -2.36 5000009.26784
9.889902000000001 4.36 -2.36 5000009.48317
9.889902000000001 4.34 -2.36 5000009.48317
9.889902000000001 4.32 -2.36 5000009.48317
9.637241999999999 4.2 -2.38 5000009.06207
9.760704 4.18 -2.38 5000009.26784
9.760704 4.16 -2.38 5000009.26784
9.760704 4.14 -2.38 5000009.26784
9.760704 4.12 -2.38 5000009.26784
9.637241999999999 4.04 -2.4 5000009.06207
9.637241999999999 4.02 -2.4 5000009.06207
9.637241999999999 4.0 -2.4 5000009.06207
9.760704 3.98 -2.4 5000009.26784
9.760704 3.96 -2.4 5000009.26784
9.760704 3.94 -2.4 5000009.26784
9.406074 3.9 -2.42 5000008.67679
9.406074 3.88 -2.42 5000008.67679
9.760704 3.72 -2.42 5000009.26784
9.760704 3.7 -2.42 5000009.26784
9.406074 3.64 -2.44 5000008.67679
9.51915 3.62 -2.44 5000008.86525
9.51915 3.6 -2.44 5000008.86525
9.51915 3.58 -2.44 5000008.86525
9.297708 3.5 -2.46 5000008.49618
9.297708 3.48 -2.46 5000008.49618
9.297708 3.46 -2.46 5000008.49618
9.637241999999999 3.34 -2.52 5000009.06207
9.406074 3.26 -2.52 5000008.67679
9.760704 4.1 -2.58 5000009.26784
9.406074 4.0 -2.58 5000008.67679
8.99808 4.18 -2.62 5000007.9968
8.99808 4.16 -2.62 5000007.9968
9.193757999999999 4.68 -2.64 5000008.32293
9.297708 4.96 -2.66 5000008.49618
9.093966 5.38 -2.7 5000008.15661
9.093966 5.32 -2.7 5000008.15661
8.64939 3.26 -2.76 5000007.41565
8.569992 3.26 -2.78 5000007.28332
8.569992 3.28 -2.8 5000007.28332
8.569992 3.26 -2.8 5000007.28332
8.569992 3.3 -2.82 5000007.28332
8.419410000000001 3.36 -2.88 5000007.03235
8.419410000000001 3.38 -2.9 5000007.03235
8.347944 3.38 -2.92 5000006.91324
8.347944 3.4 -2.94 5000006.91324
8.347944 3.42 -2.96 5000006.91324
8.27886 3.44 -2.98 5000006.7981
8.27886 3.46 -3.0 5000006.7981
8.27886 3.48 -3.02 5000006.7981
8.212038 3.5 -3.04 5000006.68673
8.084754 3.56 -3.1 5000006.47459
8.084754 3.56 -3.12 5000006.47459
8.084754 3.54 -3.12 5000006.47459
8.084754 3.5 -3.12 5000006.47459
8.27886 3.48 -3.12 5000006.7981
8.27886 3.46 -3.12 5000006.7981
8.212038 3.44 -3.12 5000006.68673
8.147369999999999 3.42 -3.12 5000006.57895
8.024094 3.4 -3.12 5000006.37349
8.084754 3.56 -3.14 5000006.47459
8.084754 3.54 -3.14 5000006.47459
8.084754 3.52 -3.14 5000006.47459
8.084754 3.5 -3.14 5000006.47459
8.212038 3.44 -3.14 5000006.68673
8.147369999999999 3.42 -3.14 5000006.57895
8.024094 3.4 -3.14 5000006.37349
8.024094 3.38 -3.14 5000006.37349
7.6472880000000005 3.88 -3.6 5000005.74548
7.599432 3.8 -3.6 5000005.66572
7.599432 3.76 -3.6 5000005.66572
7.552889999999999 3.74 -3.6 5000005.58815
7.552889999999999 3.72 -3.6 5000005.58815
7.507607999999999 4.0 -3.62 5000005.51268
7.507607999999999 3.98 -3.62 5000005.51268
7.507607999999999 3.96 -3.62 5000005.51268
7.420614 4.08 -3.66 5000005.36769
7.420614 4.06 -3.66 5000005.36769
7.420614 4.1 -3.68 5000005.36769
7.420614 4.08 -3.68 5000005.36769
7.420614 4.1 -3.7 5000005.36769
7.378806 4.14 -3.74 5000005.29801
7.298376 4.2 -3.8 5000005.16396
7.298376 4.18 -3.8 5000005.16396
7.221906000000001 4.26 -3.86 5000005.03651
7.221906000000001 4.24 -3.86 5000005.03651
7.221906000000001 4.28 -3.88 5000005.03651
7.221906000000001 4.32 -3.92 5000005.03651
7.185072 4.34 -3.94 5000004.97512
7.185072 4.32 -3.94 5000004.97512
7.114037999999999 4.36 -3.98 5000004.85673
7.114037999999999 4.36 -4.0 5000004.85673
7.013598 4.54 -4.14 5000004.68933
7.013598 4.52 -4.14 5000004.68933
7.013598 4.54 -4.16 5000004.68933
7.013598 4.52 -4.16 5000004.68933
6.981642 4.56 -4.18 5000004.63607
7.013598 4.52 -4.18 5000004.68933
6.981642 4.58 -4.2 5000004.63607
6.981642 4.56 -4.2 5000004.63607
6.9504 4.6 -4.22 5000004.584
6.9504 4.58 -4.22 5000004.584
6.9504 4.62 -4.24 5000004.584
6.9504 4.62 -4.26 5000004.584
6.981642 4.5 -4.32 5000004.63607
6.919854 4.64 -4.34 5000004.53309
6.981642 4.5 -4.34 5000004.63607
6.981642 4.48 -4.34 5000004.63607
6.919854 4.68 -4.36 5000004.53309
6.919854 4.66 -4.36 5000004.53309
6.919854 4.64 -4.36 5000004.53309
6.919854 4.62 -4.36 5000004.53309
6.919854 4.6 -4.36 5000004.53309
6.919854 4.58 -4.36 5000004.53309
6.919854 4.56 -4.36 5000004.53309
6.860754 4.44 -4.36 5000004.43459
6.832158 4.42 -4.36 5000004.38693
6.832158 4.4 -4.36 5000004.38693
6.832158 4.7 -4.38 5000004.38693
6.919854 4.68 -4.38 5000004.53309
6.919854 4.66 -4.38 5000004.53309
6.919854 4.64 -4.38 5000004.53309
6.919854 4.62 -4.38 5000004.53309
6.919854 4.56 -4.38 5000004.53309
6.981642 4.5 -4.38 5000004.63607
6.672695999999999 2.22 -4.58 5000004.12116
6.647982 -0.68 -4.6 5000004.07997
6.647982 -0.7 -4.6 5000004.07997
6.647982 -0.72 -4.6 5000004.07997
6.623754 -1.88 -4.7 5000004.03959
6.623754 -1.9 -4.7 5000004.03959
6.623754 0.94 -4.78 5000004.03959
6.623754 0.92 -4.78 5000004.03959
6.623754 0.92 -4.8 5000004.03959
6.623754 0.9 -4.8 5000004.03959
5 -3.12 5000006.47459
13.078859999999999 3.48 -3.12 5000006.7981
13.078859999999999 3.46 -3.12 5000006.7981
13.012038 3.44 -3.12 5000006.68673
12.94737 3.42 -3.12 5000006.57895
12.824094 3.4 -3.12 5000006.37349
12.884754 3.56 -3.14 5000006.47459
12.884754 3.54 -3.14 5000006.47459
12.884754 3.52 -3.14 5000006.47459
12.884754 3.5 -3.14 5000006.47459
13.012038 3.44 -3.14 5000006.68673
12.94737 3.42 -3.14 5000006.57895
12.824094 3.4 -3.14 5000006.37349
12.824094 3.38 -3.14 5000006.37349
12.447288 3.88 -3.6 5000005.74548
12.399432000000001 3.8 -3.6 5000005.66572
12.399432000000001 3.76 -3.6 5000005.66572
12.35289 3.74 -3.6 5000005.58815
12.35289 3.72 -3.6 5000005.58815
12.307608 4.0 -3.62 5000005.51268
12.307608 3.98 -3.62 5000005.51268
12.307608 3.96 -3.62 5000005.51268
12.220614 4.08 -3.66 5000005.36769
12.220614 4.06 -3.66 5000005.36769
12.220614 4.1 -3.68 5000005.36769
12.220614 4.08 -3.68 5000005.36769
12.220614 4.1 -3.7 5000005.36769
12.178805999999998 4.14 -3.74 5000005.29801
12.098376 4.2 -3.8 5000005.16396
12.098376 4.18 -3.8 5000005.16396
12.021906 4.26 -3.86 5000005.03651
12.021906 4.24 -3.86 5000005.03651
12.021906 4.28 -3.88 5000005.03651
12.021906 4.32 -3.92 5000005.03651
11.985072 4.34 -3.94 5000004.97512
11.985072 4.32 -3.94 5000004.97512
11.914038 4.36 -3.98 5000004.85673
11.914038 4.36 -4.0 5000004.85673
11.813597999999999 4.54 -4.14 5000004.68933
11.813597999999999 4.52 -4.14 5000004.68933
11.813597999999999 4.54 -4.16 5000004.68933
11.813597999999999 4.52 -4.16 5000004.68933
11.781642 4.56 -4.18 5000004.63607
11.813597999999999 4.52 -4.18 5000004.68933
11.781642 4.58 -4.2 5000004.63607
11.781642 4.56 -4.2 5000004.63607
11.750399999999999 4.6 -4.22 5000004.584
11.750399999999999 4.58 -4.22 5000004.584
11.750399999999999 4.62 -4.24 5000004.584
11.750399999999999 4.62 -4.26 5000004.584
11.781642 4.5 -4.32 5000004.63607
11.719854 4.64 -4.34 5000004.53309
11.781642 4.5 -4.34 5000004.63607
11.781642 4.48 -4.34 5000004.63607
11.719854 4.68 -4.36 5000004.53309
11.719854 4.66 -4.36 5000004.53309
11.719854 4.64 -4.36 5000004.53309
11.719854 4.62 -4.36 5000004.53309
11.719854 4.6 -4.36 5000004.53309
11.719854 4.58 -4.36 5000004.53309
11.719854 4.56 -4.36 5000004.53309
11.660753999999999 4.44 -4.36 5000004.43459
11.632158 4.42 -4.36 5000004.38693
11.632158 4.4 -4.36 5000004.38693
11.632158 4.7 -4.38 5000004.38693
11.719854 4.68 -4.38 5000004.53309
11.719854 4.66 -4.38 5000004.53309
11.719854 4.64 -4.38 5000004.53309
11.719854 4.62 -4.38 5000004.53309
11.719854 4.56 -4.38 5000004.53309
11.781642 4.5 -4.38 5000004.63607
11.472696000000001 2.22 -4.58 5000004.12116
11.447982 -0.68 -4.6 5000004.07997
11.447982 -0.7 -4.6 5000004.07997
11.447982 -0.72 -4.6 5000004.07997
11.423754 -1.88 -4.7 5000004.03959
11.423754 -1.9 -4.7 5000004.03959
11.423754 0.94 -4.78 5000004.03959
11.423754 0.92 -4.78 5000004.03959
11.423754 0.92 -4.8 5000004.03959
11.423754 0.9 -4.8 5000004.03959
-4.58 5000004.12116
7.631988 -0.68 -4.6 5000004.07997
7.631988 -0.7 -4.6 5000004.07997
7.631988 -0.72 -4.6 5000004.07997
7.615836 -1.88 -4.7 5000004.03959
7.615836 -1.9 -4.7 5000004.03959
7.615836 0.94 -4.78 5000004.03959
7.615836 0.92 -4.78 5000004.03959
7.615836 0.92 -4.8 5000004.03959
7.615836 0.9 -4.8 5000004.03959
33333333333332 2.4 5000027.137
11.50489 2.8666666666666667 2.3666666666666667 5000045.1467
10.754146666666667 -11.866666666666667 2.3666666666666667 5000022.6244
10.754146666666667 -11.9 2.3666666666666667 5000022.6244
10.678886666666667 -16.0 2.3666666666666667 5000020.3666
10.904566666666666 -17.833333333333332 2.3666666666666667 5000027.137
10.754146666666667 -11.9 2.3333333333333335 5000022.6244
10.754146666666667 -11.933333333333334 2.3333333333333335 5000022.6244
10.678886666666667 -15.966666666666667 2.3333333333333335 5000020.3666
10.678886666666667 -16.0 2.3333333333333335 5000020.3666
10.904566666666666 -17.833333333333332 2.3333333333333335 5000027.137
10.64662 -1.0 2.3 5000019.3986
10.754146666666667 -11.933333333333334 2.3 5000022.6244
10.754146666666667 -11.966666666666667 2.3 5000022.6244
10.968993333333334 -13.8 2.3 5000029.0698
10.678886666666667 -15.966666666666667 2.3 5000020.3666
10.904566666666666 -17.833333333333332 2.3 5000027.137
10.64662 -1.0 2.2666666666666666 5000019.3986
10.754146666666667 -11.966666666666667 2.2666666666666666 5000022.6244
10.678886666666667 -15.966666666666667 2.2666666666666666 5000020.3666
10.617283333333333 -17.2 2.2666666666666666 5000018.5185
10.904566666666666 -17.833333333333332 2.2666666666666666 5000027.137
10.64662 -1.0 2.2333333333333334 5000019.3986
10.590493333333333 -17.3 2.2333333333333334 5000017.7148
10.904566666666666 -17.833333333333332 2.2333333333333334 5000027.137
11.355013333333334 0.9666666666666667 2.2 5000040.6504
10.64662 -1.0 2.2 5000019.3986
10.678886666666667 -15.933333333333334 2.2 5000020.3666
10.678886666666667 -15.966666666666667 2.2 5000020.3666
10.64662 -16.933333333333334 2.2 5000019.3986
10.590493333333333 -17.366666666666667 2.2 5000017.7148
10.590493333333333 -17.4 2.2 5000017.7148
10.904566666666666 -17.833333333333332 2.2 5000027.137
11.355013333333334 0.4 2.1666666666666665 5000040.6504
10.64662 -1.0 2.1666666666666665 5000019.3986
10.754146666666667 -12.0 2.1666666666666665 5000022.6244
10.678886666666667 -15.933333333333334 2.1666666666666665 5000020.3666
10.64662 -16.933333333333334 2.1666666666666665 5000019.3986
10.590493333333333 -17.433333333333334 2.1666666666666665 5000017.7148
10.904566666666666 -17.833333333333332 2.1666666666666665 5000027.137
10.64662 -1.0 2.1333333333333333 5000019.3986
10.754146666666667 -12.0 2.1333333333333333 5000022.6244
11.043296666666667 -13.7 2.1333333333333333 5000031.2989
11.043296666666667 -13.733333333333333 2.1333333333333333 5000031.2989
10.678886666666667 -15.766666666666667 2.1333333333333333 5000020.3666
10.678886666666667 -15.933333333333334 2.1333333333333333 5000020.3666
10.64662 -16.9 2.1333333333333333 5000019.3986
10.590493333333333 -17.533333333333335 2.1333333333333333 5000017.7148
10.904566666666666 -17.833333333333332 2.1333333333333333 5000027.137
10.904566666666666 -17.866666666666667 2.1333333333333333 5000027.137
11.043296666666667 -13.7 2.1 5000031.2989
11.043296666666667 -13.733333333333333 2.1 5000031.2989
10.678886666666667 -15.066666666666666 2.1 5000020.3666
10.678886666666667 -15.9 2.1 5000020.3666
10.678886666666667 -15.933333333333334 2.1 5000020.3666
10.64662 -16.866666666666667 2.1 5000019.3986
10.64662 -16.9 2.1 5000019.3986
10.590493333333333 -17.533333333333335 2.1 5000017.7148
10.590493333333333 -17.566666666666666 2.1 5000017.7148
10.590493333333333 -17.6 2.1 5000017.7148
10.64662 -1.0 2.066666666666667 5000019.3986
10.754146666666667 -12.333333333333334 2.066666666666667 5000022.6244
10.754146666666667 -12.366666666666667 2.066666666666667 5000022.6244
10.678886666666667 -15.066666666666666 2.066666666666667 5000020.3666
10.678886666666667 -15.733333333333333 2.066666666666667 5000020.3666
10.678886666666667 -15.9 2.066666666666667 5000020.3666
10.678886666666667 -15.933333333333334 2.066666666666667 5000020.3666
10.678886666666667 -1.0 2.033333333333333 5000020.3666
10.754146666666667 -12.366666666666667 2.033333333333333 5000022.6244
10.71454 -14.9 2.033333333333333 5000021.4362
10.71454 -14.933333333333334 2.033333333333333 5000021.4362
10.64662 -17.733333333333334 2.033333333333333 5000019.3986
10.678886666666667 -1.0 2.0 5000020.3666
10.71454 -14.933333333333334 2.0 5000021.4362
10.678886666666667 -14.966666666666667 2.0 5000020.3666
10.678886666666667 -15.0 2.0 5000020.3666
10.64662 -17.733333333333334 2.0 5000019.3986
10.678886666666667 -1.0 1.9666666666666666 5000020.3666
10.678886666666667 -15.0 1.9666666666666666 5000020.3666
10.64662 -15.033333333333333 1.9666666666666666 5000019.3986
10.64662 -17.7 1.9666666666666666 5000019.3986
10.64662 -17.733333333333334 1.9666666666666666 5000019.3986
10.678886666666667 -17.9 1.9666666666666666 5000020.3666
10.678886666666667 -1.0 1.9333333333333333 5000020.3666
11.043296666666667 -13.6 1.9333333333333333 5000031.2989
10.64662 -17.7 1.9333333333333333 5000019.3986
10.64662 -17.733333333333334 1.9333333333333333 5000019.3986
10.678886666666667 -1.0 1.9 5000020.3666
10.64662 -17.7 1.9 5000019.3986
10.64662 -17.7 1.8666666666666667 5000019.3986
10.64662 -17.733333333333334 1.8666666666666667 5000019.3986
10.754146666666667 -11.6 1.8333333333333333 5000022.6244
10.968993333333334 -13.233333333333333 1.8333333333333333 5000029.0698
10.64662 -17.7 1.8333333333333333 5000019.3986
10.754146666666667 -11.6 1.8 5000022.6244
10.968993333333334 -13.233333333333333 1.8 5000029.0698
10.71454 -14.233333333333333 1.7333333333333334 5000021.4362
10.678886666666667 -14.566666666666666 1.7333333333333334 5000020.3666
10.71454 -14.133333333333333 1.7 5000021.4362
10.71454 -14.166666666666666 1.7 5000021.4362
10.678886666666667 -14.566666666666666 1.7 5000020.3666
10.678886666666667 -14.6 1.7 5000020.3666
10.678886666666667 -16.666666666666668 1.7 5000020.3666
10.678886666666667 -16.7 1.7 5000020.3666
10.64662 -17.9 1.7 5000019.3986
10.71454 -14.1 1.6666666666666667 5000021.4362
10.71454 -14.133333333333333 1.6666666666666667 5000021.4362
10.678886666666667 -14.633333333333333 1.6666666666666667 5000020.3666
10.678886666666667 -16.6 1.6666666666666667 5000020.3666
10.678886666666667 -16.633333333333333 1.6666666666666667 5000020.3666
10.678886666666667 -16.666666666666668 1.6666666666666667 5000020.3666
10.64662 -17.1 1.6666666666666667 5000019.3986
10.64662 -17.133333333333333 1.6666666666666667 5000019.3986
10.798403333333333 -12.4 1.6333333333333333 5000023.9521
10.798403333333333 -12.433333333333334 1.6333333333333333 5000023.9521
10.71454 -14.1 1.6333333333333333 5000021.4362
10.71454 -14.133333333333333 1.6333333333333333 5000021.4362
10.678886666666667 -14.666666666666666 1.6333333333333333 5000020.3666
10.64662 -17.133333333333333 1.6333333333333333 5000019.3986
10.64662 -17.166666666666668 1.6333333333333333 5000019.3986
10.617283333333333 -17.266666666666666 1.6333333333333333 5000018.5185
10.617283333333333 -17.3 1.6333333333333333 5000018.5185
10.617283333333333 -17.333333333333332 1.6333333333333333 5000018.5185
10.617283333333333 -17.366666666666667 1.6333333333333333 5000018.5185
10.71454 -14.066666666666666 1.6 5000021.4362
10.71454 -14.1 1.6 5000021.4362
10.678886666666667 -14.666666666666666 1.6 5000020.3666
10.678886666666667 -16.533333333333335 1.6 5000020.3666
10.678886666666667 -16.566666666666666 1.6 5000020.3666
10.678886666666667 -16.6 1.6 5000020.3666
10.617283333333333 -17.166666666666668 1.6 5000018.5185
10.617283333333333 -17.2 1.6 5000018.5185
10.617283333333333 -17.333333333333332 1.6 5000018.5185
10.71454 -14.066666666666666 1.5666666666666667 5000021.4362
10.71454 -14.1 1.5666666666666667 5000021.4362
10.678886666666667 -14.333333333333334 1.5666666666666667 5000020.3666
10.71454 -14.366666666666667 1.5666666666666667 5000021.4362
10.678886666666667 -16.533333333333335 1.5666666666666667 5000020.3666
10.678886666666667 -16.566666666666666 1.5666666666666667 5000020.3666
10.798403333333333 -11.5 1.5333333333333334 5000023.9521
10.798403333333333 -11.533333333333333 1.5333333333333334 5000023.9521
10.71454 -14.066666666666666 1.5333333333333334 5000021.4362
10.71454 -14.1 1.5333333333333334 5000021.4362
10.678886666666667 -14.3 1.5333333333333334 5000020.3666
10.678886666666667 -14.433333333333334 1.5333333333333334 5000020.3666
10.71454 -14.466666666666667 1.5333333333333334 5000021.4362
10.678886666666667 -14.7 1.5333333333333334 5000020.3666
10.678886666666667 -16.533333333333335 1.5333333333333334 5000020.3666
10.64662 -17.0 1.5333333333333334 5000019.3986
10.617283333333333 -17.233333333333334 1.5333333333333334 5000018.5185
10.617283333333333 -17.266666666666666 1.5333333333333334 5000018.5185
10.798403333333333 -11.5 1.5 5000023.9521
10.848176666666667 -12.1 1.5 5000025.4453
10.71454 -14.066666666666666 1.5 5000021.4362
10.678886666666667 -14.7 1.5 5000020.3666
10.64662 -16.5 1.5 5000019.3986
10.64662 -16.533333333333335 1.5 5000019.3986
10.64662 -16.833333333333332 1.5 5000019.3986
10.64662 -16.866666666666667 1.5 5000019.3986
10.71454 -14.066666666666666 1.4666666666666666 5000021.4362
10.71454 -14.533333333333333 1.4666666666666666 5000021.4362
10.71454 -14.566666666666666 1.4666666666666666 5000021.4362
10.71454 -14.6 1.4666666666666666 5000021.4362
10.64662 -16.5 1.4666666666666666 5000019.3986
10.64662 -16.533333333333335 1.4666666666666666 5000019.3986
10.64662 -16.966666666666665 1.4666666666666666 5000019.3986
10.64662 -17.0 1.4666666666666666 5000019.3986
10.617283333333333 -17.266666666666666 1.4666666666666666 5000018.5185
10.798403333333333 -11.433333333333334 1.4333333333333333 5000023.9521
10.798403333333333 -11.466666666666667 1.4333333333333333 5000023.9521
10.678886666666667 -14.166666666666666 1.4333333333333333 5000020.3666
10.678886666666667 -14.2 1.4333333333333333 5000020.3666
10.678886666666667 -14.7 1.4333333333333333 5000020.3666
10.678886666666667 -14.733333333333333 1.4333333333333333 5000020.3666
10.64662 -16.5 1.4333333333333333 5000019.3986
10.64662 -16.666666666666668 1.4333333333333333 5000019.3986
10.64662 -16.8 1.4333333333333333 5000019.3986
10.64662 -16.833333333333332 1.4333333333333333 5000019.3986
10.64662 -16.966666666666665 1.4333333333333333 5000019.3986
10.64662 -17.0 1.4333333333333333 5000019.3986
10.678886666666667 -14.2 1.4 5000020.3666
10.64662 -16.5 1.4 5000019.3986
10.64662 -16.533333333333335 1.4 5000019.3986
10.64662 -16.666666666666668 1.4 5000019.3986
10.64662 -17.1 1.4 5000019.3986
10.678886666666667 -14.2 1.3666666666666667 5000020.3666
10.64662 -16.5 1.3666666666666667 5000019.3986
10.64662 -16.533333333333335 1.3666666666666667 5000019.3986
10.64662 -16.666666666666668 1.3666666666666667 5000019.3986
10.64662 -17.066666666666666 1.3666666666666667 5000019.3986
10.64662 -17.1 1.3666666666666667 5000019.3986
10.64662 -17.133333333333333 1.3666666666666667 5000019.3986
10.617283333333333 -17.166666666666668 1.3666666666666667 5000018.5185
10.968993333333334 -14.333333333333334 1.3333333333333333 5000029.0698
10.64662 -17.133333333333333 1.3333333333333333 5000019.3986
10.71454 -14.5 1.3 5000021.4362
10.71454 -14.533333333333333 1.3 5000021.4362
10.64662 -16.666666666666668 1.3 5000019.3986
10.754146666666667 -16.966666666666665 1.3 5000022.6244
10.71454 -14.466666666666667 1.2666666666666666 5000021.4362
10.71454 -14.5 1.2666666666666666 5000021.4362
10.71454 -14.533333333333333 1.2666666666666666 5000021.4362
10.64662 -16.666666666666668 1.2666666666666666 5000019.3986
10.64662 -16.7 1.2666666666666666 5000019.3986
10.64662 -16.733333333333334 1.2333333333333334 5000019.3986
10.64662 -16.8 1.2333333333333334 5000019.3986
10.678886666666667 -16.833333333333332 1.2333333333333334 5000020.3666
10.678886666666667 -17.033333333333335 1.2333333333333334 5000020.3666
10.678886666666667 -16.966666666666665 1.2 5000020.3666
10.678886666666667 -17.0 1.2 5000020.3666
10.678886666666667 -17.033333333333335 1.2 5000020.3666
10.678886666666667 -17.066666666666666 1.2 5000020.3666
10.71454 -17.466666666666665 1.2 5000021.4362
10.71454 -17.5 1.2 5000021.4362
10.678886666666667 -16.966666666666665 1.1666666666666667 5000020.3666
10.678886666666667 -17.0 1.1666666666666667 5000020.3666
10.678886666666667 -17.033333333333335 1.1666666666666667 5000020.3666
10.64662 -1.6 1.1 5000019.3986
10.54333 -2.8 0.8333333333333334 5000016.2999
10.54333 -2.8 0.8 5000016.2999
10.411776666666666 -14.833333333333334 0.36666666666666664 5000012.3533
10.411776666666666 -14.866666666666667 0.36666666666666664 5000012.3533
10.411776666666666 -14.9 0.36666666666666664 5000012.3533
10.36731 -16.766666666666666 0.0 5000011.0193
10.36731 -16.8 0.0 5000011.0193
10.36731 -16.833333333333332 -0.03333333333333333 5000011.0193
10.357653333333333 -2.2666666666666666 -0.1 5000010.7296
10.36731 -14.733333333333333 -0.16666666666666666 5000011.0193
10.33979 -14.833333333333334 -0.16666666666666666 5000010.1937
10.33151 -14.9 -0.16666666666666666 5000009.9453
10.33151 -14.933333333333334 -0.16666666666666666 5000009.9453
10.33979 2.6 -0.36666666666666664 5000010.1937
10.33979 2.566666666666667 -0.36666666666666664 5000010.1937
10.33151 2.3666666666666667 -0.4 5000009.9453
10.33151 2.1 -0.43333333333333335 5000009.9453
10.33151 2.066666666666667 -0.43333333333333335 5000009.9453
10.33151 2.033333333333333 -0.43333333333333335 5000009.9453
10.33151 2.0 -0.43333333333333335 5000009.9453
10.33151 1.9333333333333333 -0.43333333333333335 5000009.9453
10.323624666666667 1.8666666666666667 -0.4666666666666667 5000009.70874
10.323624666666667 1.8333333333333333 -0.4666666666666667 5000009.70874
10.323624666666667 1.8 -0.4666666666666667 5000009.70874
10.33151 1.7666666666666666 -0.4666666666666667 5000009.9453
10.33151 1.7333333333333334 -0.4666666666666667 5000009.9453
10.33151 1.7 -0.4666666666666667 5000009.9453
10.316105666666667 1.5666666666666667 -0.5 5000009.48317
10.316105666666667 1.5333333333333334 -0.5 5000009.48317
10.316105666666667 1.5 -0.5 5000009.48317
10.323624666666667 1.4666666666666666 -0.5 5000009.70874
10.323624666666667 1.4333333333333333 -0.5 5000009.70874
10.316105666666667 1.3 -0.5333333333333333 5000009.48317
10.316105666666667 1.2666666666666666 -0.5333333333333333 5000009.48317
10.323624666666667 1.1666666666666667 -0.5333333333333333 5000009.70874
10.323624666666667 1.1333333333333333 -0.5333333333333333 5000009.70874
10.323624666666667 1.1 -0.5333333333333333 5000009.70874
10.316105666666667 0.9 -0.5666666666666667 5000009.48317
10.316105666666667 0.8666666666666667 -0.5666666666666667 5000009.48317
10.323624666666667 0.8 -0.5666666666666667 5000009.70874
10.308928 0.6333333333333333 -0.6 5000009.26784
10.316105666666667 0.6 -0.6 5000009.48317
10.316105666666667 0.5666666666666667 -0.6 5000009.48317
10.316105666666667 0.5333333333333333 -0.6 5000009.48317
10.302069 0.3333333333333333 -0.6333333333333333 5000009.06207
10.308928 0.3 -0.6333333333333333 5000009.26784
10.308928 0.26666666666666666 -0.6333333333333333 5000009.26784
10.308928 0.23333333333333334 -0.6333333333333333 5000009.26784
10.308928 0.2 -0.6333333333333333 5000009.26784
10.302069 0.06666666666666667 -0.6666666666666666 5000009.06207
10.302069 0.03333333333333333 -0.6666666666666666 5000009.06207
10.302069 0.0 -0.6666666666666666 5000009.06207
10.308928 -0.03333333333333333 -0.6666666666666666 5000009.26784
10.308928 -0.06666666666666667 -0.6666666666666666 5000009.26784
10.308928 -0.1 -0.6666666666666666 5000009.26784
10.289226333333334 -0.16666666666666666 -0.7 5000008.67679
10.289226333333334 -0.2 -0.7 5000008.67679
10.308928 -0.4666666666666667 -0.7 5000009.26784
10.308928 -0.5 -0.7 5000009.26784
10.289226333333334 -0.6 -0.7333333333333333 5000008.67679
10.295508333333334 -0.6333333333333333 -0.7333333333333333 5000008.86525
10.295508333333334 -0.6666666666666666 -0.7333333333333333 5000008.86525
10.295508333333334 -0.7 -0.7333333333333333 5000008.86525
10.283206 -0.8333333333333334 -0.7666666666666667 5000008.49618
10.283206 -0.8666666666666667 -0.7666666666666667 5000008.49618
10.283206 -0.9 -0.7666666666666667 5000008.49618
10.302069 -1.1 -0.8666666666666667 5000009.06207
10.289226333333334 -1.2333333333333334 -0.8666666666666667 5000008.67679
10.308928 0.16666666666666666 -0.9666666666666667 5000009.26784
10.289226333333334 0.0 -0.9666666666666667 5000008.67679
10.26656 0.3 -1.0333333333333334 5000007.9968
10.26656 0.26666666666666666 -1.0333333333333334 5000007.9968
10.277431 1.1333333333333333 -1.0666666666666667 5000008.32293
10.283206 1.6 -1.1 5000008.49618
10.271887 2.3 -1.1666666666666667 5000008.15661
10.271887 2.2 -1.1666666666666667 5000008.15661
10.247188333333334 -1.2333333333333334 -1.2666666666666666 5000007.41565
10.242777333333333 -1.2333333333333334 -1.3 5000007.28332
10.242777333333333 -1.2 -1.3333333333333333 5000007.28332
10.242777333333333 -1.2333333333333334 -1.3333333333333333 5000007.28332
10.242777333333333 -1.1666666666666667 -1.3666666666666667 5000007.28332
10.234411666666666 -1.0666666666666667 -1.4666666666666666 5000007.03235
10.234411666666666 -1.0333333333333334 -1.5 5000007.03235
10.230441333333333 -1.0333333333333334 -1.5333333333333334 5000006.91324
10.230441333333333 -1.0 -1.5666666666666667 5000006.91324
10.230441333333333 -0.9666666666666667 -1.6 5000006.91324
10.226603333333333 -0.9333333333333333 -1.6333333333333333 5000006.7981
10.226603333333333 -0.9 -1.6666666666666667 5000006.7981
10.226603333333333 -0.8666666666666667 -1.7 5000006.7981
10.222891 -0.8333333333333334 -1.7333333333333334 5000006.68673
10.215819666666667 -0.7333333333333333 -1.8333333333333333 5000006.47459
10.215819666666667 -0.7333333333333333 -1.8666666666666667 5000006.47459
10.215819666666667 -0.7666666666666667 -1.8666666666666667 5000006.47459
10.215819666666667 -0.8333333333333334 -1.8666666666666667 5000006.47459
10.226603333333333 -0.8666666666666667 -1.8666666666666667 5000006.7981
10.226603333333333 -0.9 -1.8666666666666667 5000006.7981
10.222891 -0.9333333333333333 -1.8666666666666667 5000006.68673
10.219298333333333 -0.9666666666666667 -1.8666666666666667 5000006.57895
10.212449666666666 -1.0 -1.8666666666666667 5000006.37349
10.215819666666667 -0.7333333333333333 -1.9 5000006.47459
10.215819666666667 -0.7666666666666667 -1.9 5000006.47459
10.215819666666667 -0.8 -1.9 5000006.47459
10.215819666666667 -0.8333333333333334 -1.9 5000006.47459
10.222891 -0.9333333333333333 -1.9 5000006.68673
10.219298333333333 -0.9666666666666667 -1.9 5000006.57895
10.212449666666666 -1.0 -1.9 5000006.37349
10.212449666666666 -1.0333333333333334 -1.9 5000006.37349
10.191516 -0.2 -2.6666666666666665 5000005.74548
10.188857333333333 -0.3333333333333333 -2.6666666666666665 5000005.66572
10.188857333333333 -0.4 -2.6666666666666665 5000005.66572
10.186271666666666 -0.43333333333333335 -2.6666666666666665 5000005.58815
10.186271666666666 -0.4666666666666667 -2.6666666666666665 5000005.58815
10.183756 0.0 -2.7 5000005.51268
10.183756 -0.03333333333333333 -2.7 5000005.51268
10.183756 -0.06666666666666667 -2.7 5000005.51268
10.178923 0.13333333333333333 -2.7666666666666666 5000005.36769
10.178923 0.1 -2.7666666666666666 5000005.36769
10.178923 0.16666666666666666 -2.8 5000005.36769
10.178923 0.13333333333333333 -2.8 5000005.36769
10.178923 0.16666666666666666 -2.8333333333333335 5000005.36769
10.176600333333333 0.23333333333333334 -2.9 5000005.29801
10.172132 0.3333333333333333 -3.0 5000005.16396
10.172132 0.3 -3.0 5000005.16396
10.167883666666667 0.43333333333333335 -3.1 5000005.03651
10.167883666666667 0.4 -3.1 5000005.03651
10.167883666666667 0.4666666666666667 -3.1333333333333333 5000005.03651
10.167883666666667 0.5333333333333333 -3.2 5000005.03651
10.165837333333334 0.5666666666666667 -3.2333333333333334 5000004.97512
10.165837333333334 0.5333333333333333 -3.2333333333333334 5000004.97512
10.161891 0.6 -3.3 5000004.85673
10.161891 0.6 -3.3333333333333335 5000004.85673
10.156311 0.9 -3.566666666666667 5000004.68933
10.156311 0.8666666666666667 -3.566666666666667 5000004.68933
10.156311 0.9 -3.6 5000004.68933
10.156311 0.8666666666666667 -3.6 5000004.68933
10.154535666666666 0.9333333333333333 -3.6333333333333333 5000004.63607
10.156311 0.8666666666666667 -3.6333333333333333 5000004.68933
10.154535666666666 0.9666666666666667 -3.6666666666666665 5000004.63607
10.154535666666666 0.9333333333333333 -3.6666666666666665 5000004.63607
10.1528 1.0 -3.7 5000004.584
10.1528 0.9666666666666667 -3.7 5000004.584
10.1528 1.0333333333333334 -3.7333333333333334 5000004.584
10.1528 1.0333333333333334 -3.7666666666666666 5000004.584
10.154535666666666 0.8333333333333334 -3.8666666666666667 5000004.63607
10.151102999999999 1.0666666666666667 -3.9 5000004.53309
10.154535666666666 0.8333333333333334 -3.9 5000004.63607
10.154535666666666 0.8 -3.9 5000004.63607
10.151102999999999 1.1333333333333333 -3.933333333333333 5000004.53309
10.151102999999999 1.1 -3.933333333333333 5000004.53309
10.151102999999999 1.0666666666666667 -3.933333333333333 5000004.53309
10.151102999999999 1.0333333333333334 -3.933333333333333 5000004.53309
10.151102999999999 1.0 -3.933333333333333 5000004.53309
10.151102999999999 0.9666666666666667 -3.933333333333333 5000004.53309
10.151102999999999 0.9333333333333333 -3.933333333333333 5000004.53309
10.147819666666667 0.7333333333333333 -3.933333333333333 5000004.43459
10.146231 0.7 -3.933333333333333 5000004.38693
10.146231 0.6666666666666666 -3.933333333333333 5000004.38693
10.146231 1.1666666666666667 -3.966666666666667 5000004.38693
10.151102999999999 1.1333333333333333 -3.966666666666667 5000004.53309
10.151102999999999 1.1 -3.966666666666667 5000004.53309
10.151102999999999 1.0666666666666667 -3.966666666666667 5000004.53309
10.151102999999999 1.0333333333333334 -3.966666666666667 5000004.53309
10.151102999999999 0.9333333333333333 -3.966666666666667 5000004.53309
10.154535666666666 0.8333333333333334 -3.966666666666667 5000004.63607
10.137372 -2.966666666666667 -4.3 5000004.12116
10.135999 -7.8 -4.333333333333333 5000004.07997
10.135999 -7.833333333333333 -4.333333333333333 5000004.07997
10.135999 -7.866666666666666 -4.333333333333333 5000004.07997
10.134653 -9.8 -4.5 5000004.03959
10.134653 -9.833333333333334 -4.5 5000004.03959
10.134653 -5.1 -4.633333333333334 5000004.03959
10.134653 -5.133333333333334 -4.633333333333334 5000004.03959
10.134653 -5.133333333333334 -4.666666666666667 5000004.03959
