VERSION .7
FIELDS x y z rgb
SIZE 4 4 4 4
TYPE F F F F
COUNT 1 1 1 1
WIDTH 1432
HEIGHT 1
VIEWPOINT 0 0 0 1 0 0 0
POINTS 1432
DATA ascii
21.64188 -4.4 1.64 29.0698
20.4822 -6.24 1.64 27.137
21.64188 -4.4 1.62 29.0698
21.64188 -4.42 1.62 29.0698
20.4822 -6.24 1.62 27.137
21.64188 -4.4 1.6 29.0698
20.4822 -6.24 1.6 27.137
22.97934 -4.4 1.58 31.2989
20.4822 -6.24 1.58 27.137
20.4822 -6.24 1.56 27.137
22.97934 -3.62 1.54 31.2989
22.97934 -3.64 1.54 31.2989
22.97934 -3.62 1.52 31.2989
20.4822 -6.24 1.52 27.137
20.4822 -1.16 1.5 27.137
20.4822 -6.24 1.5 27.137
28.590239999999998 -0.32 1.48 40.6504
28.590239999999998 -0.36 1.48 40.6504
22.97934 -3.62 1.48 31.2989
22.97934 -3.64 1.48 31.2989
20.4822 -6.24 1.48 27.137
22.97934 -3.62 1.46 31.2989
22.97934 -3.64 1.46 31.2989
20.4822 -6.24 1.46 27.137
17.77464 -4.94 1.44 22.6244
20.4822 -6.24 1.44 27.137
20.4822 -6.74 1.44 27.137
26.38116 1.88 1.42 36.9686
22.97934 -3.64 1.42 31.2989
20.4822 -6.24 1.42 27.137
26.38116 3.04 1.4 36.9686
22.97934 -3.62 1.4 31.2989
22.97934 -3.64 1.4 31.2989
17.06172 -4.98 1.38 21.4362
19.467180000000003 -6.26 1.36 25.4453
20.4822 -6.7 1.36 27.137
15.3111 3.76 1.34 18.5185
28.590239999999998 -0.34 1.34 40.6504
28.590239999999998 -0.36 1.34 40.6504
19.467180000000003 -6.26 1.34 25.4453
15.3111 3.76 1.32 18.5185
20.4822 -6.26 1.3 27.137
15.3111 3.66 1.28 18.5185
21.64188 -3.64 1.28 29.0698
21.64188 -3.66 1.28 29.0698
16.419959999999996 -6.38 1.28 20.3666
15.3111 3.68 1.26 18.5185
15.3111 3.6 1.24 18.5185
21.64188 -3.66 1.24 29.0698
15.3111 3.6 1.22 18.5185
15.3111 3.58 1.22 18.5185
19.467180000000003 -6.24 1.22 25.4453
19.467180000000003 -6.26 1.22 25.4453
15.3111 3.62 1.2 18.5185
15.3111 3.6 1.2 18.5185
24.53898 -2.42 1.2 33.8983
17.77464 -5.08 1.2 22.6244
17.77464 -5.1 1.2 22.6244
17.77464 -5.12 1.2 22.6244
20.4822 -6.12 1.2 27.137
19.467180000000003 -6.24 1.2 25.4453
19.467180000000003 -6.26 1.2 25.4453
15.3111 3.62 1.18 18.5185
17.77464 -4.9 1.18 22.6244
17.77464 -5.08 1.18 22.6244
17.77464 -5.1 1.18 22.6244
17.77464 -5.12 1.18 22.6244
20.4822 -6.12 1.18 27.137
19.467180000000003 -6.26 1.18 25.4453
16.419959999999996 -6.44 1.18 20.3666
16.419959999999996 -6.46 1.18 20.3666
15.3111 3.62 1.16 18.5185
17.77464 -5.08 1.16 22.6244
17.77464 -5.1 1.16 22.6244
20.4822 -6.12 1.16 27.137
16.419959999999996 -6.46 1.16 20.3666
22.97934 -3.54 1.14 31.2989
22.97934 -4.42 1.14 31.2989
20.4822 -6.12 1.14 27.137
15.83916 3.66 1.12 19.3986
20.4822 -6.12 1.12 27.137
20.4822 -6.26 1.12 27.137
20.4822 -6.28 1.12 27.137
16.419959999999996 -6.46 1.12 20.3666
15.83916 3.66 1.1 19.3986
20.4822 -6.12 1.1 27.137
15.83916 3.66 1.08 19.3986
22.97934 -3.54 1.08 31.2989
20.4822 -6.12 1.08 27.137
15.83916 3.66 1.06 19.3986
22.97934 -3.54 1.06 31.2989
24.53898 -3.62 1.06 33.8983
24.53898 -3.64 1.06 33.8983
24.53898 -3.66 1.06 33.8983
20.4822 -6.12 1.06 27.137
20.4822 -6.26 1.06 27.137
20.4822 -6.28 1.06 27.137
21.64188 -5.22 1.04 29.0698
21.64188 -5.24 1.04 29.0698
17.77464 -5.3 1.04 22.6244
17.77464 -5.32 1.04 22.6244
20.4822 -6.12 1.04 27.137
20.4822 -6.26 1.04 27.137
20.4822 -6.28 1.04 27.137
15.83916 3.62 1.02 19.3986
21.64188 -4.36 1.02 29.0698
21.64188 -4.38 1.02 29.0698
17.77464 -5.3 1.02 22.6244
17.77464 -5.32 1.02 22.6244
17.77464 -5.64 1.02 22.6244
17.77464 -5.66 1.02 22.6244
20.4822 -6.12 1.02 27.137
21.64188 -4.38 1.0 29.0698
20.4822 -6.12 1.0 27.137
20.4822 -6.26 1.0 27.137
20.4822 -6.28 1.0 27.137
16.419959999999996 -6.46 1.0 20.3666
21.64188 -4.38 0.98 29.0698
21.64188 -5.22 0.98 29.0698
20.4822 -6.12 0.98 27.137
20.4822 -6.26 0.98 27.137
20.4822 -6.28 0.98 27.137
16.419959999999996 -6.46 0.98 20.3666
15.3111 3.6 0.96 18.5185
21.64188 -4.38 0.96 29.0698
17.77464 -5.32 0.96 22.6244
20.4822 -6.12 0.96 27.137
20.4822 -6.26 0.96 27.137
20.4822 -6.28 0.96 27.137
15.3111 3.44 0.94 18.5185
22.97934 -3.6 0.94 31.2989
21.64188 -4.38 0.94 29.0698
17.77464 -5.3 0.94 22.6244
17.77464 -5.32 0.94 22.6244
17.77464 -5.34 0.94 22.6244
17.06172 -5.5 0.94 21.4362
20.4822 -6.12 0.94 27.137
20.4822 -6.14 0.94 27.137
19.467180000000003 -6.26 0.94 25.4453
19.467180000000003 -6.28 0.94 25.4453
16.419959999999996 -6.46 0.94 20.3666
15.3111 3.6 0.92 18.5185
15.83916 3.44 0.92 19.3986
22.97934 -3.6 0.92 31.2989
17.77464 -5.3 0.92 22.6244
17.77464 -5.32 0.92 22.6244
17.06172 -5.5 0.92 21.4362
20.4822 -6.12 0.92 27.137
15.3111 3.6 0.9 18.5185
15.83916 3.44 0.9 19.3986
20.4822 -6.12 0.9 27.137
20.4822 -6.14 0.9 27.137
19.467180000000003 -6.28 0.9 25.4453
15.83916 3.44 0.88 19.3986
22.97934 -2.88 0.88 31.2989
21.64188 -4.38 0.88 29.0698
17.06172 -5.52 0.88 21.4362
17.06172 -6.46 0.88 21.4362
15.3111 3.6 0.86 18.5185
15.83916 3.44 0.86 19.3986
17.77464 -5.3 0.86 22.6244
17.06172 -5.5 0.86 21.4362
17.06172 -5.52 0.86 21.4362
19.467180000000003 -6.28 0.86 25.4453
15.3111 3.6 0.84 18.5185
15.83916 3.44 0.84 19.3986
17.77464 -5.28 0.84 22.6244
17.77464 -5.3 0.84 22.6244
19.467180000000003 -6.26 0.84 25.4453
19.467180000000003 -6.28 0.84 25.4453
15.3111 3.6 0.82 18.5185
15.83916 3.44 0.82 19.3986
17.77464 -5.3 0.82 22.6244
19.467180000000003 -6.28 0.82 25.4453
15.3111 3.6 0.8 18.5185
15.83916 3.44 0.8 19.3986
24.53898 -2.42 0.8 33.8983
20.4822 -5.24 0.8 27.137
17.77464 -5.3 0.8 22.6244
17.77464 -5.32 0.8 22.6244
20.4822 -1.34 0.78 27.137
21.64188 -1.46 0.78 29.0698
21.64188 -1.48 0.78 29.0698
20.4822 -5.24 0.78 27.137
17.06172 -6.46 0.78 21.4362
21.64188 -1.46 0.76 29.0698
20.4822 -5.24 0.76 27.137
17.77464 -5.3 0.76 22.6244
17.77464 -5.32 0.76 22.6244
19.467180000000003 -6.26 0.76 25.4453
19.467180000000003 -6.28 0.76 25.4453
21.64188 -6.7 0.76 29.0698
21.64188 -6.72 0.76 29.0698
20.4822 -1.46 0.74 27.137
20.4822 -5.24 0.74 27.137
19.467180000000003 -6.28 0.72 25.4453
21.64188 -6.7 0.72 29.0698
21.64188 -1.48 0.7 29.0698
22.97934 -3.56 0.7 31.2989
21.64188 -6.7 0.7 29.0698
21.64188 -6.72 0.7 29.0698
21.64188 -1.48 0.68 29.0698
22.97934 -3.56 0.68 31.2989
19.467180000000003 -6.28 0.68 25.4453
21.64188 -6.72 0.68 29.0698
22.97934 -3.56 0.66 31.2989
24.53898 -3.66 0.66 33.8983
21.64188 -5.24 0.66 29.0698
19.467180000000003 -6.26 0.66 25.4453
19.467180000000003 -6.28 0.66 25.4453
22.97934 -3.56 0.64 31.2989
24.53898 -3.66 0.64 33.8983
21.64188 -5.24 0.64 29.0698
19.467180000000003 -6.26 0.64 25.4453
19.467180000000003 -6.28 0.64 25.4453
22.97934 -3.56 0.62 31.2989
19.467180000000003 -6.28 0.62 25.4453
22.97934 -3.56 0.6 31.2989
24.53898 -3.66 0.6 33.8983
22.97934 -3.56 0.58 31.2989
24.53898 -3.66 0.58 33.8983
24.53898 -3.68 0.58 33.8983
21.64188 -5.24 0.58 29.0698
17.06172 -5.52 0.58 21.4362
20.4822 -6.14 0.58 27.137
19.467180000000003 -6.26 0.58 25.4453
19.467180000000003 -6.28 0.58 25.4453
22.97934 -3.56 0.56 31.2989
24.53898 -3.66 0.56 33.8983
24.53898 -3.68 0.56 33.8983
21.64188 -5.24 0.56 29.0698
17.77464 -5.34 0.56 22.6244
22.97934 -3.56 0.54 31.2989
21.64188 -5.24 0.54 29.0698
17.77464 -5.34 0.54 22.6244
17.77464 -5.36 0.54 22.6244
17.06172 -6.38 0.54 21.4362
17.06172 -6.4 0.54 21.4362
22.97934 -3.56 0.52 31.2989
24.53898 -3.66 0.52 33.8983
24.53898 -3.68 0.52 33.8983
22.97934 -4.44 0.52 31.2989
21.64188 -5.24 0.52 29.0698
17.77464 -5.34 0.52 22.6244
17.77464 -5.52 0.52 22.6244
20.4822 -1.48 0.5 27.137
22.97934 -3.56 0.5 31.2989
22.97934 -4.44 0.5 31.2989
17.77464 -5.52 0.5 22.6244
17.77464 -5.54 0.5 22.6244
20.4822 -1.48 0.48 27.137
24.53898 -3.66 0.48 33.8983
24.53898 -3.68 0.48 33.8983
22.97934 -4.44 0.48 31.2989
17.77464 -5.36 0.48 22.6244
17.77464 -5.38 0.48 22.6244
17.77464 -5.4 0.48 22.6244
17.77464 -5.52 0.48 22.6244
17.77464 -5.54 0.48 22.6244
19.467180000000003 -6.26 0.48 25.4453
19.467180000000003 -6.28 0.48 25.4453
19.467180000000003 -6.3 0.48 25.4453
20.4822 -1.48 0.46 27.137
24.53898 -3.66 0.46 33.8983
24.53898 -3.68 0.46 33.8983
17.77464 -5.36 0.46 22.6244
17.06172 -5.54 0.46 21.4362
16.419959999999996 -6.66 0.46 20.3666
34.65684 -2.56 0.44 50.7614
34.65684 -2.58 0.44 50.7614
34.65684 -2.6 0.44 50.7614
17.06172 -6.62 0.44 21.4362
16.419959999999996 -6.66 0.44 20.3666
34.65684 -2.58 0.42 50.7614
21.64188 -5.24 0.42 29.0698
17.06172 -6.6 0.42 21.4362
17.06172 -6.62 0.42 21.4362
16.419959999999996 -6.66 0.42 20.3666
21.64188 -5.24 0.4 29.0698
17.06172 -5.38 0.4 21.4362
17.06172 -5.4 0.4 21.4362
44.74056 -2.7 0.38 67.5676
21.64188 -5.24 0.38 29.0698
17.06172 -5.38 0.38 21.4362
21.64188 -5.24 0.36 29.0698
21.64188 -4.38 0.34 29.0698
21.64188 -4.4 0.34 29.0698
21.64188 -5.24 0.34 29.0698
20.4822 -6.26 0.34 27.137
20.4822 -6.28 0.34 27.137
21.64188 -4.38 0.32 29.0698
21.64188 -4.4 0.32 29.0698
21.64188 -5.24 0.32 29.0698
20.4822 -6.14 0.32 27.137
20.4822 -6.26 0.32 27.137
20.4822 -6.28 0.32 27.137
21.64188 -3.6 0.3 29.0698
21.64188 -3.62 0.3 29.0698
21.64188 -4.4 0.3 29.0698
21.64188 -5.24 0.3 29.0698
17.77464 -5.34 0.3 22.6244
20.4822 -6.14 0.3 27.137
21.64188 -3.6 0.28 29.0698
21.64188 -3.62 0.28 29.0698
21.64188 -4.4 0.28 29.0698
21.64188 -5.24 0.28 29.0698
17.77464 -5.34 0.28 22.6244
20.4822 -6.14 0.28 27.137
24.53898 -2.88 0.26 33.8983
21.64188 -3.62 0.26 29.0698
21.64188 -4.4 0.26 29.0698
21.64188 -5.24 0.26 29.0698
21.64188 -5.26 0.26 29.0698
17.77464 -5.32 0.26 22.6244
17.77464 -5.34 0.26 22.6244
17.77464 -5.36 0.26 22.6244
20.4822 -6.14 0.26 27.137
24.53898 -2.9 0.24 33.8983
21.64188 -4.4 0.24 29.0698
21.64188 -5.24 0.24 29.0698
20.4822 -6.14 0.24 27.137
20.4822 -6.28 0.24 27.137
20.4822 -1.46 0.22 27.137
21.64188 -4.4 0.22 29.0698
17.06172 -5.38 0.22 21.4362
17.06172 -5.4 0.22 21.4362
20.4822 -6.14 0.22 27.137
20.4822 -6.28 0.22 27.137
21.64188 -3.62 0.2 29.0698
21.64188 -5.24 0.2 29.0698
20.4822 -6.14 0.2 27.137
21.64188 -4.4 0.18 29.0698
20.4822 -6.14 0.18 27.137
20.4822 -6.28 0.18 27.137
20.4822 -6.3 0.18 27.137
20.4822 -6.14 0.16 27.137
20.4822 -6.28 0.16 27.137
20.4822 -6.3 0.16 27.137
22.97934 -2.9 0.14 31.2989
21.64188 -4.4 0.14 29.0698
20.4822 -6.14 0.14 27.137
20.4822 -6.28 0.14 27.137
22.97934 -3.62 0.12 31.2989
20.4822 -5.26 0.12 27.137
20.4822 -6.14 0.12 27.137
20.4822 -6.28 0.12 27.137
20.4822 -6.3 0.12 27.137
22.97934 -3.62 0.1 31.2989
17.77464 -5.36 0.1 22.6244
20.4822 -6.14 0.1 27.137
20.4822 -6.28 0.1 27.137
20.4822 -6.3 0.1 27.137
17.77464 -5.36 0.08 22.6244
20.4822 -6.14 0.08 27.137
20.4822 -6.28 0.08 27.137
21.64188 -4.4 0.06 29.0698
21.64188 -5.26 0.06 29.0698
17.77464 -5.36 0.06 22.6244
20.4822 -6.14 0.06 27.137
16.419959999999996 -6.38 0.06 20.3666
16.419959999999996 -6.4 0.06 20.3666
16.419959999999996 -6.42 0.06 20.3666
15.3111 3.48 0.04 18.5185
22.97934 -3.62 0.04 31.2989
21.64188 -4.4 0.04 29.0698
21.64188 -5.26 0.04 29.0698
17.77464 -5.36 0.04 22.6244
20.4822 -6.14 0.04 27.137
16.419959999999996 -6.38 0.04 20.3666
16.419959999999996 -6.4 0.04 20.3666
16.419959999999996 -6.42 0.04 20.3666
16.419959999999996 -6.48 0.04 20.3666
21.64188 -5.26 0.02 29.0698
17.77464 -5.36 0.02 22.6244
17.77464 -5.38 0.02 22.6244
20.4822 -6.14 0.02 27.137
16.419959999999996 -6.4 0.02 20.3666
20.4822 -6.14 0.0 27.137
20.4822 -6.26 0.0 27.137
20.4822 -6.28 0.0 27.137
38.9826 2.24 -0.02 57.971
24.53898 -2.9 -0.02 33.8983
22.97934 -3.62 -0.02 31.2989
17.77464 -5.36 -0.02 22.6244
20.4822 -6.28 -0.02 27.137
15.83916 3.44 -0.04 19.3986
15.83916 3.42 -0.04 19.3986
20.4822 -6.28 -0.04 27.137
24.53898 -2.9 -0.06 33.8983
22.97934 -3.62 -0.06 31.2989
20.4822 -6.28 -0.06 27.137
24.53898 -2.9 -0.08 33.8983
20.4822 -6.28 -0.08 27.137
21.64188 -5.26 -0.12 29.0698
24.53898 -2.9 -0.14 33.8983
21.64188 -4.4 -0.14 29.0698
21.64188 -5.26 -0.14 29.0698
17.77464 -5.36 -0.14 22.6244
24.53898 -2.9 -0.16 33.8983
21.64188 -5.26 -0.16 29.0698
17.77464 -5.36 -0.16 22.6244
24.53898 -2.44 -0.18 33.8983
21.64188 -5.26 -0.18 29.0698
17.77464 -5.36 -0.18 22.6244
19.467180000000003 -6.3 -0.18 25.4453
22.97934 -3.62 -0.2 31.2989
17.77464 -5.38 -0.2 22.6244
19.467180000000003 -6.3 -0.2 25.4453
16.419959999999996 -6.48 -0.2 20.3666
16.419959999999996 -6.5 -0.2 20.3666
22.97934 -3.62 -0.22 31.2989
17.77464 -5.36 -0.22 22.6244
17.77464 -5.38 -0.22 22.6244
17.77464 -5.4 -0.22 22.6244
17.06172 -5.56 -0.22 21.4362
17.06172 -5.58 -0.22 21.4362
19.467180000000003 -6.3 -0.22 25.4453
16.419959999999996 -6.48 -0.22 20.3666
16.419959999999996 -6.5 -0.22 20.3666
16.419959999999996 -6.52 -0.22 20.3666
17.06172 -5.38 -0.24 21.4362
17.06172 -5.4 -0.24 21.4362
17.06172 -5.56 -0.24 21.4362
17.06172 -5.58 -0.24 21.4362
19.467180000000003 -6.3 -0.24 25.4453
19.467180000000003 -6.32 -0.24 25.4453
16.419959999999996 -6.48 -0.24 20.3666
16.419959999999996 -6.5 -0.24 20.3666
17.77464 -5.38 -0.26 22.6244
17.06172 -5.58 -0.26 21.4362
19.467180000000003 -6.3 -0.26 25.4453
19.467180000000003 -6.32 -0.26 25.4453
16.419959999999996 -6.48 -0.26 20.3666
16.419959999999996 -6.5 -0.26 20.3666
21.64188 -5.26 -0.28 29.0698
16.419959999999996 -6.5 -0.28 20.3666
22.97934 -2.84 -0.3 31.2989
21.64188 -5.26 -0.3 29.0698
19.467180000000003 -6.3 -0.3 25.4453
16.419959999999996 -6.48 -0.3 20.3666
16.419959999999996 -6.5 -0.3 20.3666
22.97934 -2.84 -0.32 31.2989
22.97934 -4.4 -0.32 31.2989
21.64188 -5.26 -0.32 29.0698
19.467180000000003 -6.3 -0.32 25.4453
19.467180000000003 -6.32 -0.32 25.4453
16.419959999999996 -6.5 -0.32 20.3666
22.97934 -2.84 -0.34 31.2989
22.97934 -3.62 -0.34 31.2989
21.64188 -4.4 -0.34 29.0698
21.64188 -5.26 -0.34 29.0698
16.419959999999996 -6.48 -0.34 20.3666
16.419959999999996 -6.5 -0.34 20.3666
24.53898 -2.9 -0.36 33.8983
21.64188 -5.26 -0.36 29.0698
20.4822 -6.16 -0.36 27.137
16.419959999999996 -6.5 -0.36 20.3666
22.97934 -3.58 -0.38 31.2989
21.64188 -4.36 -0.38 29.0698
21.64188 -5.26 -0.38 29.0698
18.57126 -5.32 -0.38 23.9521
17.77464 -5.56 -0.38 22.6244
17.77464 -5.58 -0.38 22.6244
20.4822 -6.16 -0.38 27.137
19.467180000000003 -6.3 -0.38 25.4453
19.467180000000003 -6.32 -0.38 25.4453
16.419959999999996 -6.48 -0.38 20.3666
16.419959999999996 -6.5 -0.38 20.3666
16.419959999999996 -6.52 -0.38 20.3666
18.57126 -3.16 -0.4 23.9521
18.57126 -3.18 -0.4 23.9521
21.64188 -4.34 -0.4 29.0698
21.64188 -4.36 -0.4 29.0698
21.64188 -5.26 -0.4 29.0698
17.77464 -5.56 -0.4 22.6244
17.77464 -5.58 -0.4 22.6244
20.4822 -6.16 -0.4 27.137
19.467180000000003 -6.3 -0.4 25.4453
16.419959999999996 -6.48 -0.4 20.3666
16.419959999999996 -6.5 -0.4 20.3666
22.97934 -3.58 -0.42 31.2989
21.64188 -4.36 -0.42 29.0698
22.97934 -4.46 -0.42 31.2989
21.64188 -5.26 -0.42 29.0698
17.77464 -5.56 -0.42 22.6244
17.77464 -5.58 -0.42 22.6244
20.4822 -6.08 -0.42 27.137
20.4822 -6.16 -0.42 27.137
22.97934 -3.58 -0.44 31.2989
21.64188 -4.36 -0.44 29.0698
22.97934 -4.46 -0.44 31.2989
21.64188 -5.26 -0.44 29.0698
20.4822 -6.08 -0.44 27.137
16.419959999999996 -6.42 -0.44 20.3666
17.77464 -3.24 -0.46 22.6244
17.77464 -3.26 -0.46 22.6244
21.64188 -5.26 -0.46 29.0698
20.4822 -6.08 -0.46 27.137
20.4822 -6.16 -0.46 27.137
17.77464 -3.22 -0.48 22.6244
17.77464 -3.24 -0.48 22.6244
20.4822 -4.78 -0.48 27.137
21.64188 -5.26 -0.48 29.0698
19.467180000000003 -5.32 -0.48 25.4453
20.4822 -6.08 -0.48 27.137
20.4822 -6.16 -0.48 27.137
17.77464 -3.2 -0.5 22.6244
17.77464 -3.22 -0.5 22.6244
17.77464 -3.24 -0.5 22.6244
21.64188 -5.26 -0.5 29.0698
19.467180000000003 -5.32 -0.5 25.4453
17.06172 -5.58 -0.5 21.4362
20.4822 -6.16 -0.5 27.137
19.467180000000003 -6.28 -0.5 25.4453
19.467180000000003 -6.3 -0.5 25.4453
19.467180000000003 -6.32 -0.5 25.4453
16.419959999999996 -6.5 -0.5 20.3666
17.77464 -3.22 -0.52 22.6244
19.467180000000003 -6.3 -0.52 25.4453
19.467180000000003 -6.32 -0.52 25.4453
16.419959999999996 -6.48 -0.52 20.3666
16.419959999999996 -6.5 -0.52 20.3666
16.419959999999996 -6.52 -0.52 20.3666
17.77464 -3.24 -0.54 22.6244
16.419959999999996 -6.5 -0.54 20.3666
16.419959999999996 -6.52 -0.54 20.3666
17.77464 -3.26 -0.56 22.6244
17.77464 -3.26 -0.58 22.6244
17.77464 -3.28 -0.58 22.6244
15.83916 -5.76 -0.58 19.3986
15.83916 -5.82 -0.58 19.3986
15.83916 -5.84 -0.58 19.3986
31.28802 5.74 -0.6 45.1467
15.3111 3.5 -0.6 18.5185
26.38116 -1.72 -0.6 36.9686
17.06172 -3.28 -0.6 21.4362
15.83916 -5.82 -0.6 19.3986
15.83916 -5.84 -0.6 19.3986
15.3111 3.5 -0.62 18.5185
26.38116 -1.72 -0.62 36.9686
17.77464 -3.28 -0.62 22.6244
17.77464 -3.3 -0.62 22.6244
17.06172 -3.32 -0.62 21.4362
15.83916 -5.74 -0.62 19.3986
15.83916 -5.82 -0.62 19.3986
15.3111 3.5 -0.64 18.5185
17.06172 -3.3 -0.64 21.4362
17.06172 -3.32 -0.64 21.4362
15.83916 -5.8 -0.64 19.3986
15.83916 -5.82 -0.64 19.3986
14.386740000000001 -6.62 -0.64 16.9779
15.3111 3.5 -0.66 18.5185
17.77464 -2.1 -0.66 22.6244
15.83916 -5.72 -0.66 19.3986
15.83916 -5.8 -0.66 19.3986
14.386740000000001 -6.66 -0.66 16.9779
15.3111 3.5 -0.68 18.5185
17.77464 -3.34 -0.68 22.6244
22.97934 -4.46 -0.68 31.2989
15.83916 -5.8 -0.68 19.3986
15.83916 -5.82 -0.68 19.3986
15.3111 -6.42 -0.68 18.5185
15.3111 -6.44 -0.68 18.5185
14.82888 -6.7 -0.68 17.7148
15.3111 3.5 -0.7 18.5185
22.97934 -3.22 -0.7 31.2989
17.77464 -3.32 -0.7 22.6244
17.77464 -3.34 -0.7 22.6244
21.64188 -4.36 -0.7 29.0698
15.83916 -5.7 -0.7 19.3986
15.83916 -5.8 -0.7 19.3986
15.3111 -6.42 -0.7 18.5185
15.3111 -6.72 -0.7 18.5185
15.3111 -6.74 -0.7 18.5185
15.3111 3.5 -0.72 18.5185
17.77464 -3.32 -0.72 22.6244
21.64188 -4.36 -0.72 29.0698
22.97934 -4.5 -0.72 31.2989
15.83916 -5.78 -0.72 19.3986
15.3111 -6.4 -0.72 18.5185
15.3111 -6.42 -0.72 18.5185
15.3111 3.5 -0.74 18.5185
21.64188 -4.36 -0.74 29.0698
15.83916 -5.24 -0.74 19.3986
15.83916 -5.68 -0.74 19.3986
15.83916 -5.78 -0.74 19.3986
15.83916 -5.8 -0.74 19.3986
15.3111 -6.38 -0.74 18.5185
15.3111 -6.4 -0.74 18.5185
15.3111 3.5 -0.76 18.5185
17.77464 -3.54 -0.76 22.6244
15.83916 -5.24 -0.76 19.3986
15.83916 -5.26 -0.76 19.3986
15.83916 -5.78 -0.76 19.3986
15.83916 -5.8 -0.76 19.3986
15.3111 3.5 -0.78 18.5185
17.77464 -3.54 -0.78 22.6244
22.97934 -4.46 -0.78 31.2989
16.419959999999996 -5.14 -0.78 20.3666
16.419959999999996 -5.16 -0.78 20.3666
16.419959999999996 -5.18 -0.78 20.3666
15.3111 3.5 -0.8 18.5185
15.83916 3.38 -0.8 19.3986
16.419959999999996 -5.16 -0.8 20.3666
16.419959999999996 -5.18 -0.8 20.3666
15.83916 -5.2 -0.8 19.3986
15.83916 3.38 -0.82 19.3986
22.97934 -4.36 -0.82 31.2989
15.83916 -5.2 -0.82 19.3986
15.83916 -5.22 -0.82 19.3986
15.83916 3.5 -0.84 19.3986
15.83916 3.38 -0.84 19.3986
21.64188 -3.6 -0.84 29.0698
22.97934 -4.28 -0.84 31.2989
22.97934 -4.36 -0.84 31.2989
21.64188 -3.6 -0.86 29.0698
22.97934 -4.28 -0.86 31.2989
15.83916 -5.56 -0.86 19.3986
17.06172 -3.06 -0.88 21.4362
17.06172 -3.08 -0.9 21.4362
21.64188 -4.06 -0.9 29.0698
21.64188 -4.08 -0.9 29.0698
21.64188 -4.06 -0.92 29.0698
21.64188 -4.08 -0.92 29.0698
16.419959999999996 -4.7 -0.96 20.3666
16.419959999999996 -4.72 -0.96 20.3666
16.419959999999996 -4.74 -0.96 20.3666
17.06172 -4.68 -0.98 21.4362
16.419959999999996 -4.7 -0.98 20.3666
15.83916 -4.94 -0.98 19.3986
15.83916 -4.96 -0.98 19.3986
15.3111 -6.28 -0.98 18.5185
15.83916 -6.3 -0.98 19.3986
17.06172 -4.66 -1.0 21.4362
16.419959999999996 -4.68 -1.0 20.3666
15.83916 -4.96 -1.0 19.3986
15.83916 -4.98 -1.0 19.3986
17.77464 -2.8 -1.02 22.6244
17.77464 -3.58 -1.02 22.6244
17.06172 -4.64 -1.02 21.4362
16.419959999999996 -4.66 -1.02 20.3666
15.83916 -4.98 -1.02 19.3986
15.83916 -5.0 -1.02 19.3986
15.83916 -6.2 -1.02 19.3986
15.83916 -6.22 -1.02 19.3986
15.83916 -6.24 -1.02 19.3986
14.82888 -6.54 -1.02 17.7148
14.82888 -6.56 -1.02 17.7148
15.3111 -6.66 -1.02 18.5185
15.3111 -6.68 -1.02 18.5185
21.64188 -2.96 -1.04 29.0698
17.06172 -3.04 -1.04 21.4362
17.77464 -3.56 -1.04 22.6244
17.77464 -3.58 -1.04 22.6244
16.419959999999996 -4.64 -1.04 20.3666
15.83916 -5.0 -1.04 19.3986
15.83916 -6.2 -1.04 19.3986
15.83916 -6.22 -1.04 19.3986
14.82888 -6.58 -1.04 17.7148
14.82888 -6.64 -1.04 17.7148
14.82888 -6.66 -1.04 17.7148
15.3111 -6.68 -1.04 18.5185
14.82888 -6.7 -1.04 17.7148
17.77464 -2.8 -1.06 22.6244
16.419959999999996 -4.62 -1.06 20.3666
16.419959999999996 -4.64 -1.06 20.3666
15.83916 -5.0 -1.06 19.3986
15.83916 -6.18 -1.06 19.3986
15.83916 -6.2 -1.06 19.3986
14.82888 -6.6 -1.06 17.7148
18.57126 -1.8 -1.08 23.9521
17.77464 -2.8 -1.08 22.6244
21.64188 -2.94 -1.08 29.0698
16.419959999999996 -4.62 -1.08 20.3666
16.419959999999996 -4.64 -1.08 20.3666
16.419959999999996 -4.86 -1.08 20.3666
15.83916 -5.0 -1.08 19.3986
15.83916 -5.02 -1.08 19.3986
15.83916 -6.18 -1.08 19.3986
15.83916 -6.2 -1.08 19.3986
14.82888 -6.62 -1.08 17.7148
17.77464 4.88 -1.1 22.6244
19.467180000000003 -1.96 -1.1 25.4453
17.77464 -3.02 -1.1 22.6244
17.77464 -3.04 -1.1 22.6244
18.57126 -3.4 -1.1 23.9521
16.419959999999996 -4.62 -1.1 20.3666
16.419959999999996 -4.64 -1.1 20.3666
16.419959999999996 -4.76 -1.1 20.3666
16.419959999999996 -4.78 -1.1 20.3666
16.419959999999996 -4.86 -1.1 20.3666
16.419959999999996 -4.88 -1.1 20.3666
15.83916 -5.02 -1.1 19.3986
15.3111 -6.16 -1.1 18.5185
15.3111 -6.18 -1.1 18.5185
15.3111 -6.38 -1.1 18.5185
14.82888 -6.62 -1.1 17.7148
17.77464 -3.0 -1.12 22.6244
17.77464 -3.02 -1.12 22.6244
16.419959999999996 -4.62 -1.12 20.3666
16.419959999999996 -4.94 -1.12 20.3666
15.3111 -6.16 -1.12 18.5185
15.3111 -6.18 -1.12 18.5185
15.3111 -6.38 -1.12 18.5185
15.3111 -6.4 -1.12 18.5185
15.3111 -6.46 -1.12 18.5185
14.82888 -6.64 -1.12 17.7148
17.77464 -2.98 -1.14 22.6244
17.77464 -3.0 -1.14 22.6244
16.419959999999996 -4.62 -1.14 20.3666
16.419959999999996 -4.7 -1.14 20.3666
16.419959999999996 -4.92 -1.14 20.3666
16.419959999999996 -4.94 -1.14 20.3666
16.419959999999996 -4.96 -1.14 20.3666
15.83916 -5.02 -1.14 19.3986
15.83916 -5.04 -1.14 19.3986
15.3111 -6.16 -1.14 18.5185
15.3111 -6.34 -1.14 18.5185
15.3111 -6.36 -1.14 18.5185
15.3111 -6.44 -1.14 18.5185
15.3111 -6.46 -1.14 18.5185
14.82888 -6.62 -1.14 17.7148
14.82888 -6.64 -1.14 17.7148
18.57126 -2.96 -1.16 23.9521
17.77464 -2.98 -1.16 22.6244
17.77464 -3.0 -1.16 22.6244
16.419959999999996 -4.7 -1.16 20.3666
16.419959999999996 -5.02 -1.16 20.3666
16.419959999999996 -5.04 -1.16 20.3666
15.3111 -6.14 -1.16 18.5185
15.3111 -6.16 -1.16 18.5185
15.3111 -6.26 -1.16 18.5185
15.3111 -6.34 -1.16 18.5185
15.3111 -6.46 -1.16 18.5185
15.3111 -6.54 -1.16 18.5185
14.82888 -6.64 -1.16 17.7148
17.06172 -4.88 -1.18 21.4362
15.3111 -6.14 -1.18 18.5185
15.3111 -6.16 -1.18 18.5185
15.3111 -6.18 -1.18 18.5185
15.3111 -6.26 -1.18 18.5185
15.3111 -6.54 -1.18 18.5185
15.3111 -6.56 -1.18 18.5185
16.419959999999996 -4.7 -1.2 20.3666
15.3111 -6.14 -1.2 18.5185
15.3111 -6.16 -1.2 18.5185
15.3111 -6.24 -1.2 18.5185
15.3111 -6.26 -1.2 18.5185
15.3111 -6.52 -1.2 18.5185
15.3111 -6.54 -1.2 18.5185
15.3111 -6.56 -1.2 18.5185
16.419959999999996 -4.8 -1.22 20.3666
15.3111 -6.26 -1.22 18.5185
15.3111 -6.54 -1.22 18.5185
15.3111 -6.56 -1.22 18.5185
16.419959999999996 -4.74 -1.24 20.3666
16.419959999999996 -4.9 -1.24 20.3666
16.419959999999996 -4.92 -1.24 20.3666
15.3111 -6.26 -1.24 18.5185
15.3111 -6.34 -1.24 18.5185
15.83916 -6.46 -1.24 19.3986
15.3111 -6.54 -1.24 18.5185
16.419959999999996 -4.88 -1.26 20.3666
16.419959999999996 -4.9 -1.26 20.3666
15.3111 -6.26 -1.26 18.5185
15.3111 -6.28 -1.26 18.5185
15.3111 5.08 -1.28 18.5185
15.3111 -6.3 -1.28 18.5185
15.3111 -6.36 -1.28 18.5185
15.3111 -6.38 -1.28 18.5185
15.3111 -6.5 -1.28 18.5185
15.3111 -6.52 -1.28 18.5185
15.83916 -6.46 -1.3 19.3986
15.83916 -6.48 -1.3 19.3986
15.83916 -6.5 -1.3 19.3986
15.3111 -6.52 -1.3 18.5185
16.419959999999996 -6.74 -1.3 20.3666
16.419959999999996 -6.42 -1.32 20.3666
16.419959999999996 -6.44 -1.32 20.3666
15.83916 -6.46 -1.32 19.3986
15.3111 3.12 -1.36 18.5185
15.3111 3.12 -1.38 18.5185
13.6044 2.42 -1.5 15.674
13.6044 2.42 -1.52 15.674
13.6044 2.4 -1.54 15.674
13.6044 2.4 -1.56 15.674
10.995 -5.22 -1.86 11.325
10.995 -5.24 -1.86 11.325
10.995 -5.26 -1.86 11.325
11.394240000000002 -5.8 -1.96 11.9904
10.811580000000001 -5.9 -1.96 11.0193
10.811580000000001 -5.92 -1.96 11.0193
10.811580000000001 -5.94 -1.96 11.0193
10.637759999999998 -6.74 -2.08 10.7296
10.316220000000001 2.72 -2.1 10.1937
10.472879999999998 -6.6 -2.1 10.4548
10.316220000000001 -6.5 -2.12 10.1937
10.316220000000001 -6.52 -2.12 10.1937
10.316220000000001 -6.54 -2.12 10.1937
10.316220000000001 -6.56 -2.12 10.1937
10.472879999999998 3.22 -2.16 10.4548
10.637759999999998 3.04 -2.16 10.7296
9.889902000000001 -6.7 -2.16 9.48317
9.889902000000001 -6.72 -2.16 9.48317
10.025244 2.84 -2.18 9.70874
10.025244 2.82 -2.18 9.70874
10.025244 2.8 -2.18 9.70874
10.316220000000001 -5.22 -2.22 10.1937
10.316220000000001 -5.24 -2.22 10.1937
9.889902000000001 -5.3 -2.22 9.48317
9.637241999999999 5.62 -2.4 9.06207
9.637241999999999 5.6 -2.4 9.06207
9.637241999999999 5.58 -2.4 9.06207
9.406074 5.52 -2.42 8.67679
9.51915 5.5 -2.42 8.86525
9.51915 5.48 -2.42 8.86525
9.637241999999999 5.46 -2.42 9.06207
9.637241999999999 5.44 -2.42 9.06207
9.637241999999999 5.42 -2.42 9.06207
9.637241999999999 5.4 -2.42 9.06207
9.406074 5.38 -2.44 8.67679
9.406074 5.36 -2.44 8.67679
9.406074 5.34 -2.44 8.67679
9.51915 5.32 -2.44 8.86525
9.51915 5.3 -2.44 8.86525
9.637241999999999 5.28 -2.44 9.06207
9.637241999999999 5.26 -2.44 9.06207
9.637241999999999 5.24 -2.44 9.06207
9.637241999999999 5.24 -2.46 9.06207
9.406074 5.22 -2.46 8.67679
9.406074 5.2 -2.46 8.67679
9.406074 5.18 -2.46 8.67679
9.51915 5.16 -2.46 8.86525
9.637241999999999 5.14 -2.46 9.06207
9.637241999999999 5.12 -2.46 9.06207
9.637241999999999 5.08 -2.46 9.06207
9.406074 5.04 -2.48 8.67679
9.406074 5.02 -2.48 8.67679
9.406074 5.0 -2.48 8.67679
9.406074 4.98 -2.48 8.67679
9.51915 4.96 -2.48 8.86525
9.51915 4.94 -2.48 8.86525
9.297708 4.9 -2.5 8.49618
9.297708 4.88 -2.5 8.49618
9.297708 4.86 -2.5 8.49618
9.297708 4.84 -2.5 8.49618
9.406074 4.82 -2.5 8.67679
9.406074 4.8 -2.5 8.67679
9.193757999999999 4.76 -2.52 8.32293
9.193757999999999 4.74 -2.52 8.32293
9.193757999999999 4.72 -2.52 8.32293
9.193757999999999 4.7 -2.52 8.32293
9.297708 4.68 -2.52 8.49618
9.297708 4.66 -2.52 8.49618
9.193757999999999 4.58 -2.54 8.32293
9.193757999999999 4.56 -2.54 8.32293
9.193757999999999 4.54 -2.54 8.32293
9.193757999999999 4.52 -2.54 8.32293
9.297708 4.5 -2.54 8.49618
9.297708 4.48 -2.54 8.49618
9.297708 4.46 -2.54 8.49618
9.093966 3.06 -2.54 8.15661
9.093966 4.44 -2.56 8.15661
9.093966 4.42 -2.56 8.15661
9.093966 4.4 -2.56 8.15661
9.193757999999999 4.38 -2.56 8.32293
9.193757999999999 4.36 -2.56 8.32293
9.193757999999999 4.34 -2.56 8.32293
9.193757999999999 4.32 -2.56 8.32293
9.093966 4.3 -2.58 8.15661
9.093966 4.28 -2.58 8.15661
9.093966 4.26 -2.58 8.15661
9.093966 4.24 -2.58 8.15661
9.093966 4.22 -2.58 8.15661
9.093966 4.2 -2.58 8.15661
9.297708 4.18 -2.58 8.49618
9.297708 4.16 -2.58 8.49618
9.406074 4.14 -2.58 8.67679
9.406074 4.12 -2.58 8.67679
9.093966 4.06 -2.6 8.15661
9.093966 4.04 -2.6 8.15661
9.093966 4.02 -2.6 8.15661
9.093966 4.0 -2.6 8.15661
9.093966 3.98 -2.6 8.15661
9.093966 3.96 -2.6 8.15661
8.99808 3.94 -2.62 7.9968
8.99808 3.92 -2.62 7.9968
8.99808 3.9 -2.62 7.9968
9.093966 3.88 -2.62 8.15661
9.093966 3.86 -2.62 8.15661
9.193757999999999 3.84 -2.62 8.32293
9.193757999999999 3.82 -2.62 8.32293
8.99808 3.78 -2.64 7.9968
8.99808 3.76 -2.64 7.9968
8.99808 3.74 -2.64 7.9968
8.99808 3.72 -2.64 7.9968
9.093966 3.54 -2.7 8.15661
9.093966 3.52 -2.7 8.15661
8.817162000000001 3.36 -2.7 7.69527
8.817162000000001 3.34 -2.7 7.69527
9.093966 3.78 -2.72 8.15661
9.093966 3.76 -2.72 8.15661
9.093966 3.74 -2.72 8.15661
9.193757999999999 4.06 -2.74 8.32293
8.99808 3.98 -2.74 7.9968
8.99808 3.96 -2.74 7.9968
8.99808 3.94 -2.74 7.9968
8.905884 3.92 -2.74 7.84314
8.905884 3.9 -2.74 7.84314
8.905884 3.88 -2.74 7.84314
9.193757999999999 3.82 -2.74 8.32293
8.99808 4.22 -2.76 7.9968
8.99808 4.2 -2.76 7.9968
8.99808 4.18 -2.76 7.9968
8.99808 4.16 -2.76 7.9968
8.99808 4.14 -2.76 7.9968
8.905884 4.1 -2.76 7.84314
8.905884 4.4 -2.78 7.84314
8.817162000000001 4.38 -2.78 7.69527
8.817162000000001 4.36 -2.78 7.69527
8.817162000000001 4.34 -2.78 7.69527
8.817162000000001 4.32 -2.78 7.69527
8.731722000000001 4.3 -2.78 7.55287
8.99808 4.68 -2.8 7.9968
8.905884 4.42 -2.8 7.84314
8.99808 4.92 -2.82 7.9968
8.817162000000001 4.88 -2.82 7.69527
8.817162000000001 4.84 -2.82 7.69527
8.817162000000001 4.82 -2.82 7.69527
8.731722000000001 4.76 -2.82 7.55287
8.493384 4.62 -2.82 7.15564
8.493384 4.6 -2.82 7.15564
8.99808 5.18 -2.84 7.9968
8.817162000000001 5.1 -2.84 7.69527
8.817162000000001 5.08 -2.84 7.69527
8.64939 4.98 -2.84 7.41565
8.493384 4.6 -2.84 7.15564
8.493384 4.58 -2.84 7.15564
8.905884 5.4 -2.86 7.84314
8.817162000000001 5.32 -2.86 7.69527
8.817162000000001 5.26 -2.86 7.69527
8.817162000000001 5.24 -2.86 7.69527
8.817162000000001 5.1 -2.86 7.69527
8.731722000000001 5.46 -2.88 7.55287
8.347944 3.52 -2.96 6.91324
8.27886 3.32 -2.96 6.7981
8.212038 3.6 -3.0 6.68673
8.147369999999999 3.62 -3.02 6.57895
8.147369999999999 3.62 -3.04 6.57895
8.147369999999999 3.66 -3.06 6.57895
8.147369999999999 3.64 -3.06 6.57895
7.965294 3.74 -3.16 6.27549
7.908282 3.78 -3.2 6.18047
7.908282 3.8 -3.22 6.18047
7.908282 3.82 -3.24 6.18047
7.908282 3.8 -3.24 6.18047
7.6472880000000005 4.02 -3.44 5.74548
7.6472880000000005 4.0 -3.44 5.74548
7.696506 3.88 -3.44 5.82751
7.6472880000000005 4.02 -3.46 5.74548
7.6472880000000005 4.0 -3.46 5.74548
7.696506 3.98 -3.46 5.82751
7.747145999999999 3.96 -3.46 5.91191
7.696506 3.94 -3.46 5.82751
7.747145999999999 3.92 -3.46 5.91191
7.747145999999999 3.9 -3.46 5.91191
7.696506 3.88 -3.46 5.82751
7.696506 3.86 -3.46 5.82751
7.696506 3.84 -3.46 5.82751
7.696506 3.82 -3.46 5.82751
7.6472880000000005 3.8 -3.46 5.74548
7.6472880000000005 4.02 -3.48 5.74548
7.079772 4.62 -4.08 4.79962
7.114037999999999 4.52 -4.08 4.85673
7.114037999999999 4.48 -4.08 4.85673
7.114037999999999 4.46 -4.08 4.85673
7.114037999999999 4.44 -4.08 4.85673
7.114037999999999 4.38 -4.08 4.85673
7.114037999999999 4.36 -4.08 4.85673
7.079772 4.34 -4.08 4.79962
7.079772 4.32 -4.08 4.79962
7.046298 4.64 -4.1 4.74383
7.079772 4.62 -4.1 4.79962
7.079772 4.6 -4.1 4.79962
7.079772 4.58 -4.1 4.79962
7.114037999999999 4.52 -4.1 4.85673
7.114037999999999 4.46 -4.1 4.85673
7.114037999999999 4.44 -4.1 4.85673
7.114037999999999 4.42 -4.1 4.85673
7.046298 4.3 -4.1 4.74383
7.046298 4.64 -4.12 4.74383
6.981642 4.74 -4.16 4.63607
6.981642 4.72 -4.16 4.63607
6.981642 4.7 -4.16 4.63607
6.981642 4.74 -4.18 4.63607
6.981642 4.72 -4.18 4.63607
6.919854 4.84 -4.26 4.53309
6.919854 4.82 -4.26 4.53309
6.860754 4.52 -4.28 4.43459
6.860754 4.9 -4.34 4.43459
6.672695999999999 5.1 -4.56 4.12116
6.776765999999999 5.16 -4.58 4.29461
6.647982 5.42 -4.82 4.07997
6.647982 5.4 -4.84 4.07997
6.623754 5.02 -4.84 4.03959
6.623754 5.36 -5.04 4.03959
6.623754 5.34 -5.04 4.03959
6.623754 5.32 -5.04 4.03959
6.623754 5.3 -5.04 4.03959
6.623754 5.56 -5.06 4.03959
6.623754 5.54 -5.06 4.03959
6.623754 5.52 -5.06 4.03959
6.623754 5.5 -5.06 4.03959
6.623754 5.48 -5.06 4.03959
6.623754 5.46 -5.06 4.03959
6.623754 5.44 -5.06 4.03959
6.623754 5.62 -5.08 4.03959
9999999 5.26 -2.44 5000009.06207
9.637241999999999 5.24 -2.44 5000009.06207
9.637241999999999 5.24 -2.46 5000009.06207
9.406074 5.22 -2.46 5000008.67679
9.406074 5.2 -2.46 5000008.67679
9.406074 5.18 -2.46 5000008.67679
9.51915 5.16 -2.46 5000008.86525
9.637241999999999 5.14 -2.46 5000009.06207
9.637241999999999 5.12 -2.46 5000009.06207
9.637241999999999 5.08 -2.46 5000009.06207
9.406074 5.04 -2.48 5000008.67679
9.406074 5.02 -2.48 5000008.67679
9.406074 5.0 -2.48 5000008.67679
9.406074 4.98 -2.48 5000008.67679
9.51915 4.96 -2.48 5000008.86525
9.51915 4.94 -2.48 5000008.86525
9.297708 4.9 -2.5 5000008.49618
9.297708 4.88 -2.5 5000008.49618
9.297708 4.86 -2.5 5000008.49618
9.297708 4.84 -2.5 5000008.49618
9.406074 4.82 -2.5 5000008.67679
9.406074 4.8 -2.5 5000008.67679
9.193757999999999 4.76 -2.52 5000008.32293
9.193757999999999 4.74 -2.52 5000008.32293
9.193757999999999 4.72 -2.52 5000008.32293
9.193757999999999 4.7 -2.52 5000008.32293
9.297708 4.68 -2.52 5000008.49618
9.297708 4.66 -2.52 5000008.49618
9.193757999999999 4.58 -2.54 5000008.32293
9.193757999999999 4.56 -2.54 5000008.32293
9.193757999999999 4.54 -2.54 5000008.32293
9.193757999999999 4.52 -2.54 5000008.32293
9.297708 4.5 -2.54 5000008.49618
9.297708 4.48 -2.54 5000008.49618
9.297708 4.46 -2.54 5000008.49618
9.093966 3.06 -2.54 5000008.15661
9.093966 4.44 -2.56 5000008.15661
9.093966 4.42 -2.56 5000008.15661
9.093966 4.4 -2.56 5000008.15661
9.193757999999999 4.38 -2.56 5000008.32293
9.193757999999999 4.36 -2.56 5000008.32293
9.193757999999999 4.34 -2.56 5000008.32293
9.193757999999999 4.32 -2.56 5000008.32293
9.093966 4.3 -2.58 5000008.15661
9.093966 4.28 -2.58 5000008.15661
9.093966 4.26 -2.58 5000008.15661
9.093966 4.24 -2.58 5000008.15661
9.093966 4.22 -2.58 5000008.15661
9.093966 4.2 -2.58 5000008.15661
9.297708 4.18 -2.58 5000008.49618
9.297708 4.16 -2.58 5000008.49618
9.406074 4.14 -2.58 5000008.67679
9.406074 4.12 -2.58 5000008.67679
9.093966 4.06 -2.6 5000008.15661
9.093966 4.04 -2.6 5000008.15661
9.093966 4.02 -2.6 5000008.15661
9.093966 4.0 -2.6 5000008.15661
9.093966 3.98 -2.6 5000008.15661
9.093966 3.96 -2.6 5000008.15661
8.99808 3.94 -2.62 5000007.9968
8.99808 3.92 -2.62 5000007.9968
8.99808 3.9 -2.62 5000007.9968
9.093966 3.88 -2.62 5000008.15661
9.093966 3.86 -2.62 5000008.15661
9.193757999999999 3.84 -2.62 5000008.32293
9.193757999999999 3.82 -2.62 5000008.32293
8.99808 3.78 -2.64 5000007.9968
8.99808 3.76 -2.64 5000007.9968
8.99808 3.74 -2.64 5000007.9968
8.99808 3.72 -2.64 5000007.9968
9.093966 3.54 -2.7 5000008.15661
9.093966 3.52 -2.7 5000008.15661
8.817162000000001 3.36 -2.7 5000007.69527
8.817162000000001 3.34 -2.7 5000007.69527
9.093966 3.78 -2.72 5000008.15661
9.093966 3.76 -2.72 5000008.15661
9.093966 3.74 -2.72 5000008.15661
9.193757999999999 4.06 -2.74 5000008.32293
8.99808 3.98 -2.74 5000007.9968
8.99808 3.96 -2.74 5000007.9968
8.99808 3.94 -2.74 5000007.9968
8.905884 3.92 -2.74 5000007.84314
8.905884 3.9 -2.74 5000007.84314
8.905884 3.88 -2.74 5000007.84314
9.193757999999999 3.82 -2.74 5000008.32293
8.99808 4.22 -2.76 5000007.9968
8.99808 4.2 -2.76 5000007.9968
8.99808 4.18 -2.76 5000007.9968
8.99808 4.16 -2.76 5000007.9968
8.99808 4.14 -2.76 5000007.9968
8.905884 4.1 -2.76 5000007.84314
8.905884 4.4 -2.78 5000007.84314
8.817162000000001 4.38 -2.78 5000007.69527
8.817162000000001 4.36 -2.78 5000007.69527
8.817162000000001 4.34 -2.78 5000007.69527
8.817162000000001 4.32 -2.78 5000007.69527
8.731722000000001 4.3 -2.78 5000007.55287
8.99808 4.68 -2.8 5000007.9968
8.905884 4.42 -2.8 5000007.84314
8.99808 4.92 -2.82 5000007.9968
8.817162000000001 4.88 -2.82 5000007.69527
8.817162000000001 4.84 -2.82 5000007.69527
8.817162000000001 4.82 -2.82 5000007.69527
8.731722000000001 4.76 -2.82 5000007.55287
8.493384 4.62 -2.82 5000007.15564
8.493384 4.6 -2.82 5000007.15564
8.99808 5.18 -2.84 5000007.9968
8.817162000000001 5.1 -2.84 5000007.69527
8.817162000000001 5.08 -2.84 5000007.69527
8.64939 4.98 -2.84 5000007.41565
8.493384 4.6 -2.84 5000007.15564
8.493384 4.58 -2.84 5000007.15564
8.905884 5.4 -2.86 5000007.84314
8.817162000000001 5.32 -2.86 5000007.69527
8.817162000000001 5.26 -2.86 5000007.69527
8.817162000000001 5.24 -2.86 5000007.69527
8.817162000000001 5.1 -2.86 5000007.69527
8.731722000000001 5.46 -2.88 5000007.55287
8.347944 3.52 -2.96 5000006.91324
8.27886 3.32 -2.96 5000006.7981
8.212038 3.6 -3.0 5000006.68673
8.147369999999999 3.62 -3.02 5000006.57895
8.147369999999999 3.62 -3.04 5000006.57895
8.147369999999999 3.66 -3.06 5000006.57895
8.147369999999999 3.64 -3.06 5000006.57895
7.965294 3.74 -3.16 5000006.27549
7.908282 3.78 -3.2 5000006.18047
7.908282 3.8 -3.22 5000006.18047
7.908282 3.82 -3.24 5000006.18047
7.908282 3.8 -3.24 5000006.18047
7.6472880000000005 4.02 -3.44 5000005.74548
7.6472880000000005 4.0 -3.44 5000005.74548
7.696506 3.88 -3.44 5000005.82751
7.6472880000000005 4.02 -3.46 5000005.74548
7.6472880000000005 4.0 -3.46 5000005.74548
7.696506 3.98 -3.46 5000005.82751
7.747145999999999 3.96 -3.46 5000005.91191
7.696506 3.94 -3.46 5000005.82751
7.747145999999999 3.92 -3.46 5000005.91191
7.747145999999999 3.9 -3.46 5000005.91191
7.696506 3.88 -3.46 5000005.82751
7.696506 3.86 -3.46 5000005.82751
7.696506 3.84 -3.46 5000005.82751
7.696506 3.82 -3.46 5000005.82751
7.6472880000000005 3.8 -3.46 5000005.74548
7.6472880000000005 4.02 -3.48 5000005.74548
7.079772 4.62 -4.08 5000004.79962
7.114037999999999 4.52 -4.08 5000004.85673
7.114037999999999 4.48 -4.08 5000004.85673
7.114037999999999 4.46 -4.08 5000004.85673
7.114037999999999 4.44 -4.08 5000004.85673
7.114037999999999 4.38 -4.08 5000004.85673
7.114037999999999 4.36 -4.08 5000004.85673
7.079772 4.34 -4.08 5000004.79962
7.079772 4.32 -4.08 5000004.79962
7.046298 4.64 -4.1 5000004.74383
7.079772 4.62 -4.1 5000004.79962
7.079772 4.6 -4.1 5000004.79962
7.079772 4.58 -4.1 5000004.79962
7.114037999999999 4.52 -4.1 5000004.85673
7.114037999999999 4.46 -4.1 5000004.85673
7.114037999999999 4.44 -4.1 5000004.85673
7.114037999999999 4.42 -4.1 5000004.85673
7.046298 4.3 -4.1 5000004.74383
7.046298 4.64 -4.12 5000004.74383
6.981642 4.74 -4.16 5000004.63607
6.981642 4.72 -4.16 5000004.63607
6.981642 4.7 -4.16 5000004.63607
6.981642 4.74 -4.18 5000004.63607
6.981642 4.72 -4.18 5000004.63607
6.919854 4.84 -4.26 5000004.53309
6.919854 4.82 -4.26 5000004.53309
6.860754 4.52 -4.28 5000004.43459
6.860754 4.9 -4.34 5000004.43459
6.672695999999999 5.1 -4.56 5000004.12116
6.776765999999999 5.16 -4.58 5000004.29461
6.647982 5.42 -4.82 5000004.07997
6.647982 5.4 -4.84 5000004.07997
6.623754 5.02 -4.84 5000004.03959
6.623754 5.36 -5.04 5000004.03959
6.623754 5.34 -5.04 5000004.03959
6.623754 5.32 -5.04 5000004.03959
6.623754 5.3 -5.04 5000004.03959
6.623754 5.56 -5.06 5000004.03959
6.623754 5.54 -5.06 5000004.03959
6.623754 5.52 -5.06 5000004.03959
6.623754 5.5 -5.06 5000004.03959
6.623754 5.48 -5.06 5000004.03959
6.623754 5.46 -5.06 5000004.03959
6.623754 5.44 -5.06 5000004.03959
6.623754 5.62 -5.08 5000004.03959
-2.84 5000007.9968
13.617162 5.1 -2.84 5000007.69527
13.617162 5.08 -2.84 5000007.69527
13.44939 4.98 -2.84 5000007.41565
13.293384 4.6 -2.84 5000007.15564
13.293384 4.58 -2.84 5000007.15564
13.705884 5.4 -2.86 5000007.84314
13.617162 5.32 -2.86 5000007.69527
13.617162 5.26 -2.86 5000007.69527
13.617162 5.24 -2.86 5000007.69527
13.617162 5.1 -2.86 5000007.69527
13.531722 5.46 -2.88 5000007.55287
13.147944 3.52 -2.96 5000006.91324
13.078859999999999 3.32 -2.96 5000006.7981
13.012038 3.6 -3.0 5000006.68673
12.94737 3.62 -3.02 5000006.57895
12.94737 3.62 -3.04 5000006.57895
12.94737 3.66 -3.06 5000006.57895
12.94737 3.64 -3.06 5000006.57895
12.765293999999997 3.74 -3.16 5000006.27549
12.708281999999999 3.78 -3.2 5000006.18047
12.708281999999999 3.8 -3.22 5000006.18047
12.708281999999999 3.82 -3.24 5000006.18047
12.708281999999999 3.8 -3.24 5000006.18047
12.447288 4.02 -3.44 5000005.74548
12.447288 4.0 -3.44 5000005.74548
12.496506 3.88 -3.44 5000005.82751
12.447288 4.02 -3.46 5000005.74548
12.447288 4.0 -3.46 5000005.74548
12.496506 3.98 -3.46 5000005.82751
12.547146 3.96 -3.46 5000005.91191
12.496506 3.94 -3.46 5000005.82751
12.547146 3.92 -3.46 5000005.91191
12.547146 3.9 -3.46 5000005.91191
12.496506 3.88 -3.46 5000005.82751
12.496506 3.86 -3.46 5000005.82751
12.496506 3.84 -3.46 5000005.82751
12.496506 3.82 -3.46 5000005.82751
12.447288 3.8 -3.46 5000005.74548
12.447288 4.02 -3.48 5000005.74548
11.879772 4.62 -4.08 5000004.79962
11.914038 4.52 -4.08 5000004.85673
11.914038 4.48 -4.08 5000004.85673
11.914038 4.46 -4.08 5000004.85673
11.914038 4.44 -4.08 5000004.85673
11.914038 4.38 -4.08 5000004.85673
11.914038 4.36 -4.08 5000004.85673
11.879772 4.34 -4.08 5000004.79962
11.879772 4.32 -4.08 5000004.79962
11.846297999999999 4.64 -4.1 5000004.74383
11.879772 4.62 -4.1 5000004.79962
11.879772 4.6 -4.1 5000004.79962
11.879772 4.58 -4.1 5000004.79962
11.914038 4.52 -4.1 5000004.85673
11.914038 4.46 -4.1 5000004.85673
11.914038 4.44 -4.1 5000004.85673
11.914038 4.42 -4.1 5000004.85673
11.846297999999999 4.3 -4.1 5000004.74383
11.846297999999999 4.64 -4.12 5000004.74383
11.781642 4.74 -4.16 5000004.63607
11.781642 4.72 -4.16 5000004.63607
11.781642 4.7 -4.16 5000004.63607
11.781642 4.74 -4.18 5000004.63607
11.781642 4.72 -4.18 5000004.63607
11.719854 4.84 -4.26 5000004.53309
11.719854 4.82 -4.26 5000004.53309
11.660753999999999 4.52 -4.28 5000004.43459
11.660753999999999 4.9 -4.34 5000004.43459
11.472696000000001 5.1 -4.56 5000004.12116
11.576766 5.16 -4.58 5000004.29461
11.447982 5.42 -4.82 5000004.07997
11.447982 5.4 -4.84 5000004.07997
11.423754 5.02 -4.84 5000004.03959
11.423754 5.36 -5.04 5000004.03959
11.423754 5.34 -5.04 5000004.03959
11.423754 5.32 -5.04 5000004.03959
11.423754 5.3 -5.04 5000004.03959
11.423754 5.56 -5.06 5000004.03959
11.423754 5.54 -5.06 5000004.03959
11.423754 5.52 -5.06 5000004.03959
11.423754 5.5 -5.06 5000004.03959
11.423754 5.48 -5.06 5000004.03959
11.423754 5.46 -5.06 5000004.03959
11.423754 5.44 -5.06 5000004.03959
11.423754 5.62 -5.08 5000004.03959
8 5000004.29461
7.631988 5.42 -4.82 5000004.07997
7.631988 5.4 -4.84 5000004.07997
7.615836 5.02 -4.84 5000004.03959
7.615836 5.36 -5.04 5000004.03959
7.615836 5.34 -5.04 5000004.03959
7.615836 5.32 -5.04 5000004.03959
7.615836 5.3 -5.04 5000004.03959
7.615836 5.56 -5.06 5000004.03959
7.615836 5.54 -5.06 5000004.03959
7.615836 5.52 -5.06 5000004.03959
7.615836 5.5 -5.06 5000004.03959
7.615836 5.48 -5.06 5000004.03959
7.615836 5.46 -5.06 5000004.03959
7.615836 5.44 -5.06 5000004.03959
7.615836 5.62 -5.08 5000004.03959
2 -16.4 2.3333333333333335 5000019.3986
10.617283333333333 -0.8333333333333334 2.3 5000018.5185
11.232286666666667 -9.533333333333333 2.3 5000036.9686
10.754146666666667 -12.133333333333333 2.3 5000022.6244
10.754146666666667 -12.166666666666666 2.3 5000022.6244
10.71454 -12.2 2.3 5000021.4362
10.64662 -16.233333333333334 2.3 5000019.3986
10.64662 -16.366666666666667 2.3 5000019.3986
10.617283333333333 -0.8333333333333334 2.2666666666666666 5000018.5185
10.71454 -12.166666666666666 2.2666666666666666 5000021.4362
10.71454 -12.2 2.2666666666666666 5000021.4362
10.64662 -16.333333333333332 2.2666666666666666 5000019.3986
10.64662 -16.366666666666667 2.2666666666666666 5000019.3986
10.56593 -17.7 2.2666666666666666 5000016.9779
10.617283333333333 -0.8333333333333334 2.2333333333333334 5000018.5185
10.754146666666667 -10.166666666666666 2.2333333333333334 5000022.6244
10.64662 -16.2 2.2333333333333334 5000019.3986
10.64662 -16.333333333333332 2.2333333333333334 5000019.3986
10.56593 -17.766666666666666 2.2333333333333334 5000016.9779
10.617283333333333 -0.8333333333333334 2.2 5000018.5185
10.754146666666667 -12.233333333333333 2.2 5000022.6244
11.043296666666667 -14.1 2.2 5000031.2989
10.64662 -16.333333333333332 2.2 5000019.3986
10.64662 -16.366666666666667 2.2 5000019.3986
10.617283333333333 -17.366666666666667 2.2 5000018.5185
10.617283333333333 -17.4 2.2 5000018.5185
10.590493333333333 -17.833333333333332 2.2 5000017.7148
10.617283333333333 -0.8333333333333334 2.1666666666666665 5000018.5185
11.043296666666667 -12.033333333333333 2.1666666666666665 5000031.2989
10.754146666666667 -12.2 2.1666666666666665 5000022.6244
10.754146666666667 -12.233333333333333 2.1666666666666665 5000022.6244
10.968993333333334 -13.933333333333334 2.1666666666666665 5000029.0698
10.64662 -16.166666666666668 2.1666666666666665 5000019.3986
10.64662 -16.333333333333332 2.1666666666666665 5000019.3986
10.617283333333333 -17.366666666666667 2.1666666666666665 5000018.5185
10.617283333333333 -17.866666666666667 2.1666666666666665 5000018.5185
10.617283333333333 -17.9 2.1666666666666665 5000018.5185
10.617283333333333 -0.8333333333333334 2.1333333333333333 5000018.5185
10.754146666666667 -12.2 2.1333333333333333 5000022.6244
10.968993333333334 -13.933333333333334 2.1333333333333333 5000029.0698
11.043296666666667 -14.166666666666666 2.1333333333333333 5000031.2989
10.64662 -16.3 2.1333333333333333 5000019.3986
10.617283333333333 -17.333333333333332 2.1333333333333333 5000018.5185
10.617283333333333 -17.366666666666667 2.1333333333333333 5000018.5185
10.617283333333333 -0.8333333333333334 2.1 5000018.5185
10.968993333333334 -13.933333333333334 2.1 5000029.0698
10.64662 -15.4 2.1 5000019.3986
10.64662 -16.133333333333333 2.1 5000019.3986
10.64662 -16.3 2.1 5000019.3986
10.64662 -16.333333333333332 2.1 5000019.3986
10.617283333333333 -17.3 2.1 5000018.5185
10.617283333333333 -17.333333333333332 2.1 5000018.5185
10.617283333333333 -0.8333333333333334 2.066666666666667 5000018.5185
10.754146666666667 -12.566666666666666 2.066666666666667 5000022.6244
10.64662 -15.4 2.066666666666667 5000019.3986
10.64662 -15.433333333333334 2.066666666666667 5000019.3986
10.64662 -16.3 2.066666666666667 5000019.3986
10.64662 -16.333333333333332 2.066666666666667 5000019.3986
10.617283333333333 -0.8333333333333334 2.033333333333333 5000018.5185
10.754146666666667 -12.566666666666666 2.033333333333333 5000022.6244
11.043296666666667 -14.1 2.033333333333333 5000031.2989
10.678886666666667 -15.233333333333333 2.033333333333333 5000020.3666
10.678886666666667 -15.266666666666667 2.033333333333333 5000020.3666
10.678886666666667 -15.3 2.033333333333333 5000020.3666
10.617283333333333 -0.8333333333333334 2.0 5000018.5185
10.64662 -1.0333333333333334 2.0 5000019.3986
10.678886666666667 -15.266666666666667 2.0 5000020.3666
10.678886666666667 -15.3 2.0 5000020.3666
10.64662 -15.333333333333334 2.0 5000019.3986
10.64662 -1.0333333333333334 1.9666666666666666 5000019.3986
11.043296666666667 -13.933333333333334 1.9666666666666666 5000031.2989
10.64662 -15.333333333333334 1.9666666666666666 5000019.3986
10.64662 -15.366666666666667 1.9666666666666666 5000019.3986
10.64662 -0.8333333333333334 1.9333333333333333 5000019.3986
10.64662 -1.0333333333333334 1.9333333333333333 5000019.3986
10.968993333333334 -12.666666666666666 1.9333333333333333 5000029.0698
11.043296666666667 -13.8 1.9333333333333333 5000031.2989
11.043296666666667 -13.933333333333334 1.9333333333333333 5000031.2989
10.968993333333334 -12.666666666666666 1.9 5000029.0698
11.043296666666667 -13.8 1.9 5000031.2989
10.64662 -15.933333333333334 1.9 5000019.3986
10.71454 -11.766666666666667 1.8666666666666667 5000021.4362
10.71454 -11.8 1.8333333333333333 5000021.4362
10.968993333333334 -13.433333333333334 1.8333333333333333 5000029.0698
10.968993333333334 -13.466666666666667 1.8333333333333333 5000029.0698
10.968993333333334 -13.433333333333334 1.8 5000029.0698
10.968993333333334 -13.466666666666667 1.8 5000029.0698
10.678886666666667 -14.5 1.7333333333333334 5000020.3666
10.678886666666667 -14.533333333333333 1.7333333333333334 5000020.3666
10.678886666666667 -14.566666666666666 1.7333333333333334 5000020.3666
10.71454 -14.466666666666667 1.7 5000021.4362
10.678886666666667 -14.5 1.7 5000020.3666
10.64662 -14.9 1.7 5000019.3986
10.64662 -14.933333333333334 1.7 5000019.3986
10.617283333333333 -17.133333333333333 1.7 5000018.5185
10.64662 -17.166666666666668 1.7 5000019.3986
10.71454 -14.433333333333334 1.6666666666666667 5000021.4362
10.678886666666667 -14.466666666666667 1.6666666666666667 5000020.3666
10.64662 -14.933333333333334 1.6666666666666667 5000019.3986
10.64662 -14.966666666666667 1.6666666666666667 5000019.3986
10.754146666666667 -11.333333333333334 1.6333333333333333 5000022.6244
10.754146666666667 -12.633333333333333 1.6333333333333333 5000022.6244
10.71454 -14.4 1.6333333333333333 5000021.4362
10.678886666666667 -14.433333333333334 1.6333333333333333 5000020.3666
10.64662 -14.966666666666667 1.6333333333333333 5000019.3986
10.64662 -15.0 1.6333333333333333 5000019.3986
10.64662 -17.0 1.6333333333333333 5000019.3986
10.64662 -17.033333333333335 1.6333333333333333 5000019.3986
10.64662 -17.066666666666666 1.6333333333333333 5000019.3986
10.590493333333333 -17.566666666666666 1.6333333333333333 5000017.7148
10.590493333333333 -17.6 1.6333333333333333 5000017.7148
10.617283333333333 -17.766666666666666 1.6333333333333333 5000018.5185
10.617283333333333 -17.8 1.6333333333333333 5000018.5185
10.968993333333334 -11.6 1.6 5000029.0698
10.71454 -11.733333333333333 1.6 5000021.4362
10.754146666666667 -12.6 1.6 5000022.6244
10.754146666666667 -12.633333333333333 1.6 5000022.6244
10.678886666666667 -14.4 1.6 5000020.3666
10.64662 -15.0 1.6 5000019.3986
10.64662 -17.0 1.6 5000019.3986
10.64662 -17.033333333333335 1.6 5000019.3986
10.590493333333333 -17.633333333333333 1.6 5000017.7148
10.590493333333333 -17.733333333333334 1.6 5000017.7148
