VERSION .7
FIELDS x y z rgb
SIZE 4 4 4 4
TYPE F F F F
COUNT 1 1 1 1
WIDTH 1072
HEIGHT 1
VIEWPOINT 0 0 0 1 0 0 0
POINTS 1072
DATA ascii
16.419959999999996 -4.82 -1.12 20.3666
16.419959999999996 -4.84 -1.12 20.3666
15.83916 -4.98 -1.12 19.3986
15.83916 -5.0 -1.12 19.3986
15.83916 -5.08 -1.12 19.3986
15.3111 -5.24 -1.12 18.5185
15.3111 -5.26 -1.12 18.5185
15.3111 -6.46 -1.12 18.5185
15.3111 -6.48 -1.12 18.5185
14.82888 -6.68 -1.12 17.7148
17.06172 -3.14 -1.14 21.4362
17.06172 -3.16 -1.14 21.4362
17.77464 -3.54 -1.14 22.6244
16.419959999999996 -4.82 -1.14 20.3666
16.419959999999996 -4.84 -1.14 20.3666
15.83916 -5.16 -1.14 19.3986
15.3111 -5.24 -1.14 18.5185
15.3111 -5.26 -1.14 18.5185
15.3111 -6.44 -1.14 18.5185
15.3111 -6.46 -1.14 18.5185
14.82888 -6.66 -1.14 17.7148
14.82888 -6.68 -1.14 17.7148
14.82888 -6.7 -1.14 17.7148
17.77464 -3.12 -1.16 22.6244
17.06172 -3.14 -1.16 21.4362
15.83916 -4.9 -1.16 19.3986
15.83916 -4.92 -1.16 19.3986
15.83916 -5.14 -1.16 19.3986
15.83916 -5.16 -1.16 19.3986
15.83916 -5.18 -1.16 19.3986
15.3111 -5.26 -1.16 18.5185
15.3111 -6.44 -1.16 18.5185
15.3111 -6.46 -1.16 18.5185
14.82888 -6.64 -1.16 17.7148
14.82888 -6.74 -1.16 17.7148
19.467180000000003 -3.06 -1.18 25.4453
17.77464 -3.1 -1.18 22.6244
17.77464 -3.12 -1.18 22.6244
15.83916 -4.9 -1.18 19.3986
15.83916 -4.92 -1.18 19.3986
15.83916 -5.18 -1.18 19.3986
15.3111 -5.26 -1.18 18.5185
14.82888 -6.44 -1.18 17.7148
14.82888 -6.46 -1.18 17.7148
14.82888 -6.56 -1.18 17.7148
14.82888 -6.64 -1.18 17.7148
14.82888 -6.66 -1.18 17.7148
14.82888 -6.74 -1.18 17.7148
15.83916 -5.08 -1.2 19.3986
16.419959999999996 -5.1 -1.2 20.3666
14.82888 -6.44 -1.2 17.7148
14.82888 -6.46 -1.2 17.7148
14.82888 -6.56 -1.2 17.7148
16.419959999999996 -5.1 -1.22 20.3666
14.82888 -6.44 -1.22 17.7148
14.82888 -6.54 -1.22 17.7148
14.82888 -6.56 -1.22 17.7148
15.83916 -4.92 -1.24 19.3986
16.419959999999996 -5.0 -1.24 20.3666
16.419959999999996 -5.02 -1.24 20.3666
14.82888 -6.44 -1.24 17.7148
14.82888 -6.54 -1.24 17.7148
15.83916 -4.94 -1.26 19.3986
16.419959999999996 -5.1 -1.26 20.3666
16.419959999999996 -5.12 -1.26 20.3666
15.83916 -5.14 -1.26 19.3986
14.82888 -6.6 -1.26 17.7148
17.06172 -6.74 -1.26 21.4362
16.419959999999996 -5.08 -1.28 20.3666
16.419959999999996 -5.1 -1.28 20.3666
16.419959999999996 -5.12 -1.28 20.3666
16.419959999999996 -5.14 -1.28 20.3666
14.82888 -6.56 -1.28 17.7148
14.82888 -6.58 -1.28 17.7148
15.3111 5.24 -1.3 18.5185
14.386740000000001 -6.58 -1.3 16.9779
14.82888 -6.66 -1.3 17.7148
14.82888 -6.68 -1.3 17.7148
14.386740000000001 -6.6 -1.32 16.9779
14.82888 -6.66 -1.32 17.7148
14.82888 4.34 -1.34 17.7148
16.419959999999996 -6.74 -1.34 20.3666
14.82888 3.22 -1.4 17.7148
13.6044 2.5 -1.54 15.674
13.6044 2.5 -1.56 15.674
11.18892 -5.12 -1.82 11.6482
10.811580000000001 -5.6 -1.94 11.0193
10.811580000000001 -5.62 -1.94 11.0193
10.811580000000001 -5.58 -1.96 11.0193
10.811580000000001 -5.6 -1.96 11.0193
10.811580000000001 -5.62 -1.96 11.0193
10.637759999999998 -5.64 -1.96 10.7296
10.316220000000001 -6.4 -2.06 10.1937
10.16718 -6.5 -2.06 9.9453
10.16718 -6.52 -2.06 9.9453
10.811580000000001 -6.2 -2.08 11.0193
10.811580000000001 -6.22 -2.08 11.0193
10.811580000000001 -6.24 -2.08 11.0193
10.637759999999998 -6.26 -2.08 10.7296
10.472879999999998 2.92 -2.14 10.4548
10.472879999999998 2.9 -2.14 10.4548
10.472879999999998 2.88 -2.14 10.4548
10.316220000000001 2.86 -2.14 10.1937
9.889902000000001 3.22 -2.3 9.48317
9.889902000000001 3.16 -2.3 9.48317
10.025244 3.08 -2.3 9.70874
9.889902000000001 3.06 -2.3 9.48317
9.889902000000001 3.04 -2.3 9.48317
9.889902000000001 3.04 -2.32 9.48317
9.51915 3.02 -2.32 8.86525
9.51915 3.0 -2.32 8.86525
9.637241999999999 -5.68 -2.38 9.06207
9.637241999999999 -5.7 -2.38 9.06207
9.51915 -5.72 -2.38 8.86525
9.51915 -5.74 -2.38 8.86525
9.51915 -5.76 -2.38 8.86525
9.406074 -5.78 -2.38 8.67679
9.406074 -5.8 -2.38 8.67679
9.297708 -5.82 -2.38 8.49618
9.297708 5.68 -2.62 8.49618
9.297708 5.64 -2.64 8.49618
9.093966 5.46 -2.66 8.15661
9.093966 5.44 -2.66 8.15661
9.193757999999999 5.38 -2.66 8.32293
8.817162000000001 3.32 -2.66 7.69527
8.99808 5.34 -2.68 7.9968
8.99808 5.32 -2.68 7.9968
8.99808 5.3 -2.68 7.9968
8.99808 5.28 -2.68 7.9968
8.905884 5.24 -2.7 7.84314
8.905884 5.22 -2.7 7.84314
8.905884 5.2 -2.7 7.84314
8.905884 5.18 -2.7 7.84314
8.905884 5.16 -2.7 7.84314
8.817162000000001 5.12 -2.72 7.69527
8.817162000000001 5.1 -2.72 7.69527
8.817162000000001 5.08 -2.72 7.69527
8.905884 5.06 -2.72 7.84314
8.905884 5.04 -2.72 7.84314
8.905884 5.02 -2.72 7.84314
8.905884 5.0 -2.72 7.84314
8.731722000000001 4.98 -2.74 7.55287
8.731722000000001 4.96 -2.74 7.55287
8.731722000000001 4.94 -2.74 7.55287
8.817162000000001 4.92 -2.74 7.69527
8.905884 4.9 -2.74 7.84314
8.905884 4.88 -2.74 7.84314
8.905884 4.86 -2.74 7.84314
8.905884 4.86 -2.76 7.84314
8.731722000000001 4.84 -2.76 7.55287
8.731722000000001 4.82 -2.76 7.55287
8.731722000000001 4.8 -2.76 7.55287
8.817162000000001 4.78 -2.76 7.69527
8.817162000000001 4.76 -2.76 7.69527
8.817162000000001 4.74 -2.76 7.69527
8.64939 4.72 -2.78 7.41565
8.64939 4.7 -2.78 7.41565
8.64939 4.68 -2.78 7.41565
8.731722000000001 4.66 -2.78 7.55287
8.731722000000001 4.64 -2.78 7.55287
8.731722000000001 4.62 -2.78 7.55287
8.731722000000001 4.1 -2.78 7.55287
8.731722000000001 4.08 -2.78 7.55287
8.64939 4.6 -2.8 7.41565
8.64939 4.58 -2.8 7.41565
8.569992 4.56 -2.8 7.28332
8.731722000000001 4.46 -2.8 7.55287
8.731722000000001 4.44 -2.8 7.55287
8.64939 4.42 -2.8 7.41565
8.731722000000001 3.48 -2.8 7.55287
8.64939 4.4 -2.82 7.41565
8.64939 4.38 -2.82 7.41565
8.64939 4.36 -2.82 7.41565
8.64939 4.34 -2.82 7.41565
8.64939 4.32 -2.82 7.41565
8.64939 4.3 -2.82 7.41565
8.64939 4.3 -2.84 7.41565
8.569992 4.28 -2.84 7.28332
8.569992 4.26 -2.84 7.28332
8.569992 4.24 -2.84 7.28332
8.64939 4.22 -2.84 7.41565
8.64939 4.2 -2.84 7.41565
8.64939 4.18 -2.84 7.41565
8.64939 4.18 -2.86 7.41565
8.493384 4.16 -2.86 7.15564
8.493384 4.14 -2.86 7.15564
8.493384 4.12 -2.86 7.15564
8.569992 4.1 -2.86 7.28332
8.569992 4.08 -2.86 7.28332
8.64939 4.06 -2.86 7.41565
8.64939 4.04 -2.86 7.41565
8.493384 3.48 -2.86 7.15564
8.27886 -4.58 -2.88 6.7981
8.64939 3.74 -2.92 7.41565
8.64939 3.72 -2.92 7.41565
8.569992 3.7 -2.92 7.28332
8.569992 3.68 -2.92 7.28332
8.493384 3.66 -2.92 7.15564
8.731722000000001 4.04 -2.94 7.55287
8.731722000000001 4.02 -2.94 7.55287
8.569992 3.96 -2.94 7.28332
8.569992 3.94 -2.94 7.28332
8.569992 3.92 -2.94 7.28332
8.493384 3.88 -2.94 7.15564
8.493384 3.86 -2.94 7.15564
8.731722000000001 4.26 -2.96 7.55287
8.569992 4.14 -2.96 7.28332
8.569992 4.12 -2.96 7.28332
8.569992 4.1 -2.96 7.28332
8.569992 4.08 -2.96 7.28332
8.731722000000001 4.46 -2.98 7.55287
8.64939 4.44 -2.98 7.41565
8.493384 4.36 -2.98 7.15564
8.493384 4.34 -2.98 7.15564
8.493384 4.32 -2.98 7.15564
8.347944 4.22 -2.98 6.91324
8.347944 4.2 -2.98 6.91324
8.569992 4.64 -3.0 7.28332
8.569992 4.62 -3.0 7.28332
8.493384 4.58 -3.0 7.15564
8.493384 4.56 -3.0 7.15564
8.493384 4.54 -3.0 7.15564
8.493384 4.52 -3.0 7.15564
8.569992 4.4 -3.0 7.28332
8.493384 4.38 -3.0 7.15564
8.569992 4.86 -3.02 7.28332
8.569992 4.84 -3.02 7.28332
8.493384 4.78 -3.02 7.15564
8.493384 4.76 -3.02 7.15564
8.419410000000001 4.7 -3.02 7.03235
8.493384 4.58 -3.02 7.15564
8.27886 4.9 -3.04 6.7981
8.569992 4.88 -3.04 7.28332
8.569992 5.34 -3.06 7.28332
8.419410000000001 5.44 -3.08 7.03235
8.212038 5.28 -3.08 6.68673
8.084754 5.12 -3.1 6.47459
8.084754 5.1 -3.1 6.47459
8.084754 5.08 -3.1 6.47459
7.696506 5.0 -3.1 5.82751
8.084754 5.12 -3.12 6.47459
7.908282 3.92 -3.24 6.18047
7.965294 3.74 -3.24 6.27549
7.965294 3.72 -3.24 6.27549
7.908282 3.96 -3.26 6.18047
7.908282 3.94 -3.26 6.18047
7.8529680000000015 4.04 -3.3 6.08828
7.7992799999999995 4.06 -3.34 5.9988
7.747145999999999 4.08 -3.36 5.91191
7.747145999999999 4.1 -3.38 5.91191
7.696506 4.12 -3.4 5.82751
7.599432 4.24 -3.5 5.66572
7.507607999999999 4.3 -3.56 5.51268
7.507607999999999 4.28 -3.56 5.51268
7.507607999999999 4.32 -3.6 5.51268
7.221906000000001 4.34 -3.86 5.03651
7.221906000000001 4.62 -3.88 5.03651
7.221906000000001 4.6 -3.88 5.03651
7.221906000000001 4.58 -3.88 5.03651
7.259664000000001 4.52 -3.88 5.09944
7.259664000000001 4.5 -3.88 5.09944
7.259664000000001 4.42 -3.88 5.09944
7.221906000000001 4.4 -3.88 5.03651
7.221906000000001 4.3 -3.88 5.03651
7.221906000000001 4.28 -3.88 5.03651
7.221906000000001 4.62 -3.9 5.03651
7.221906000000001 4.6 -3.9 5.03651
7.221906000000001 4.58 -3.9 5.03651
7.259664000000001 4.56 -3.9 5.09944
7.259664000000001 4.54 -3.9 5.09944
7.259664000000001 4.52 -3.9 5.09944
7.259664000000001 4.48 -3.9 5.09944
7.259664000000001 4.46 -3.9 5.09944
7.259664000000001 4.44 -3.9 5.09944
7.338077999999999 4.38 -3.9 5.23013
7.221906000000001 4.36 -3.9 5.03651
7.221906000000001 4.34 -3.9 5.03651
6.69792 -6.06 -4.56 4.1632
6.672695999999999 -3.12 -4.6 4.12116
6.672695999999999 -3.14 -4.6 4.12116
6.672695999999999 -3.16 -4.6 4.12116
6.647982 -3.2 -4.6 4.07997
6.623754 5.26 -4.72 4.03959
6.72366 5.16 -4.72 4.2061
6.72366 5.14 -4.72 4.2061
6.672695999999999 5.48 -4.74 4.12116
6.72366 5.42 -4.74 4.2061
6.647982 5.34 -4.74 4.07997
6.647982 5.3 -4.74 4.07997
6.623754 5.24 -4.74 4.03959
6.672695999999999 5.18 -4.74 4.12116
6.72366 5.16 -4.74 4.2061
6.69792 5.54 -4.76 4.1632
6.69792 5.5 -4.76 4.1632
6.672695999999999 5.48 -4.76 4.12116
6.72366 5.42 -4.76 4.2061
6.647982 5.36 -4.76 4.07997
6.647982 5.34 -4.76 4.07997
6.647982 5.32 -4.76 4.07997
6.647982 5.3 -4.76 4.07997
6.623754 5.28 -4.76 4.03959
6.623754 5.26 -4.76 4.03959
6.623754 5.24 -4.76 4.03959
6.672695999999999 5.22 -4.76 4.12116
6.623754 5.22 -4.82 4.03959
6.623754 5.2 -4.86 4.03959
01 -6.2 -2.08 5000011.0193
10.811580000000001 -6.22 -2.08 5000011.0193
10.811580000000001 -6.24 -2.08 5000011.0193
10.637759999999998 -6.26 -2.08 5000010.7296
10.472879999999998 2.92 -2.14 5000010.4548
10.472879999999998 2.9 -2.14 5000010.4548
10.472879999999998 2.88 -2.14 5000010.4548
10.316220000000001 2.86 -2.14 5000010.1937
9.889902000000001 3.22 -2.3 5000009.48317
9.889902000000001 3.16 -2.3 5000009.48317
10.025244 3.08 -2.3 5000009.70874
9.889902000000001 3.06 -2.3 5000009.48317
9.889902000000001 3.04 -2.3 5000009.48317
9.889902000000001 3.04 -2.32 5000009.48317
9.51915 3.02 -2.32 5000008.86525
9.51915 3.0 -2.32 5000008.86525
9.637241999999999 -5.68 -2.38 5000009.06207
9.637241999999999 -5.7 -2.38 5000009.06207
9.51915 -5.72 -2.38 5000008.86525
9.51915 -5.74 -2.38 5000008.86525
9.51915 -5.76 -2.38 5000008.86525
9.406074 -5.78 -2.38 5000008.67679
9.406074 -5.8 -2.38 5000008.67679
9.297708 -5.82 -2.38 5000008.49618
9.297708 5.68 -2.62 5000008.49618
9.297708 5.64 -2.64 5000008.49618
9.093966 5.46 -2.66 5000008.15661
9.093966 5.44 -2.66 5000008.15661
9.193757999999999 5.38 -2.66 5000008.32293
8.817162000000001 3.32 -2.66 5000007.69527
8.99808 5.34 -2.68 5000007.9968
8.99808 5.32 -2.68 5000007.9968
8.99808 5.3 -2.68 5000007.9968
8.99808 5.28 -2.68 5000007.9968
8.905884 5.24 -2.7 5000007.84314
8.905884 5.22 -2.7 5000007.84314
8.905884 5.2 -2.7 5000007.84314
8.905884 5.18 -2.7 5000007.84314
8.905884 5.16 -2.7 5000007.84314
8.817162000000001 5.12 -2.72 5000007.69527
8.817162000000001 5.1 -2.72 5000007.69527
8.817162000000001 5.08 -2.72 5000007.69527
8.905884 5.06 -2.72 5000007.84314
8.905884 5.04 -2.72 5000007.84314
8.905884 5.02 -2.72 5000007.84314
8.905884 5.0 -2.72 5000007.84314
8.731722000000001 4.98 -2.74 5000007.55287
8.731722000000001 4.96 -2.74 5000007.55287
8.731722000000001 4.94 -2.74 5000007.55287
8.817162000000001 4.92 -2.74 5000007.69527
8.905884 4.9 -2.74 5000007.84314
8.905884 4.88 -2.74 5000007.84314
8.905884 4.86 -2.74 5000007.84314
8.905884 4.86 -2.76 5000007.84314
8.731722000000001 4.84 -2.76 5000007.55287
8.731722000000001 4.82 -2.76 5000007.55287
8.731722000000001 4.8 -2.76 5000007.55287
8.817162000000001 4.78 -2.76 5000007.69527
8.817162000000001 4.76 -2.76 5000007.69527
8.817162000000001 4.74 -2.76 5000007.69527
8.64939 4.72 -2.78 5000007.41565
8.64939 4.7 -2.78 5000007.41565
8.64939 4.68 -2.78 5000007.41565
8.731722000000001 4.66 -2.78 5000007.55287
8.731722000000001 4.64 -2.78 5000007.55287
8.731722000000001 4.62 -2.78 5000007.55287
8.731722000000001 4.1 -2.78 5000007.55287
8.731722000000001 4.08 -2.78 5000007.55287
8.64939 4.6 -2.8 5000007.41565
8.64939 4.58 -2.8 5000007.41565
8.569992 4.56 -2.8 5000007.28332
8.731722000000001 4.46 -2.8 5000007.55287
8.731722000000001 4.44 -2.8 5000007.55287
8.64939 4.42 -2.8 5000007.41565
8.731722000000001 3.48 -2.8 5000007.55287
8.64939 4.4 -2.82 5000007.41565
8.64939 4.38 -2.82 5000007.41565
8.64939 4.36 -2.82 5000007.41565
8.64939 4.34 -2.82 5000007.41565
8.64939 4.32 -2.82 5000007.41565
8.64939 4.3 -2.82 5000007.41565
8.64939 4.3 -2.84 5000007.41565
8.569992 4.28 -2.84 5000007.28332
8.569992 4.26 -2.84 5000007.28332
8.569992 4.24 -2.84 5000007.28332
8.64939 4.22 -2.84 5000007.41565
8.64939 4.2 -2.84 5000007.41565
8.64939 4.18 -2.84 5000007.41565
8.64939 4.18 -2.86 5000007.41565
8.493384 4.16 -2.86 5000007.15564
8.493384 4.14 -2.86 5000007.15564
8.493384 4.12 -2.86 5000007.15564
8.569992 4.1 -2.86 5000007.28332
8.569992 4.08 -2.86 5000007.28332
8.64939 4.06 -2.86 5000007.41565
8.64939 4.04 -2.86 5000007.41565
8.493384 3.48 -2.86 5000007.15564
8.27886 -4.58 -2.88 5000006.7981
8.64939 3.74 -2.92 5000007.41565
8.64939 3.72 -2.92 5000007.41565
8.569992 3.7 -2.92 5000007.28332
8.569992 3.68 -2.92 5000007.28332
8.493384 3.66 -2.92 5000007.15564
8.731722000000001 4.04 -2.94 5000007.55287
8.731722000000001 4.02 -2.94 5000007.55287
8.569992 3.96 -2.94 5000007.28332
8.569992 3.94 -2.94 5000007.28332
8.569992 3.92 -2.94 5000007.28332
8.493384 3.88 -2.94 5000007.15564
8.493384 3.86 -2.94 5000007.15564
8.731722000000001 4.26 -2.96 5000007.55287
8.569992 4.14 -2.96 5000007.28332
8.569992 4.12 -2.96 5000007.28332
8.569992 4.1 -2.96 5000007.28332
8.569992 4.08 -2.96 5000007.28332
8.731722000000001 4.46 -2.98 5000007.55287
8.64939 4.44 -2.98 5000007.41565
8.493384 4.36 -2.98 5000007.15564
8.493384 4.34 -2.98 5000007.15564
8.493384 4.32 -2.98 5000007.15564
8.347944 4.22 -2.98 5000006.91324
8.347944 4.2 -2.98 5000006.91324
8.569992 4.64 -3.0 5000007.28332
8.569992 4.62 -3.0 5000007.28332
8.493384 4.58 -3.0 5000007.15564
8.493384 4.56 -3.0 5000007.15564
8.493384 4.54 -3.0 5000007.15564
8.493384 4.52 -3.0 5000007.15564
8.569992 4.4 -3.0 5000007.28332
8.493384 4.38 -3.0 5000007.15564
8.569992 4.86 -3.02 5000007.28332
8.569992 4.84 -3.02 5000007.28332
8.493384 4.78 -3.02 5000007.15564
8.493384 4.76 -3.02 5000007.15564
8.419410000000001 4.7 -3.02 5000007.03235
8.493384 4.58 -3.02 5000007.15564
8.27886 4.9 -3.04 5000006.7981
8.569992 4.88 -3.04 5000007.28332
8.569992 5.34 -3.06 5000007.28332
8.419410000000001 5.44 -3.08 5000007.03235
8.212038 5.28 -3.08 5000006.68673
8.084754 5.12 -3.1 5000006.47459
8.084754 5.1 -3.1 5000006.47459
8.084754 5.08 -3.1 5000006.47459
7.696506 5.0 -3.1 5000005.82751
8.084754 5.12 -3.12 5000006.47459
7.908282 3.92 -3.24 5000006.18047
7.965294 3.74 -3.24 5000006.27549
7.965294 3.72 -3.24 5000006.27549
7.908282 3.96 -3.26 5000006.18047
7.908282 3.94 -3.26 5000006.18047
7.8529680000000015 4.04 -3.3 5000006.08828
7.7992799999999995 4.06 -3.34 5000005.9988
7.747145999999999 4.08 -3.36 5000005.91191
7.747145999999999 4.1 -3.38 5000005.91191
7.696506 4.12 -3.4 5000005.82751
7.599432 4.24 -3.5 5000005.66572
7.507607999999999 4.3 -3.56 5000005.51268
7.507607999999999 4.28 -3.56 5000005.51268
7.507607999999999 4.32 -3.6 5000005.51268
7.221906000000001 4.34 -3.86 5000005.03651
7.221906000000001 4.62 -3.88 5000005.03651
7.221906000000001 4.6 -3.88 5000005.03651
7.221906000000001 4.58 -3.88 5000005.03651
7.259664000000001 4.52 -3.88 5000005.09944
7.259664000000001 4.5 -3.88 5000005.09944
7.259664000000001 4.42 -3.88 5000005.09944
7.221906000000001 4.4 -3.88 5000005.03651
7.221906000000001 4.3 -3.88 5000005.03651
7.221906000000001 4.28 -3.88 5000005.03651
7.221906000000001 4.62 -3.9 5000005.03651
7.221906000000001 4.6 -3.9 5000005.03651
7.221906000000001 4.58 -3.9 5000005.03651
7.259664000000001 4.56 -3.9 5000005.09944
7.259664000000001 4.54 -3.9 5000005.09944
7.259664000000001 4.52 -3.9 5000005.09944
7.259664000000001 4.48 -3.9 5000005.09944
7.259664000000001 4.46 -3.9 5000005.09944
7.259664000000001 4.44 -3.9 5000005.09944
7.338077999999999 4.38 -3.9 5000005.23013
7.221906000000001 4.36 -3.9 5000005.03651
7.221906000000001 4.34 -3.9 5000005.03651
6.69792 -6.06 -4.56 5000004.1632
6.672695999999999 -3.12 -4.6 5000004.12116
6.672695999999999 -3.14 -4.6 5000004.12116
6.672695999999999 -3.16 -4.6 5000004.12116
6.647982 -3.2 -4.6 5000004.07997
6.623754 5.26 -4.72 5000004.03959
6.72366 5.16 -4.72 5000004.2061
6.72366 5.14 -4.72 5000004.2061
6.672695999999999 5.48 -4.74 5000004.12116
6.72366 5.42 -4.74 5000004.2061
6.647982 5.34 -4.74 5000004.07997
6.647982 5.3 -4.74 5000004.07997
6.623754 5.24 -4.74 5000004.03959
6.672695999999999 5.18 -4.74 5000004.12116
6.72366 5.16 -4.74 5000004.2061
6.69792 5.54 -4.76 5000004.1632
6.69792 5.5 -4.76 5000004.1632
6.672695999999999 5.48 -4.76 5000004.12116
6.72366 5.42 -4.76 5000004.2061
6.647982 5.36 -4.76 5000004.07997
6.647982 5.34 -4.76 5000004.07997
6.647982 5.32 -4.76 5000004.07997
6.647982 5.3 -4.76 5000004.07997
6.623754 5.28 -4.76 5000004.03959
6.623754 5.26 -4.76 5000004.03959
6.623754 5.24 -4.76 5000004.03959
6.672695999999999 5.22 -4.76 5000004.12116
6.623754 5.22 -4.82 5000004.03959
6.623754 5.2 -4.86 5000004.03959
 5000005.03651
8.014604 4.3 -3.88 5000005.03651
8.014604 4.28 -3.88 5000005.03651
8.014604 4.62 -3.9 5000005.03651
8.014604 4.6 -3.9 5000005.03651
8.014604 4.58 -3.9 5000005.03651
8.039776 4.56 -3.9 5000005.09944
8.039776 4.54 -3.9 5000005.09944
8.039776 4.52 -3.9 5000005.09944
8.039776 4.48 -3.9 5000005.09944
8.039776 4.46 -3.9 5000005.09944
8.039776 4.44 -3.9 5000005.09944
8.092051999999999 4.38 -3.9 5000005.23013
8.014604 4.36 -3.9 5000005.03651
8.014604 4.34 -3.9 5000005.03651
7.66528 -6.06 -4.56 5000004.1632
7.648464000000001 -3.12 -4.6 5000004.12116
7.648464000000001 -3.14 -4.6 5000004.12116
7.648464000000001 -3.16 -4.6 5000004.12116
7.631988 -3.2 -4.6 5000004.07997
7.615836 5.26 -4.72 5000004.03959
7.68244 5.16 -4.72 5000004.2061
7.68244 5.14 -4.72 5000004.2061
7.648464000000001 5.48 -4.74 5000004.12116
7.68244 5.42 -4.74 5000004.2061
7.631988 5.34 -4.74 5000004.07997
7.631988 5.3 -4.74 5000004.07997
7.615836 5.24 -4.74 5000004.03959
7.648464000000001 5.18 -4.74 5000004.12116
7.68244 5.16 -4.74 5000004.2061
7.66528 5.54 -4.76 5000004.1632
7.66528 5.5 -4.76 5000004.1632
7.648464000000001 5.48 -4.76 5000004.12116
7.68244 5.42 -4.76 5000004.2061
7.631988 5.36 -4.76 5000004.07997
7.631988 5.34 -4.76 5000004.07997
7.631988 5.32 -4.76 5000004.07997
7.631988 5.3 -4.76 5000004.07997
7.615836 5.28 -4.76 5000004.03959
7.615836 5.26 -4.76 5000004.03959
7.615836 5.24 -4.76 5000004.03959
7.648464000000001 5.22 -4.76 5000004.12116
7.615836 5.22 -4.82 5000004.03959
7.615836 5.2 -4.86 5000004.03959
3.88 5000005.09944
10.014604 4.4 -3.88 5000005.03651
10.014604 4.3 -3.88 5000005.03651
10.014604 4.28 -3.88 5000005.03651
10.014604 4.62 -3.9 5000005.03651
10.014604 4.6 -3.9 5000005.03651
10.014604 4.58 -3.9 5000005.03651
10.039776 4.56 -3.9 5000005.09944
10.039776 4.54 -3.9 5000005.09944
10.039776 4.52 -3.9 5000005.09944
10.039776 4.48 -3.9 5000005.09944
10.039776 4.46 -3.9 5000005.09944
10.039776 4.44 -3.9 5000005.09944
10.092052 4.38 -3.9 5000005.23013
10.014604 4.36 -3.9 5000005.03651
10.014604 4.34 -3.9 5000005.03651
9.66528 -6.06 -4.56 5000004.1632
9.648464 -3.12 -4.6 5000004.12116
9.648464 -3.14 -4.6 5000004.12116
9.648464 -3.16 -4.6 5000004.12116
9.631988 -3.2 -4.6 5000004.07997
9.615836 5.26 -4.72 5000004.03959
9.68244 5.16 -4.72 5000004.2061
9.68244 5.14 -4.72 5000004.2061
9.648464 5.48 -4.74 5000004.12116
9.68244 5.42 -4.74 5000004.2061
9.631988 5.34 -4.74 5000004.07997
9.631988 5.3 -4.74 5000004.07997
9.615836 5.24 -4.74 5000004.03959
9.648464 5.18 -4.74 5000004.12116
9.68244 5.16 -4.74 5000004.2061
9.66528 5.54 -4.76 5000004.1632
9.66528 5.5 -4.76 5000004.1632
9.648464 5.48 -4.76 5000004.12116
9.68244 5.42 -4.76 5000004.2061
9.631988 5.36 -4.76 5000004.07997
9.631988 5.34 -4.76 5000004.07997
9.631988 5.32 -4.76 5000004.07997
9.631988 5.3 -4.76 5000004.07997
9.615836 5.28 -4.76 5000004.03959
9.615836 5.26 -4.76 5000004.03959
9.615836 5.24 -4.76 5000004.03959
9.648464 5.22 -4.76 5000004.12116
9.615836 5.22 -4.82 5000004.03959
9.615836 5.2 -4.86 5000004.03959
3333333334 -14.166666666666666 2.6666666666666665 5000029.0698
10.71454 -16.3 2.6666666666666665 5000021.4362
10.71454 -16.333333333333332 2.6666666666666665 5000021.4362
10.71454 -16.366666666666667 2.6666666666666665 5000021.4362
10.848176666666667 -17.3 2.6666666666666665 5000025.4453
10.848176666666667 -17.5 2.6666666666666665 5000025.4453
10.848176666666667 -17.533333333333335 2.6666666666666665 5000025.4453
10.848176666666667 -17.566666666666666 2.6666666666666665 5000025.4453
11.043296666666667 -12.833333333333334 2.6333333333333333 5000031.2989
10.968993333333334 -14.166666666666666 2.6333333333333333 5000029.0698
10.968993333333334 -14.266666666666667 2.6333333333333333 5000029.0698
10.968993333333334 -14.366666666666667 2.6333333333333333 5000029.0698
10.848176666666667 -17.3 2.6333333333333333 5000025.4453
10.848176666666667 -8.033333333333333 2.6 5000025.4453
10.968993333333334 -14.166666666666666 2.6 5000029.0698
10.968993333333334 -14.266666666666667 2.6 5000029.0698
10.968993333333334 -14.366666666666667 2.6 5000029.0698
10.848176666666667 -17.3 2.6 5000025.4453
10.678886666666667 -17.8 2.6 5000020.3666
10.678886666666667 -17.833333333333332 2.6 5000020.3666
10.71454 -12.3 2.566666666666667 5000021.4362
10.71454 -12.333333333333334 2.566666666666667 5000021.4362
10.968993333333334 -14.866666666666667 2.566666666666667 5000029.0698
10.968993333333334 -15.566666666666666 2.566666666666667 5000029.0698
10.848176666666667 -17.3 2.566666666666667 5000025.4453
10.71454 -12.266666666666667 2.533333333333333 5000021.4362
10.71454 -12.3 2.533333333333333 5000021.4362
10.968993333333334 -15.566666666666666 2.533333333333333 5000029.0698
10.848176666666667 -17.3 2.533333333333333 5000025.4453
10.848176666666667 -17.533333333333335 2.533333333333333 5000025.4453
10.71454 -12.233333333333333 2.5 5000021.4362
10.71454 -12.266666666666667 2.5 5000021.4362
10.71454 -12.3 2.5 5000021.4362
10.904566666666666 -15.1 2.5 5000027.137
10.904566666666666 -15.133333333333333 2.5 5000027.137
10.848176666666667 -17.3 2.5 5000025.4453
10.848176666666667 -17.5 2.5 5000025.4453
10.848176666666667 -17.533333333333335 2.5 5000025.4453
10.848176666666667 -17.566666666666666 2.5 5000025.4453
10.678886666666667 -17.8 2.5 5000020.3666
10.71454 -12.3 2.466666666666667 5000021.4362
10.848176666666667 -17.5 2.466666666666667 5000025.4453
10.848176666666667 -17.533333333333335 2.466666666666667 5000025.4453
10.848176666666667 -17.566666666666666 2.466666666666667 5000025.4453
10.678886666666667 -17.8 2.466666666666667 5000020.3666
11.232286666666667 -8.9 2.4 5000036.9686
10.71454 -12.166666666666666 2.4 5000021.4362
10.71454 -12.333333333333334 2.4 5000021.4362
10.617283333333333 -16.833333333333332 2.4 5000018.5185
10.617283333333333 -0.6666666666666666 2.3666666666666667 5000018.5185
10.71454 -12.333333333333334 2.3666666666666667 5000021.4362
10.71454 -12.366666666666667 2.3666666666666667 5000021.4362
10.617283333333333 -16.7 2.3666666666666667 5000018.5185
10.617283333333333 -16.8 2.3666666666666667 5000018.5185
10.617283333333333 -16.833333333333332 2.3666666666666667 5000018.5185
10.617283333333333 -16.866666666666667 2.3666666666666667 5000018.5185
10.617283333333333 -0.6666666666666666 2.3333333333333335 5000018.5185
11.129943333333333 -9.666666666666666 2.3333333333333335 5000033.8983
10.71454 -12.366666666666667 2.3333333333333335 5000021.4362
10.71454 -12.4 2.3333333333333335 5000021.4362
10.617283333333333 -16.7 2.3333333333333335 5000018.5185
10.617283333333333 -16.8 2.3333333333333335 5000018.5185
10.617283333333333 -16.833333333333332 2.3333333333333335 5000018.5185
10.617283333333333 -0.6666666666666666 2.3 5000018.5185
10.848176666666667 -8.333333333333334 2.3 5000025.4453
11.129943333333333 -9.666666666666666 2.3 5000033.8983
10.71454 -12.4 2.3 5000021.4362
10.71454 -12.433333333333334 2.3 5000021.4362
10.617283333333333 -16.666666666666668 2.3 5000018.5185
10.617283333333333 -16.8 2.3 5000018.5185
10.617283333333333 -0.6666666666666666 2.2666666666666666 5000018.5185
10.56593 -8.566666666666666 2.2666666666666666 5000016.9779
10.754146666666667 -10.566666666666666 2.2666666666666666 5000022.6244
10.71454 -12.4 2.2666666666666666 5000021.4362
10.71454 -12.433333333333334 2.2666666666666666 5000021.4362
10.904566666666666 -15.166666666666666 2.2666666666666666 5000027.137
10.617283333333333 -16.8 2.2666666666666666 5000018.5185
10.617283333333333 -16.833333333333332 2.2666666666666666 5000018.5185
10.617283333333333 -0.6666666666666666 2.2333333333333334 5000018.5185
10.798403333333333 -10.266666666666667 2.2333333333333334 5000023.9521
10.798403333333333 -10.3 2.2333333333333334 5000023.9521
10.798403333333333 -10.333333333333334 2.2333333333333334 5000023.9521
10.904566666666666 -15.2 2.2333333333333334 5000027.137
10.617283333333333 -16.633333333333333 2.2333333333333334 5000018.5185
10.617283333333333 -16.766666666666666 2.2333333333333334 5000018.5185
10.617283333333333 -16.8 2.2333333333333334 5000018.5185
10.968993333333334 -14.366666666666667 2.2 5000029.0698
10.617283333333333 -16.633333333333333 2.2 5000018.5185
10.617283333333333 -16.766666666666666 2.2 5000018.5185
10.617283333333333 -16.8 2.2 5000018.5185
10.590493333333333 -17.866666666666667 2.2 5000017.7148
10.590493333333333 -17.9 2.2 5000017.7148
10.617283333333333 -0.6666666666666666 2.1666666666666665 5000018.5185
10.754146666666667 -12.433333333333334 2.1666666666666665 5000022.6244
10.754146666666667 -12.466666666666667 2.1666666666666665 5000022.6244
10.968993333333334 -12.866666666666667 2.1666666666666665 5000029.0698
10.848176666666667 -14.466666666666667 2.1666666666666665 5000025.4453
10.617283333333333 -16.6 2.1666666666666665 5000018.5185
10.617283333333333 -16.766666666666666 2.1666666666666665 5000018.5185
10.590493333333333 -17.866666666666667 2.1666666666666665 5000017.7148
10.617283333333333 -0.6666666666666666 2.1333333333333333 5000018.5185
10.754146666666667 -12.433333333333334 2.1333333333333333 5000022.6244
10.754146666666667 -12.466666666666667 2.1333333333333333 5000022.6244
10.617283333333333 -12.566666666666666 2.1333333333333333 5000018.5185
10.968993333333334 -14.2 2.1333333333333333 5000029.0698
10.968993333333334 -14.366666666666667 2.1333333333333333 5000029.0698
10.617283333333333 -16.6 2.1333333333333333 5000018.5185
10.617283333333333 -16.733333333333334 2.1333333333333333 5000018.5185
10.617283333333333 -16.766666666666666 2.1333333333333333 5000018.5185
10.590493333333333 -17.833333333333332 2.1333333333333333 5000017.7148
10.590493333333333 -17.866666666666667 2.1333333333333333 5000017.7148
10.968993333333334 -14.166666666666666 2.1 5000029.0698
10.968993333333334 -14.2 2.1 5000029.0698
10.617283333333333 -15.8 2.1 5000018.5185
10.617283333333333 -16.733333333333334 2.1 5000018.5185
10.617283333333333 -16.766666666666666 2.1 5000018.5185
10.617283333333333 -17.833333333333332 2.1 5000018.5185
10.71454 -12.833333333333334 2.066666666666667 5000021.4362
10.71454 -15.466666666666667 2.066666666666667 5000021.4362
10.617283333333333 -15.8 2.066666666666667 5000018.5185
10.617283333333333 -15.833333333333334 2.066666666666667 5000018.5185
10.617283333333333 -16.533333333333335 2.066666666666667 5000018.5185
10.617283333333333 -16.566666666666666 2.066666666666667 5000018.5185
10.64662 -16.733333333333334 2.066666666666667 5000019.3986
10.64662 -16.766666666666666 2.066666666666667 5000019.3986
10.590493333333333 -0.6666666666666666 2.033333333333333 5000017.7148
10.617283333333333 -0.8666666666666667 2.033333333333333 5000018.5185
10.71454 -12.833333333333334 2.033333333333333 5000021.4362
10.64662 -15.666666666666666 2.033333333333333 5000019.3986
10.590493333333333 -0.6666666666666666 2.0 5000017.7148
10.968993333333334 -14.366666666666667 2.0 5000029.0698
10.64662 -15.633333333333333 2.0 5000019.3986
10.64662 -15.666666666666666 2.0 5000019.3986
10.64662 -15.7 2.0 5000019.3986
10.617283333333333 -15.733333333333333 2.0 5000018.5185
11.043296666666667 -14.033333333333333 1.9666666666666666 5000031.2989
11.043296666666667 -14.066666666666666 1.9666666666666666 5000031.2989
11.043296666666667 -14.166666666666666 1.9666666666666666 5000031.2989
10.64662 -15.7 1.9666666666666666 5000019.3986
10.64662 -15.733333333333333 1.9666666666666666 5000019.3986
11.043296666666667 -14.033333333333333 1.9333333333333333 5000031.2989
11.043296666666667 -14.066666666666666 1.9333333333333333 5000031.2989
11.043296666666667 -14.166666666666666 1.9333333333333333 5000031.2989
11.043296666666667 -14.2 1.9333333333333333 5000031.2989
10.798403333333333 -9.433333333333334 1.9 5000023.9521
11.043296666666667 -14.033333333333333 1.9 5000031.2989
11.043296666666667 -14.066666666666666 1.9 5000031.2989
10.617283333333333 -16.366666666666667 1.9 5000018.5185
10.798403333333333 -9.4 1.8666666666666667 5000023.9521
10.617283333333333 -16.366666666666667 1.8666666666666667 5000018.5185
10.71454 -12.0 1.8333333333333333 5000021.4362
10.678886666666667 -12.5 1.8333333333333333 5000020.3666
10.904566666666666 -13.7 1.8333333333333333 5000027.137
10.71454 -12.033333333333333 1.8 5000021.4362
10.904566666666666 -13.666666666666666 1.8 5000027.137
10.904566666666666 -13.7 1.8 5000027.137
10.904566666666666 -13.733333333333333 1.8 5000027.137
10.678886666666667 -14.5 1.7666666666666666 5000020.3666
10.678886666666667 -14.866666666666667 1.7333333333333334 5000020.3666
10.64662 -14.9 1.7333333333333334 5000019.3986
10.678886666666667 -14.933333333333334 1.7333333333333334 5000020.3666
10.64662 -14.966666666666667 1.7333333333333334 5000019.3986
10.71454 -11.9 1.7 5000021.4362
10.64662 -14.866666666666667 1.7 5000019.3986
10.64662 -14.9 1.7 5000019.3986
10.64662 -15.233333333333333 1.7 5000019.3986
10.64662 -15.266666666666667 1.7 5000019.3986
10.678886666666667 -14.766666666666667 1.6666666666666667 5000020.3666
10.678886666666667 -14.8 1.6666666666666667 5000020.3666
10.678886666666667 -14.833333333333334 1.6666666666666667 5000020.3666
10.64662 -15.266666666666667 1.6666666666666667 5000019.3986
10.64662 -15.3 1.6666666666666667 5000019.3986
10.617283333333333 -17.6 1.6666666666666667 5000018.5185
10.590493333333333 -17.633333333333333 1.6666666666666667 5000017.7148
10.590493333333333 -17.666666666666668 1.6666666666666667 5000017.7148
10.71454 -11.566666666666666 1.6333333333333333 5000021.4362
10.754146666666667 -12.866666666666667 1.6333333333333333 5000022.6244
10.754146666666667 -12.9 1.6333333333333333 5000022.6244
10.678886666666667 -14.766666666666667 1.6333333333333333 5000020.3666
10.678886666666667 -14.8 1.6333333333333333 5000020.3666
10.678886666666667 -14.833333333333334 1.6333333333333333 5000020.3666
10.64662 -15.3 1.6333333333333333 5000019.3986
10.617283333333333 -15.333333333333334 1.6333333333333333 5000018.5185
10.617283333333333 -17.533333333333335 1.6333333333333333 5000018.5185
10.617283333333333 -17.566666666666666 1.6333333333333333 5000018.5185
10.617283333333333 -17.6 1.6333333333333333 5000018.5185
10.754146666666667 -12.866666666666667 1.6 5000022.6244
10.754146666666667 -12.9 1.6 5000022.6244
10.678886666666667 -14.766666666666667 1.6 5000020.3666
10.64662 -15.333333333333334 1.6 5000019.3986
10.617283333333333 -15.366666666666667 1.6 5000018.5185
10.617283333333333 -17.5 1.6 5000018.5185
10.617283333333333 -17.533333333333335 1.6 5000018.5185
10.617283333333333 -17.566666666666666 1.6 5000018.5185
10.904566666666666 -11.833333333333334 1.5666666666666667 5000027.137
10.678886666666667 -14.733333333333333 1.5666666666666667 5000020.3666
10.678886666666667 -14.766666666666667 1.5666666666666667 5000020.3666
10.617283333333333 -17.5 1.5666666666666667 5000018.5185
10.64662 -15.033333333333333 1.5333333333333334 5000019.3986
10.64662 -15.366666666666667 1.5333333333333334 5000019.3986
10.64662 -15.4 1.5333333333333334 5000019.3986
10.617283333333333 -17.466666666666665 1.5333333333333334 5000018.5185
10.617283333333333 -17.5 1.5333333333333334 5000018.5185
10.798403333333333 -10.066666666666666 1.5 5000023.9521
10.798403333333333 -10.1 1.5 5000023.9521
10.678886666666667 -14.7 1.5 5000020.3666
10.678886666666667 -14.733333333333333 1.5 5000020.3666
10.64662 -15.133333333333333 1.5 5000019.3986
10.617283333333333 -17.433333333333334 1.5 5000018.5185
10.617283333333333 -17.466666666666665 1.5 5000018.5185
10.798403333333333 -10.1 1.4666666666666666 5000023.9521
10.798403333333333 -10.5 1.4666666666666666 5000023.9521
10.71454 -11.566666666666666 1.4666666666666666 5000021.4362
10.71454 -11.9 1.4666666666666666 5000021.4362
10.71454 -11.933333333333334 1.4666666666666666 5000021.4362
10.71454 -11.966666666666667 1.4666666666666666 5000021.4362
10.754146666666667 -12.566666666666666 1.4666666666666666 5000022.6244
10.678886666666667 -14.7 1.4666666666666666 5000020.3666
10.678886666666667 -14.733333333333333 1.4666666666666666 5000020.3666
10.64662 -14.966666666666667 1.4666666666666666 5000019.3986
10.64662 -15.0 1.4666666666666666 5000019.3986
10.64662 -15.133333333333333 1.4666666666666666 5000019.3986
10.617283333333333 -15.4 1.4666666666666666 5000018.5185
10.617283333333333 -15.433333333333334 1.4666666666666666 5000018.5185
10.617283333333333 -17.433333333333334 1.4666666666666666 5000018.5185
10.617283333333333 -17.466666666666665 1.4666666666666666 5000018.5185
10.590493333333333 -17.8 1.4666666666666666 5000017.7148
10.71454 -11.9 1.4333333333333333 5000021.4362
10.71454 -11.933333333333334 1.4333333333333333 5000021.4362
10.754146666666667 -12.566666666666666 1.4333333333333333 5000022.6244
10.678886666666667 -14.7 1.4333333333333333 5000020.3666
10.678886666666667 -14.733333333333333 1.4333333333333333 5000020.3666
10.64662 -15.266666666666667 1.4333333333333333 5000019.3986
10.617283333333333 -15.4 1.4333333333333333 5000018.5185
10.617283333333333 -15.433333333333334 1.4333333333333333 5000018.5185
10.617283333333333 -17.4 1.4333333333333333 5000018.5185
10.617283333333333 -17.433333333333334 1.4333333333333333 5000018.5185
10.590493333333333 -17.766666666666666 1.4333333333333333 5000017.7148
10.590493333333333 -17.8 1.4333333333333333 5000017.7148
10.590493333333333 -17.833333333333332 1.4333333333333333 5000017.7148
10.754146666666667 -11.866666666666667 1.4 5000022.6244
10.71454 -11.9 1.4 5000021.4362
10.64662 -14.833333333333334 1.4 5000019.3986
10.64662 -14.866666666666667 1.4 5000019.3986
10.64662 -15.233333333333333 1.4 5000019.3986
10.64662 -15.266666666666667 1.4 5000019.3986
10.64662 -15.3 1.4 5000019.3986
10.617283333333333 -15.433333333333334 1.4 5000018.5185
10.617283333333333 -17.4 1.4 5000018.5185
10.617283333333333 -17.433333333333334 1.4 5000018.5185
10.590493333333333 -17.733333333333334 1.4 5000017.7148
10.590493333333333 -17.9 1.4 5000017.7148
10.848176666666667 -11.766666666666667 1.3666666666666667 5000025.4453
10.754146666666667 -11.833333333333334 1.3666666666666667 5000022.6244
10.754146666666667 -11.866666666666667 1.3666666666666667 5000022.6244
10.64662 -14.833333333333334 1.3666666666666667 5000019.3986
10.64662 -14.866666666666667 1.3666666666666667 5000019.3986
10.64662 -15.3 1.3666666666666667 5000019.3986
10.617283333333333 -15.433333333333334 1.3666666666666667 5000018.5185
10.590493333333333 -17.4 1.3666666666666667 5000017.7148
10.590493333333333 -17.433333333333334 1.3666666666666667 5000017.7148
10.590493333333333 -17.6 1.3666666666666667 5000017.7148
10.590493333333333 -17.733333333333334 1.3666666666666667 5000017.7148
10.590493333333333 -17.766666666666666 1.3666666666666667 5000017.7148
10.590493333333333 -17.9 1.3666666666666667 5000017.7148
10.64662 -15.133333333333333 1.3333333333333333 5000019.3986
10.678886666666667 -15.166666666666666 1.3333333333333333 5000020.3666
10.590493333333333 -17.4 1.3333333333333333 5000017.7148
10.590493333333333 -17.433333333333334 1.3333333333333333 5000017.7148
10.590493333333333 -17.6 1.3333333333333333 5000017.7148
10.678886666666667 -15.166666666666666 1.3 5000020.3666
10.590493333333333 -17.4 1.3 5000017.7148
10.590493333333333 -17.566666666666666 1.3 5000017.7148
10.590493333333333 -17.6 1.3 5000017.7148
10.64662 -14.866666666666667 1.2666666666666666 5000019.3986
10.678886666666667 -15.0 1.2666666666666666 5000020.3666
10.678886666666667 -15.033333333333333 1.2666666666666666 5000020.3666
10.590493333333333 -17.4 1.2666666666666666 5000017.7148
10.590493333333333 -17.566666666666666 1.2666666666666666 5000017.7148
10.64662 -14.9 1.2333333333333334 5000019.3986
10.678886666666667 -15.166666666666666 1.2333333333333334 5000020.3666
10.678886666666667 -15.2 1.2333333333333334 5000020.3666
10.64662 -15.233333333333333 1.2333333333333334 5000019.3986
10.590493333333333 -17.666666666666668 1.2333333333333334 5000017.7148
10.71454 -17.9 1.2333333333333334 5000021.4362
10.678886666666667 -15.133333333333333 1.2 5000020.3666
10.678886666666667 -15.166666666666666 1.2 5000020.3666
10.678886666666667 -15.2 1.2 5000020.3666
10.678886666666667 -15.233333333333333 1.2 5000020.3666
10.590493333333333 -17.6 1.2 5000017.7148
10.590493333333333 -17.633333333333333 1.2 5000017.7148
10.617283333333333 2.066666666666667 1.1666666666666667 5000018.5185
10.56593 -17.633333333333333 1.1666666666666667 5000016.9779
10.590493333333333 -17.766666666666666 1.1666666666666667 5000017.7148
10.590493333333333 -17.8 1.1666666666666667 5000017.7148
10.56593 -17.666666666666668 1.1333333333333333 5000016.9779
10.590493333333333 -17.766666666666666 1.1333333333333333 5000017.7148
10.590493333333333 0.5666666666666667 1.1 5000017.7148
10.678886666666667 -17.9 1.1 5000020.3666
10.590493333333333 -1.3 1.0 5000017.7148
10.522466666666666 -2.5 0.7666666666666667 5000015.674
10.522466666666666 -2.5 0.7333333333333333 5000015.674
10.388273333333334 -15.2 0.3 5000011.6482
10.36731 -16.0 0.1 5000011.0193
10.36731 -16.033333333333335 0.1 5000011.0193
10.36731 -15.966666666666667 0.06666666666666667 5000011.0193
10.36731 -16.0 0.06666666666666667 5000011.0193
10.36731 -16.033333333333335 0.06666666666666667 5000011.0193
10.357653333333333 -16.066666666666666 0.06666666666666667 5000010.7296
10.33979 -17.333333333333332 -0.1 5000010.1937
10.33151 -17.5 -0.1 5000009.9453
10.33151 -17.533333333333335 -0.1 5000009.9453
10.36731 -17.0 -0.13333333333333333 5000011.0193
10.36731 -17.033333333333335 -0.13333333333333333 5000011.0193
10.36731 -17.066666666666666 -0.13333333333333333 5000011.0193
10.357653333333333 -17.1 -0.13333333333333333 5000010.7296
10.348493333333334 -1.8 -0.23333333333333334 5000010.4548
10.348493333333334 -1.8333333333333333 -0.23333333333333334 5000010.4548
10.348493333333334 -1.8666666666666667 -0.23333333333333334 5000010.4548
10.33979 -1.9 -0.23333333333333334 5000010.1937
10.316105666666667 -1.3 -0.5 5000009.48317
10.316105666666667 -1.4 -0.5 5000009.48317
10.323624666666667 -1.5333333333333334 -0.5 5000009.70874
10.316105666666667 -1.5666666666666667 -0.5 5000009.48317
10.316105666666667 -1.6 -0.5 5000009.48317
10.316105666666667 -1.6 -0.5333333333333333 5000009.48317
10.295508333333334 -1.6333333333333333 -0.5333333333333333 5000008.86525
10.295508333333334 -1.6666666666666667 -0.5333333333333333 5000008.86525
10.302069 -16.133333333333333 -0.6333333333333333 5000009.06207
10.302069 -16.166666666666668 -0.6333333333333333 5000009.06207
10.295508333333334 -16.2 -0.6333333333333333 5000008.86525
10.295508333333334 -16.233333333333334 -0.6333333333333333 5000008.86525
10.295508333333334 -16.266666666666666 -0.6333333333333333 5000008.86525
10.289226333333334 -16.3 -0.6333333333333333 5000008.67679
10.289226333333334 -16.333333333333332 -0.6333333333333333 5000008.67679
10.283206 -16.366666666666667 -0.6333333333333333 5000008.49618
10.283206 2.8 -1.0333333333333334 5000008.49618
10.283206 2.7333333333333334 -1.0666666666666667 5000008.49618
10.271887 2.433333333333333 -1.1 5000008.15661
10.271887 2.4 -1.1 5000008.15661
10.277431 2.3 -1.1 5000008.32293
10.256509 -1.1333333333333333 -1.1 5000007.69527
10.26656 2.2333333333333334 -1.1333333333333333 5000007.9968
10.26656 2.2 -1.1333333333333333 5000007.9968
10.26656 2.1666666666666665 -1.1333333333333333 5000007.9968
10.26656 2.1333333333333333 -1.1333333333333333 5000007.9968
10.261438 2.066666666666667 -1.1666666666666667 5000007.84314
10.261438 2.033333333333333 -1.1666666666666667 5000007.84314
10.261438 2.0 -1.1666666666666667 5000007.84314
10.261438 1.9666666666666666 -1.1666666666666667 5000007.84314
10.261438 1.9333333333333333 -1.1666666666666667 5000007.84314
10.256509 1.8666666666666667 -1.2 5000007.69527
10.256509 1.8333333333333333 -1.2 5000007.69527
10.256509 1.8 -1.2 5000007.69527
10.261438 1.7666666666666666 -1.2 5000007.84314
10.261438 1.7333333333333334 -1.2 5000007.84314
10.261438 1.7 -1.2 5000007.84314
10.261438 1.6666666666666667 -1.2 5000007.84314
10.251762333333334 1.6333333333333333 -1.2333333333333334 5000007.55287
10.251762333333334 1.6 -1.2333333333333334 5000007.55287
10.251762333333334 1.5666666666666667 -1.2333333333333334 5000007.55287
10.256509 1.5333333333333334 -1.2333333333333334 5000007.69527
10.261438 1.5 -1.2333333333333334 5000007.84314
10.261438 1.4666666666666666 -1.2333333333333334 5000007.84314
10.261438 1.4333333333333333 -1.2333333333333334 5000007.84314
10.261438 1.4333333333333333 -1.2666666666666666 5000007.84314
10.251762333333334 1.4 -1.2666666666666666 5000007.55287
10.251762333333334 1.3666666666666667 -1.2666666666666666 5000007.55287
10.251762333333334 1.3333333333333333 -1.2666666666666666 5000007.55287
10.256509 1.3 -1.2666666666666666 5000007.69527
10.256509 1.2666666666666666 -1.2666666666666666 5000007.69527
10.256509 1.2333333333333334 -1.2666666666666666 5000007.69527
10.247188333333334 1.2 -1.3 5000007.41565
10.247188333333334 1.1666666666666667 -1.3 5000007.41565
10.247188333333334 1.1333333333333333 -1.3 5000007.41565
10.251762333333334 1.1 -1.3 5000007.55287
10.251762333333334 1.0666666666666667 -1.3 5000007.55287
10.251762333333334 1.0333333333333334 -1.3 5000007.55287
10.251762333333334 0.16666666666666666 -1.3 5000007.55287
10.251762333333334 0.13333333333333333 -1.3 5000007.55287
10.247188333333334 1.0 -1.3333333333333333 5000007.41565
10.247188333333334 0.9666666666666667 -1.3333333333333333 5000007.41565
10.242777333333333 0.9333333333333333 -1.3333333333333333 5000007.28332
10.251762333333334 0.7666666666666667 -1.3333333333333333 5000007.55287
10.251762333333334 0.7333333333333333 -1.3333333333333333 5000007.55287
10.247188333333334 0.7 -1.3333333333333333 5000007.41565
10.251762333333334 -0.8666666666666667 -1.3333333333333333 5000007.55287
10.247188333333334 0.6666666666666666 -1.3666666666666667 5000007.41565
10.247188333333334 0.6333333333333333 -1.3666666666666667 5000007.41565
10.247188333333334 0.6 -1.3666666666666667 5000007.41565
10.247188333333334 0.5666666666666667 -1.3666666666666667 5000007.41565
10.247188333333334 0.5333333333333333 -1.3666666666666667 5000007.41565
10.247188333333334 0.5 -1.3666666666666667 5000007.41565
10.247188333333334 0.5 -1.4 5000007.41565
10.242777333333333 0.4666666666666667 -1.4 5000007.28332
10.242777333333333 0.43333333333333335 -1.4 5000007.28332
10.242777333333333 0.4 -1.4 5000007.28332
10.247188333333334 0.36666666666666664 -1.4 5000007.41565
10.247188333333334 0.3333333333333333 -1.4 5000007.41565
10.247188333333334 0.3 -1.4 5000007.41565
10.247188333333334 0.3 -1.4333333333333333 5000007.41565
10.238521333333333 0.26666666666666666 -1.4333333333333333 5000007.15564
10.238521333333333 0.23333333333333334 -1.4333333333333333 5000007.15564
10.238521333333333 0.2 -1.4333333333333333 5000007.15564
10.242777333333333 0.16666666666666666 -1.4333333333333333 5000007.28332
10.242777333333333 0.13333333333333333 -1.4333333333333333 5000007.28332
10.247188333333334 0.1 -1.4333333333333333 5000007.41565
10.247188333333334 0.06666666666666667 -1.4333333333333333 5000007.41565
10.238521333333333 -0.8666666666666667 -1.4333333333333333 5000007.15564
10.226603333333333 -14.3 -1.4666666666666666 5000006.7981
10.247188333333334 -0.43333333333333335 -1.5333333333333334 5000007.41565
10.247188333333334 -0.4666666666666667 -1.5333333333333334 5000007.41565
10.242777333333333 -0.5 -1.5333333333333334 5000007.28332
10.242777333333333 -0.5333333333333333 -1.5333333333333334 5000007.28332
10.238521333333333 -0.5666666666666667 -1.5333333333333334 5000007.15564
10.251762333333334 0.06666666666666667 -1.5666666666666667 5000007.55287
10.251762333333334 0.03333333333333333 -1.5666666666666667 5000007.55287
10.242777333333333 -0.06666666666666667 -1.5666666666666667 5000007.28332
10.242777333333333 -0.1 -1.5666666666666667 5000007.28332
10.242777333333333 -0.13333333333333333 -1.5666666666666667 5000007.28332
10.238521333333333 -0.2 -1.5666666666666667 5000007.15564
10.238521333333333 -0.23333333333333334 -1.5666666666666667 5000007.15564
10.251762333333334 0.43333333333333335 -1.6 5000007.55287
10.242777333333333 0.23333333333333334 -1.6 5000007.28332
10.242777333333333 0.2 -1.6 5000007.28332
10.242777333333333 0.16666666666666666 -1.6 5000007.28332
10.242777333333333 0.13333333333333333 -1.6 5000007.28332
10.251762333333334 0.7666666666666667 -1.6333333333333333 5000007.55287
10.247188333333334 0.7333333333333333 -1.6333333333333333 5000007.41565
10.238521333333333 0.6 -1.6333333333333333 5000007.15564
10.238521333333333 0.5666666666666667 -1.6333333333333333 5000007.15564
10.238521333333333 0.5333333333333333 -1.6333333333333333 5000007.15564
10.230441333333333 0.36666666666666664 -1.6333333333333333 5000006.91324
10.230441333333333 0.3333333333333333 -1.6333333333333333 5000006.91324
10.242777333333333 1.0666666666666667 -1.6666666666666667 5000007.28332
10.242777333333333 1.0333333333333334 -1.6666666666666667 5000007.28332
10.238521333333333 0.9666666666666667 -1.6666666666666667 5000007.15564
10.238521333333333 0.9333333333333333 -1.6666666666666667 5000007.15564
10.238521333333333 0.9 -1.6666666666666667 5000007.15564
10.238521333333333 0.8666666666666667 -1.6666666666666667 5000007.15564
10.242777333333333 0.6666666666666666 -1.6666666666666667 5000007.28332
10.238521333333333 0.6333333333333333 -1.6666666666666667 5000007.15564
10.242777333333333 1.4333333333333333 -1.7 5000007.28332
10.242777333333333 1.4 -1.7 5000007.28332
10.238521333333333 1.3 -1.7 5000007.15564
10.238521333333333 1.2666666666666666 -1.7 5000007.15564
10.234411666666666 1.1666666666666667 -1.7 5000007.03235
10.238521333333333 0.9666666666666667 -1.7 5000007.15564
10.226603333333333 1.5 -1.7333333333333334 5000006.7981
10.242777333333333 1.4666666666666666 -1.7333333333333334 5000007.28332
10.242777333333333 2.2333333333333334 -1.7666666666666666 5000007.28332
10.234411666666666 2.4 -1.8 5000007.03235
10.222891 2.1333333333333333 -1.8 5000006.68673
10.215819666666667 1.8666666666666667 -1.8333333333333333 5000006.47459
10.215819666666667 1.8333333333333333 -1.8333333333333333 5000006.47459
10.215819666666667 1.8 -1.8333333333333333 5000006.47459
10.194250333333333 1.6666666666666667 -1.8333333333333333 5000005.82751
10.215819666666667 1.8666666666666667 -1.8666666666666667 5000006.47459
10.206015666666667 -0.13333333333333333 -2.066666666666667 5000006.18047
10.209183 -0.43333333333333335 -2.066666666666667 5000006.27549
10.209183 -0.4666666666666667 -2.066666666666667 5000006.27549
10.206015666666667 -0.06666666666666667 -2.1 5000006.18047
10.206015666666667 -0.1 -2.1 5000006.18047
10.202942666666667 0.06666666666666667 -2.1666666666666665 5000006.08828
10.19996 0.1 -2.2333333333333334 5000005.9988
10.197063666666667 0.13333333333333333 -2.2666666666666666 5000005.91191
