VERSION .7
FIELDS x y z rgb
SIZE 4 4 4 4
TYPE F F F F
COUNT 1 1 1 1
WIDTH 1314
HEIGHT 1
VIEWPOINT 0 0 0 1 0 0 0
POINTS 1314
DATA ascii
16.419959999999996 -5.62 3.68 5000020.3666
16.419959999999996 -5.64 3.68 5000020.3666
15.83916 -6.3 3.68 5000019.3986
19.467180000000003 -6.68 3.68 5000025.4453
14.82888 3.72 3.66 5000017.7148
21.64188 -3.8 3.66 5000029.0698
21.64188 -3.82 3.66 5000029.0698
16.419959999999996 -5.62 3.66 5000020.3666
19.467180000000003 -6.68 3.66 5000025.4453
14.82888 3.72 3.64 5000017.7148
26.38116 -0.42 3.64 5000036.9686
19.467180000000003 -5.56 3.64 5000025.4453
19.467180000000003 -6.68 3.64 5000025.4453
14.82888 3.72 3.62 5000017.7148
16.419959999999996 -5.9 3.62 5000020.3666
16.419959999999996 -5.92 3.62 5000020.3666
16.419959999999996 -6.28 3.62 5000020.3666
19.467180000000003 -6.68 3.62 5000025.4453
14.82888 3.72 3.6 5000017.7148
19.467180000000003 -6.68 3.6 5000025.4453
16.419959999999996 -5.64 3.58 5000020.3666
16.419959999999996 -6.36 3.58 5000020.3666
16.419959999999996 -6.38 3.58 5000020.3666
19.467180000000003 -6.68 3.58 5000025.4453
16.419959999999996 -5.64 3.56 5000020.3666
15.83916 -6.0 3.56 5000019.3986
15.83916 -6.48 3.56 5000019.3986
19.467180000000003 -6.68 3.56 5000025.4453
16.419959999999996 -5.62 3.54 5000020.3666
16.419959999999996 -5.64 3.54 5000020.3666
16.419959999999996 -6.26 3.54 5000020.3666
16.419959999999996 -6.28 3.54 5000020.3666
19.467180000000003 -6.68 3.54 5000025.4453
14.82888 3.7 3.52 5000017.7148
26.38116 -0.4 3.52 5000036.9686
19.467180000000003 -6.68 3.52 5000025.4453
14.82888 3.7 3.5 5000017.7148
26.38116 -0.4 3.5 5000036.9686
26.38116 -0.42 3.5 5000036.9686
19.467180000000003 -6.68 3.5 5000025.4453
14.82888 3.7 3.48 5000017.7148
22.97934 -3.06 3.48 5000031.2989
22.97934 -3.08 3.48 5000031.2989
16.419959999999996 -5.48 3.48 5000020.3666
16.419959999999996 -5.82 3.48 5000020.3666
15.83916 -6.18 3.48 5000019.3986
15.83916 -6.24 3.48 5000019.3986
19.467180000000003 -6.68 3.48 5000025.4453
14.82888 3.7 3.46 5000017.7148
22.97934 -3.06 3.46 5000031.2989
22.97934 -3.08 3.46 5000031.2989
16.419959999999996 -5.48 3.46 5000020.3666
16.419959999999996 -5.5 3.46 5000020.3666
16.419959999999996 -5.8 3.46 5000020.3666
14.82888 3.7 3.44 5000017.7148
22.97934 -3.06 3.44 5000031.2989
15.83916 -6.34 3.44 5000019.3986
14.82888 3.7 3.42 5000017.7148
19.467180000000003 -1.56 3.42 5000025.4453
16.419959999999996 -6.4 3.42 5000020.3666
16.419959999999996 -6.42 3.42 5000020.3666
14.82888 3.7 3.4 5000017.7148
22.97934 0.36 3.4 5000031.2989
22.97934 0.34 3.4 5000031.2989
20.4822 -1.42 3.4 5000027.137
19.467180000000003 -1.96 3.4 5000025.4453
19.467180000000003 -6.7 3.4 5000025.4453
14.82888 3.7 3.38 5000017.7148
22.97934 0.34 3.38 5000031.2989
22.97934 -3.06 3.38 5000031.2989
19.467180000000003 -6.68 3.38 5000025.4453
19.467180000000003 -6.7 3.38 5000025.4453
14.82888 3.7 3.36 5000017.7148
17.06172 -5.5 3.36 5000021.4362
17.06172 -5.52 3.36 5000021.4362
16.419959999999996 -6.34 3.36 5000020.3666
16.419959999999996 -6.36 3.36 5000020.3666
19.467180000000003 -6.68 3.36 5000025.4453
14.82888 3.7 3.34 5000017.7148
22.97934 -2.58 3.34 5000031.2989
22.97934 -2.6 3.34 5000031.2989
16.419959999999996 -6.3 3.34 5000020.3666
19.467180000000003 -6.68 3.34 5000025.4453
14.82888 3.7 3.32 5000017.7148
22.97934 -2.58 3.32 5000031.2989
17.06172 -5.6 3.32 5000021.4362
19.467180000000003 -6.68 3.32 5000025.4453
14.82888 3.7 3.3 5000017.7148
16.419959999999996 -6.36 3.3 5000020.3666
19.467180000000003 -6.68 3.3 5000025.4453
14.82888 3.7 3.28 5000017.7148
19.467180000000003 -1.4 3.28 5000025.4453
19.467180000000003 -1.92 3.28 5000025.4453
17.06172 -5.6 3.28 5000021.4362
16.419959999999996 -6.34 3.28 5000020.3666
19.467180000000003 -6.68 3.28 5000025.4453
14.82888 3.7 3.26 5000017.7148
17.06172 -5.64 3.26 5000021.4362
16.419959999999996 -5.66 3.26 5000020.3666
19.467180000000003 -6.68 3.26 5000025.4453
19.467180000000003 -1.48 3.24 5000025.4453
16.419959999999996 -5.44 3.24 5000020.3666
17.06172 -5.62 3.24 5000021.4362
15.83916 -5.8 3.24 5000019.3986
16.419959999999996 -6.44 3.24 5000020.3666
16.419959999999996 -6.46 3.24 5000020.3666
19.467180000000003 -6.68 3.24 5000025.4453
14.82888 3.7 3.22 5000017.7148
19.467180000000003 -6.68 3.22 5000025.4453
20.4822 -4.64 3.2 5000027.137
20.4822 -4.66 3.2 5000027.137
15.83916 -5.5 3.2 5000019.3986
19.467180000000003 -6.68 3.2 5000025.4453
20.4822 -4.66 3.18 5000027.137
16.419959999999996 -5.66 3.18 5000020.3666
19.467180000000003 -6.68 3.18 5000025.4453
16.419959999999996 -6.26 3.16 5000020.3666
16.419959999999996 -6.28 3.16 5000020.3666
19.467180000000003 -6.68 3.16 5000025.4453
14.82888 3.7 3.14 5000017.7148
24.53898 1.98 3.14 5000033.8983
16.419959999999996 -5.5 3.14 5000020.3666
16.419959999999996 -5.52 3.14 5000020.3666
16.419959999999996 -6.26 3.14 5000020.3666
19.467180000000003 -6.68 3.14 5000025.4453
22.97934 0.34 3.12 5000031.2989
16.419959999999996 -5.5 3.12 5000020.3666
16.419959999999996 -5.52 3.12 5000020.3666
16.419959999999996 -5.54 3.12 5000020.3666
19.467180000000003 -6.68 3.12 5000025.4453
16.419959999999996 -5.52 3.1 5000020.3666
16.419959999999996 -5.54 3.1 5000020.3666
19.467180000000003 -6.68 3.1 5000025.4453
16.419959999999996 -5.52 3.08 5000020.3666
16.419959999999996 -5.54 3.08 5000020.3666
19.467180000000003 -6.68 3.08 5000025.4453
16.419959999999996 -5.56 3.06 5000020.3666
16.419959999999996 -5.58 3.06 5000020.3666
16.419959999999996 -6.22 3.06 5000020.3666
19.467180000000003 -6.68 3.06 5000025.4453
16.419959999999996 -5.56 3.04 5000020.3666
16.419959999999996 -5.58 3.04 5000020.3666
19.467180000000003 -6.68 3.04 5000025.4453
21.64188 -3.82 3.02 5000029.0698
21.64188 -3.84 3.02 5000029.0698
16.419959999999996 -5.56 3.02 5000020.3666
16.419959999999996 -5.58 3.02 5000020.3666
19.467180000000003 -6.68 3.02 5000025.4453
21.64188 -3.82 3.0 5000029.0698
16.419959999999996 -6.22 3.0 5000020.3666
19.467180000000003 -6.68 3.0 5000025.4453
19.467180000000003 -1.5 2.98 5000025.4453
19.467180000000003 -2.0 2.98 5000025.4453
21.64188 -3.84 2.98 5000029.0698
21.64188 -3.84 2.94 5000029.0698
16.419959999999996 -5.54 2.94 5000020.3666
19.467180000000003 -1.38 2.92 5000025.4453
24.53898 -2.58 2.92 5000033.8983
24.53898 -2.6 2.92 5000033.8983
21.64188 -3.84 2.92 5000029.0698
16.419959999999996 -5.54 2.92 5000020.3666
16.419959999999996 -5.56 2.92 5000020.3666
15.83916 -6.02 2.92 5000019.3986
16.419959999999996 -5.48 2.9 5000020.3666
16.419959999999996 -5.54 2.9 5000020.3666
16.419959999999996 -5.48 2.88 5000020.3666
15.83916 -5.88 2.88 5000019.3986
18.57126 -6.68 2.88 5000023.9521
18.57126 -6.7 2.88 5000023.9521
21.64188 -3.06 2.86 5000029.0698
21.64188 -3.08 2.86 5000029.0698
15.83916 -6.12 2.86 5000019.3986
18.57126 -6.68 2.86 5000023.9521
18.57126 -6.7 2.86 5000023.9521
21.64188 -3.08 2.84 5000029.0698
15.83916 -6.14 2.84 5000019.3986
16.419959999999996 -6.2 2.84 5000020.3666
19.467180000000003 -6.7 2.84 5000025.4453
17.06172 -5.86 2.82 5000021.4362
17.77464 -6.08 2.82 5000022.6244
20.4822 -1.44 2.8 5000027.137
20.4822 -1.46 2.8 5000027.137
17.06172 -5.58 2.8 5000021.4362
17.06172 -5.84 2.8 5000021.4362
17.06172 -5.86 2.8 5000021.4362
16.419959999999996 -5.88 2.8 5000020.3666
19.467180000000003 -6.7 2.8 5000025.4453
20.4822 -1.48 2.78 5000027.137
20.4822 -1.5 2.78 5000027.137
22.97934 -3.08 2.78 5000031.2989
17.06172 -5.5 2.78 5000021.4362
17.06172 -5.82 2.78 5000021.4362
17.06172 -5.84 2.78 5000021.4362
15.83916 -5.96 2.78 5000019.3986
19.467180000000003 -6.7 2.78 5000025.4453
26.38116 -0.52 2.76 5000036.9686
19.467180000000003 -6.7 2.76 5000025.4453
16.419959999999996 -5.6 2.74 5000020.3666
16.419959999999996 -5.62 2.74 5000020.3666
19.467180000000003 -6.7 2.74 5000025.4453
22.97934 -3.08 2.72 5000031.2989
17.06172 -5.42 2.72 5000021.4362
16.419959999999996 -5.62 2.72 5000020.3666
19.467180000000003 -6.7 2.72 5000025.4453
22.97934 0.46 2.7 5000031.2989
19.467180000000003 -6.7 2.7 5000025.4453
22.97934 -1.4 2.68 5000031.2989
20.4822 -1.46 2.68 5000027.137
22.97934 -3.9 2.68 5000031.2989
15.83916 -6.3 2.68 5000019.3986
19.467180000000003 -6.7 2.68 5000025.4453
20.4822 -1.46 2.66 5000027.137
19.467180000000003 -1.64 2.66 5000025.4453
22.97934 -3.08 2.66 5000031.2989
19.467180000000003 -6.7 2.66 5000025.4453
17.06172 -5.44 2.64 5000021.4362
17.06172 -5.46 2.64 5000021.4362
19.467180000000003 -6.7 2.64 5000025.4453
17.06172 -5.44 2.62 5000021.4362
17.06172 -5.46 2.62 5000021.4362
15.83916 -5.72 2.62 5000019.3986
16.419959999999996 -6.18 2.62 5000020.3666
16.419959999999996 -6.2 2.62 5000020.3666
15.83916 -6.28 2.62 5000019.3986
19.467180000000003 -6.7 2.62 5000025.4453
28.590239999999998 -0.4 2.6 5000040.6504
28.590239999999998 -0.42 2.6 5000040.6504
20.4822 -1.52 2.6 5000027.137
17.06172 -5.44 2.6 5000021.4362
17.06172 -5.46 2.6 5000021.4362
16.419959999999996 -5.64 2.6 5000020.3666
15.83916 -6.26 2.6 5000019.3986
15.83916 -6.28 2.6 5000019.3986
19.467180000000003 -6.7 2.6 5000025.4453
20.4822 -1.54 2.58 5000027.137
22.97934 -3.08 2.58 5000031.2989
19.467180000000003 -6.7 2.58 5000025.4453
19.467180000000003 -6.7 2.56 5000025.4453
22.97934 -3.08 2.54 5000031.2989
16.419959999999996 -6.22 2.54 5000020.3666
19.467180000000003 -6.7 2.54 5000025.4453
20.4822 -1.56 2.52 5000027.137
22.97934 -2.6 2.52 5000031.2989
22.97934 -3.9 2.52 5000031.2989
19.467180000000003 -6.56 2.52 5000025.4453
19.467180000000003 -6.7 2.52 5000025.4453
21.64188 -4.66 2.5 5000029.0698
21.64188 -4.68 2.5 5000029.0698
19.467180000000003 -6.56 2.5 5000025.4453
19.467180000000003 -6.7 2.5 5000025.4453
26.38116 -0.42 2.48 5000036.9686
26.38116 -0.44 2.48 5000036.9686
20.4822 -4.1 2.48 5000027.137
21.64188 -4.66 2.48 5000029.0698
21.64188 -4.68 2.48 5000029.0698
16.419959999999996 -6.18 2.48 5000020.3666
19.467180000000003 -6.7 2.48 5000025.4453
26.38116 -0.44 2.46 5000036.9686
22.97934 -3.9 2.46 5000031.2989
22.97934 -3.92 2.46 5000031.2989
21.64188 -4.66 2.46 5000029.0698
16.419959999999996 -5.42 2.46 5000020.3666
19.467180000000003 -6.56 2.46 5000025.4453
19.467180000000003 -6.7 2.46 5000025.4453
22.97934 0.46 2.44 5000031.2989
22.97934 0.44 2.44 5000031.2989
22.97934 -3.9 2.44 5000031.2989
17.06172 -5.4 2.44 5000021.4362
17.06172 -5.42 2.44 5000021.4362
19.467180000000003 -6.56 2.44 5000025.4453
17.06172 -5.42 2.42 5000021.4362
19.467180000000003 -6.56 2.42 5000025.4453
17.06172 -5.4 2.4 5000021.4362
17.06172 -5.42 2.4 5000021.4362
21.64188 -3.84 2.36 5000029.0698
21.64188 -3.86 2.36 5000029.0698
17.06172 -6.28 2.36 5000021.4362
19.467180000000003 -6.7 2.36 5000025.4453
19.467180000000003 -6.72 2.36 5000025.4453
21.64188 -3.84 2.34 5000029.0698
21.64188 -3.86 2.34 5000029.0698
15.83916 -6.04 2.34 5000019.3986
17.06172 -6.28 2.34 5000021.4362
17.06172 -6.3 2.34 5000021.4362
19.467180000000003 -6.7 2.34 5000025.4453
19.467180000000003 -6.72 2.34 5000025.4453
21.64188 -3.84 2.32 5000029.0698
21.64188 -3.86 2.32 5000029.0698
17.06172 -6.3 2.32 5000021.4362
19.467180000000003 -6.7 2.32 5000025.4453
22.97934 -3.84 2.3 5000031.2989
19.467180000000003 -6.7 2.3 5000025.4453
19.467180000000003 -6.7 2.28 5000025.4453
17.06172 -5.48 2.26 5000021.4362
15.83916 -5.88 2.26 5000019.3986
15.83916 -5.9 2.26 5000019.3986
19.467180000000003 -6.7 2.26 5000025.4453
15.83916 -5.9 2.24 5000019.3986
16.419959999999996 -6.08 2.24 5000020.3666
19.467180000000003 -6.7 2.24 5000025.4453
22.97934 -3.08 2.22 5000031.2989
22.97934 -3.1 2.22 5000031.2989
17.06172 -5.4 2.22 5000021.4362
19.467180000000003 -6.7 2.22 5000025.4453
22.97934 -3.08 2.2 5000031.2989
22.97934 -3.1 2.2 5000031.2989
17.06172 -5.4 2.2 5000021.4362
17.06172 -5.42 2.2 5000021.4362
19.467180000000003 -6.7 2.2 5000025.4453
17.06172 -5.4 2.18 5000021.4362
17.06172 -5.42 2.18 5000021.4362
17.06172 -5.44 2.18 5000021.4362
15.83916 -5.92 2.18 5000019.3986
19.467180000000003 -6.7 2.18 5000025.4453
20.4822 -1.28 2.16 5000027.137
17.06172 -5.42 2.16 5000021.4362
17.06172 -5.44 2.16 5000021.4362
17.06172 -5.52 2.16 5000021.4362
17.06172 -5.54 2.16 5000021.4362
17.06172 -5.56 2.16 5000021.4362
15.83916 -5.92 2.16 5000019.3986
19.467180000000003 -6.7 2.16 5000025.4453
20.4822 -1.28 2.14 5000027.137
20.4822 -1.3 2.14 5000027.137
17.06172 -5.52 2.14 5000021.4362
17.06172 -5.54 2.14 5000021.4362
16.419959999999996 -6.1 2.14 5000020.3666
19.467180000000003 -6.7 2.14 5000025.4453
22.97934 -2.6 2.12 5000031.2989
22.97934 -2.62 2.12 5000031.2989
22.97934 -3.9 2.12 5000031.2989
22.97934 -3.92 2.12 5000031.2989
16.419959999999996 -6.14 2.12 5000020.3666
16.419959999999996 -6.26 2.12 5000020.3666
16.419959999999996 -6.36 2.12 5000020.3666
16.419959999999996 -6.38 2.12 5000020.3666
19.467180000000003 -6.7 2.12 5000025.4453
22.97934 -2.6 2.1 5000031.2989
16.419959999999996 -6.26 2.1 5000020.3666
16.419959999999996 -6.3 2.1 5000020.3666
16.419959999999996 -6.36 2.1 5000020.3666
19.467180000000003 -6.7 2.1 5000025.4453
15.83916 -6.0 2.08 5000019.3986
19.467180000000003 -6.72 2.06 5000025.4453
24.53898 -2.6 2.04 5000033.8983
19.467180000000003 -6.72 2.04 5000025.4453
21.64188 -3.92 2.02 5000029.0698
19.467180000000003 -6.72 2.02 5000025.4453
17.06172 -5.38 2.0 5000021.4362
17.06172 -5.4 2.0 5000021.4362
16.419959999999996 -6.36 2.0 5000020.3666
19.467180000000003 -6.72 2.0 5000025.4453
17.06172 -5.36 1.98 5000021.4362
17.06172 -5.38 1.98 5000021.4362
16.419959999999996 -5.5 1.98 5000020.3666
16.419959999999996 -5.52 1.98 5000020.3666
19.467180000000003 -6.7 1.98 5000025.4453
19.467180000000003 -6.72 1.98 5000025.4453
17.06172 -5.38 1.96 5000021.4362
19.467180000000003 -6.7 1.96 5000025.4453
19.467180000000003 -6.72 1.96 5000025.4453
22.97934 -3.92 1.94 5000031.2989
22.97934 -3.1 1.9 5000031.2989
22.97934 -3.92 1.9 5000031.2989
17.06172 -5.38 1.9 5000021.4362
16.419959999999996 -6.28 1.9 5000020.3666
22.97934 -3.92 1.88 5000031.2989
17.06172 -5.4 1.88 5000021.4362
16.419959999999996 -5.78 1.88 5000020.3666
22.97934 -3.1 1.86 5000031.2989
17.06172 -5.4 1.86 5000021.4362
16.419959999999996 -5.78 1.86 5000020.3666
16.419959999999996 -6.3 1.86 5000020.3666
16.419959999999996 -6.32 1.86 5000020.3666
19.467180000000003 -1.26 1.84 5000025.4453
22.97934 -3.1 1.84 5000031.2989
22.97934 -3.92 1.84 5000031.2989
17.06172 -5.4 1.84 5000021.4362
17.06172 -5.42 1.84 5000021.4362
19.467180000000003 -6.7 1.84 5000025.4453
19.467180000000003 -6.72 1.84 5000025.4453
22.97934 -3.1 1.82 5000031.2989
22.97934 -3.92 1.82 5000031.2989
21.64188 -4.68 1.82 5000029.0698
19.467180000000003 -6.7 1.82 5000025.4453
19.467180000000003 -1.76 1.8 5000025.4453
22.97934 -3.9 1.8 5000031.2989
22.97934 -3.92 1.8 5000031.2989
20.4822 -4.72 1.78 5000027.137
20.4822 -4.74 1.78 5000027.137
16.419959999999996 -6.22 1.78 5000020.3666
19.467180000000003 -6.72 1.78 5000025.4453
22.97934 -3.1 1.76 5000031.2989
20.4822 -4.72 1.76 5000027.137
20.4822 -4.74 1.76 5000027.137
17.06172 -5.42 1.76 5000021.4362
17.06172 -5.44 1.76 5000021.4362
15.83916 -6.06 1.76 5000019.3986
19.467180000000003 -6.72 1.76 5000025.4453
22.97934 -3.1 1.74 5000031.2989
20.4822 -4.74 1.74 5000027.137
16.419959999999996 -5.64 1.74 5000020.3666
19.467180000000003 -6.72 1.74 5000025.4453
20.4822 -4.72 1.72 5000027.137
20.4822 -4.74 1.72 5000027.137
16.419959999999996 -5.64 1.72 5000020.3666
19.467180000000003 -6.72 1.72 5000025.4453
24.53898 -2.6 1.7 5000033.8983
24.53898 -2.62 1.7 5000033.8983
22.97934 -3.1 1.7 5000031.2989
20.4822 -4.74 1.7 5000027.137
17.06172 -5.44 1.7 5000021.4362
17.06172 -5.46 1.7 5000021.4362
16.419959999999996 -6.22 1.7 5000020.3666
19.467180000000003 -6.72 1.7 5000025.4453
21.64188 -3.9 1.68 5000029.0698
20.4822 -4.72 1.68 5000027.137
20.4822 -4.74 1.68 5000027.137
19.467180000000003 -6.72 1.68 5000025.4453
21.64188 -3.9 1.66 5000029.0698
21.64188 -3.92 1.66 5000029.0698
19.467180000000003 -6.72 1.66 5000025.4453
22.97934 -3.9 1.64 5000031.2989
17.06172 -6.24 1.64 5000021.4362
17.06172 -6.26 1.64 5000021.4362
19.467180000000003 -6.72 1.64 5000025.4453
20.4822 -1.3 1.62 5000027.137
20.4822 -1.32 1.62 5000027.137
22.97934 -3.9 1.62 5000031.2989
20.4822 -4.74 1.62 5000027.137
16.419959999999996 -5.34 1.62 5000020.3666
16.419959999999996 -5.36 1.62 5000020.3666
16.419959999999996 -5.7 1.62 5000020.3666
15.83916 -5.78 1.62 5000019.3986
19.467180000000003 -6.72 1.62 5000025.4453
22.97934 -3.1 1.6 5000031.2989
22.97934 -3.9 1.6 5000031.2989
20.4822 -4.74 1.6 5000027.137
17.06172 -5.38 1.6 5000021.4362
19.467180000000003 -6.72 1.6 5000025.4453
22.97934 -3.1 1.58 5000031.2989
22.97934 -3.9 1.58 5000031.2989
16.419959999999996 -5.72 1.58 5000020.3666
19.467180000000003 -6.72 1.58 5000025.4453
22.97934 -3.88 1.56 5000031.2989
22.97934 -3.9 1.56 5000031.2989
17.06172 -5.36 1.56 5000021.4362
17.06172 -5.38 1.56 5000021.4362
17.06172 -5.4 1.56 5000021.4362
16.419959999999996 -5.72 1.56 5000020.3666
19.467180000000003 -6.72 1.56 5000025.4453
22.97934 -3.9 1.54 5000031.2989
19.467180000000003 -6.72 1.54 5000025.4453
20.4822 -1.28 1.52 5000027.137
22.97934 -3.9 1.52 5000031.2989
22.97934 -3.92 1.52 5000031.2989
17.06172 -5.4 1.52 5000021.4362
17.06172 -5.42 1.52 5000021.4362
19.467180000000003 -6.72 1.52 5000025.4453
14.82888 3.98 1.5 5000017.7148
19.467180000000003 -1.28 1.5 5000025.4453
22.97934 -3.9 1.5 5000031.2989
22.97934 -3.92 1.5 5000031.2989
21.64188 -4.74 1.5 5000029.0698
17.06172 -5.4 1.5 5000021.4362
16.419959999999996 -5.42 1.5 5000020.3666
16.419959999999996 -5.56 1.5 5000020.3666
19.467180000000003 -6.72 1.5 5000025.4453
14.82888 3.98 1.48 5000017.7148
22.97934 -3.9 1.48 5000031.2989
22.97934 -3.92 1.48 5000031.2989
21.64188 -4.74 1.48 5000029.0698
19.467180000000003 -6.72 1.48 5000025.4453
19.467180000000003 -6.74 1.48 5000025.4453
28.590239999999998 -0.42 1.46 5000040.6504
20.4822 -1.3 1.46 5000027.137
21.64188 -3.8 1.46 5000029.0698
22.97934 -3.9 1.46 5000031.2989
22.97934 -3.92 1.46 5000031.2989
21.64188 -4.74 1.46 5000029.0698
16.419959999999996 -5.46 1.46 5000020.3666
19.467180000000003 -6.72 1.46 5000025.4453
19.467180000000003 -6.74 1.46 5000025.4453
28.590239999999998 -0.44 1.44 5000040.6504
20.4822 -1.3 1.44 5000027.137
21.64188 -3.8 1.44 5000029.0698
19.467180000000003 -6.72 1.44 5000025.4453
19.467180000000003 -6.74 1.44 5000025.4453
14.386740000000001 3.98 1.42 5000016.9779
14.82888 3.88 1.42 5000017.7148
28.590239999999998 -0.46 1.42 5000040.6504
21.64188 -3.8 1.42 5000029.0698
19.467180000000003 -6.72 1.42 5000025.4453
14.82888 3.9 1.4 5000017.7148
21.64188 -3.8 1.4 5000029.0698
22.97934 -3.9 1.4 5000031.2989
21.64188 -4.74 1.4 5000029.0698
21.64188 -4.76 1.4 5000029.0698
14.82888 3.8 1.38 5000017.7148
21.64188 -3.8 1.38 5000029.0698
22.97934 -3.9 1.38 5000031.2989
21.64188 -4.74 1.38 5000029.0698
21.64188 -4.76 1.38 5000029.0698
15.83916 -6.0 1.38 5000019.3986
15.83916 -6.02 1.38 5000019.3986
14.386740000000001 3.98 1.36 5000016.9779
14.386740000000001 3.82 1.36 5000016.9779
14.386740000000001 3.8 1.36 5000016.9779
21.64188 -3.8 1.36 5000029.0698
22.97934 -3.9 1.36 5000031.2989
21.64188 -4.74 1.36 5000029.0698
16.419959999999996 -6.24 1.36 5000020.3666
16.419959999999996 -6.3 1.36 5000020.3666
14.386740000000001 3.82 1.34 5000016.9779
21.64188 -3.8 1.34 5000029.0698
21.64188 -4.74 1.34 5000029.0698
16.419959999999996 -6.3 1.34 5000020.3666
18.57126 -6.72 1.34 5000023.9521
18.57126 -6.74 1.34 5000023.9521
14.386740000000001 3.98 1.32 5000016.9779
14.82888 3.82 1.32 5000017.7148
16.419959999999996 -1.42 1.32 5000020.3666
21.64188 -4.74 1.32 5000029.0698
21.64188 -4.76 1.32 5000029.0698
17.06172 -5.54 1.32 5000021.4362
17.06172 -5.56 1.32 5000021.4362
19.467180000000003 -6.58 1.32 5000025.4453
19.467180000000003 -6.72 1.32 5000025.4453
19.467180000000003 -6.74 1.32 5000025.4453
14.386740000000001 3.82 1.3 5000016.9779
22.97934 -2.62 1.3 5000031.2989
22.97934 -2.64 1.3 5000031.2989
22.97934 -3.14 1.3 5000031.2989
21.64188 -3.9 1.3 5000029.0698
21.64188 -3.92 1.3 5000029.0698
21.64188 -3.94 1.3 5000029.0698
21.64188 -4.74 1.3 5000029.0698
21.64188 -4.76 1.3 5000029.0698
17.06172 -5.52 1.3 5000021.4362
17.06172 -5.54 1.3 5000021.4362
17.06172 -5.56 1.3 5000021.4362
16.419959999999996 -5.88 1.3 5000020.3666
19.467180000000003 -6.58 1.3 5000025.4453
19.467180000000003 -6.72 1.3 5000025.4453
19.467180000000003 -6.74 1.3 5000025.4453
14.386740000000001 3.82 1.28 5000016.9779
21.64188 -4.74 1.28 5000029.0698
21.64188 -4.76 1.28 5000029.0698
17.06172 -5.52 1.28 5000021.4362
17.06172 -5.54 1.28 5000021.4362
19.467180000000003 -6.58 1.28 5000025.4453
19.467180000000003 -6.72 1.28 5000025.4453
19.467180000000003 -1.38 1.26 5000025.4453
21.64188 -4.74 1.26 5000029.0698
21.64188 -4.76 1.26 5000029.0698
17.06172 -5.52 1.26 5000021.4362
17.06172 -5.54 1.26 5000021.4362
19.467180000000003 -6.58 1.26 5000025.4453
19.467180000000003 -6.74 1.26 5000025.4453
14.82888 3.88 1.24 5000017.7148
22.97934 -3.94 1.24 5000031.2989
21.64188 -4.72 1.24 5000029.0698
21.64188 -4.74 1.24 5000029.0698
21.64188 -4.76 1.24 5000029.0698
19.467180000000003 -6.58 1.24 5000025.4453
19.467180000000003 -6.72 1.24 5000025.4453
19.467180000000003 -6.74 1.24 5000025.4453
22.97934 -3.9 1.22 5000031.2989
22.97934 -3.92 1.22 5000031.2989
21.64188 -5.6 1.22 5000029.0698
17.06172 -5.72 1.22 5000021.4362
17.06172 -5.74 1.22 5000021.4362
19.467180000000003 -6.58 1.22 5000025.4453
19.467180000000003 -6.72 1.22 5000025.4453
19.467180000000003 -6.74 1.22 5000025.4453
22.97934 -3.92 1.2 5000031.2989
21.64188 -5.6 1.2 5000029.0698
17.06172 -5.7 1.2 5000021.4362
19.467180000000003 -6.58 1.2 5000025.4453
19.467180000000003 -6.72 1.2 5000025.4453
19.467180000000003 -6.74 1.2 5000025.4453
22.97934 -3.9 1.18 5000031.2989
22.97934 -3.92 1.18 5000031.2989
19.467180000000003 -6.72 1.18 5000025.4453
19.467180000000003 -6.74 1.18 5000025.4453
14.386740000000001 3.82 1.16 5000016.9779
22.97934 -3.8 1.16 5000031.2989
22.97934 -3.82 1.16 5000031.2989
22.97934 -3.9 1.16 5000031.2989
22.97934 -3.92 1.16 5000031.2989
22.97934 -3.94 1.16 5000031.2989
16.419959999999996 -5.76 1.16 5000020.3666
16.419959999999996 -5.78 1.16 5000020.3666
16.419959999999996 -5.8 1.16 5000020.3666
19.467180000000003 -6.58 1.16 5000025.4453
19.467180000000003 -6.6 1.16 5000025.4453
19.467180000000003 -6.72 1.16 5000025.4453
19.467180000000003 -6.74 1.16 5000025.4453
14.386740000000001 3.82 1.14 5000016.9779
22.97934 -3.8 1.14 5000031.2989
16.419959999999996 -5.76 1.14 5000020.3666
16.419959999999996 -5.78 1.14 5000020.3666
16.419959999999996 -5.8 1.14 5000020.3666
19.467180000000003 -6.58 1.14 5000025.4453
19.467180000000003 -6.74 1.14 5000025.4453
14.386740000000001 3.82 1.12 5000016.9779
24.53898 -4.64 1.12 5000033.8983
20.4822 -4.7 1.12 5000027.137
20.4822 -4.72 1.12 5000027.137
21.64188 -5.6 1.12 5000029.0698
19.467180000000003 -6.58 1.12 5000025.4453
19.467180000000003 -6.74 1.12 5000025.4453
14.386740000000001 3.82 1.1 5000016.9779
24.53898 -4.64 1.1 5000033.8983
21.64188 -4.7 1.1 5000029.0698
21.64188 -4.72 1.1 5000029.0698
21.64188 -5.6 1.1 5000029.0698
21.64188 -5.62 1.1 5000029.0698
16.419959999999996 -5.78 1.1 5000020.3666
16.419959999999996 -5.8 1.1 5000020.3666
19.467180000000003 -6.74 1.1 5000025.4453
14.386740000000001 3.82 1.08 5000016.9779
24.53898 -4.62 1.08 5000033.8983
24.53898 -4.64 1.08 5000033.8983
21.64188 -4.7 1.08 5000029.0698
17.06172 -5.78 1.08 5000021.4362
17.06172 -5.8 1.08 5000021.4362
19.467180000000003 -6.72 1.08 5000025.4453
19.467180000000003 -6.74 1.08 5000025.4453
14.386740000000001 3.82 1.06 5000016.9779
14.82888 3.64 1.06 5000017.7148
21.64188 -4.7 1.06 5000029.0698
16.419959999999996 -5.78 1.06 5000020.3666
16.419959999999996 -5.8 1.06 5000020.3666
16.419959999999996 -5.98 1.06 5000020.3666
19.467180000000003 -6.72 1.06 5000025.4453
19.467180000000003 -6.74 1.06 5000025.4453
14.82888 3.82 1.04 5000017.7148
14.82888 3.64 1.04 5000017.7148
22.97934 -3.04 1.04 5000031.2989
21.64188 -4.7 1.04 5000029.0698
16.419959999999996 -5.78 1.04 5000020.3666
16.419959999999996 -5.8 1.04 5000020.3666
16.419959999999996 -5.98 1.04 5000020.3666
19.467180000000003 -6.72 1.04 5000025.4453
19.467180000000003 -6.74 1.04 5000025.4453
14.82888 3.82 1.02 5000017.7148
26.38116 -3.82 1.02 5000036.9686
22.97934 -3.86 1.02 5000031.2989
21.64188 -3.88 1.02 5000029.0698
52.78302 -4.48 1.02 5000080.9717
21.64188 -4.7 1.02 5000029.0698
17.06172 -5.78 1.02 5000021.4362
19.467180000000003 -6.74 1.02 5000025.4453
14.82888 3.82 1.0 5000017.7148
14.82888 3.64 1.0 5000017.7148
21.64188 -3.88 1.0 5000029.0698
21.64188 -4.7 1.0 5000029.0698
20.4822 -5.62 1.0 5000027.137
16.419959999999996 -6.0 1.0 5000020.3666
19.467180000000003 -6.6 1.0 5000025.4453
19.467180000000003 -6.72 1.0 5000025.4453
19.467180000000003 -6.74 1.0 5000025.4453
14.82888 3.82 0.98 5000017.7148
14.82888 3.62 0.98 5000017.7148
20.4822 -1.32 0.98 5000027.137
20.4822 -5.62 0.98 5000027.137
16.419959999999996 -5.74 0.98 5000020.3666
16.419959999999996 -6.0 0.98 5000020.3666
19.467180000000003 -6.6 0.98 5000025.4453
19.467180000000003 -6.72 0.98 5000025.4453
19.467180000000003 -6.74 0.98 5000025.4453
14.82888 3.82 0.96 5000017.7148
14.82888 3.62 0.96 5000017.7148
20.4822 -1.32 0.96 5000027.137
22.97934 -3.1 0.96 5000031.2989
22.97934 -3.12 0.96 5000031.2989
21.64188 -3.94 0.96 5000029.0698
21.64188 -4.7 0.96 5000029.0698
20.4822 -5.62 0.96 5000027.137
17.06172 -5.74 0.96 5000021.4362
17.06172 -5.76 0.96 5000021.4362
17.06172 -5.78 0.96 5000021.4362
16.419959999999996 -6.0 0.96 5000020.3666
19.467180000000003 -6.6 0.96 5000025.4453
19.467180000000003 -6.72 0.96 5000025.4453
19.467180000000003 -6.74 0.96 5000025.4453
14.82888 3.82 0.94 5000017.7148
14.82888 3.64 0.94 5000017.7148
14.82888 3.62 0.94 5000017.7148
22.97934 -3.1 0.94 5000031.2989
26.38116 -3.64 0.94 5000036.9686
21.64188 -4.7 0.94 5000029.0698
20.4822 -5.62 0.94 5000027.137
17.06172 -5.74 0.94 5000021.4362
17.06172 -5.76 0.94 5000021.4362
19.467180000000003 -6.6 0.94 5000025.4453
19.467180000000003 -6.74 0.94 5000025.4453
14.82888 3.96 0.92 5000017.7148
14.82888 3.82 0.92 5000017.7148
14.82888 3.64 0.92 5000017.7148
14.82888 3.62 0.92 5000017.7148
21.64188 -4.7 0.92 5000029.0698
20.4822 -5.62 0.92 5000027.137
16.419959999999996 -5.76 0.92 5000020.3666
19.467180000000003 -6.6 0.92 5000025.4453
19.467180000000003 -6.72 0.92 5000025.4453
19.467180000000003 -6.74 0.92 5000025.4453
14.82888 3.64 0.9 5000017.7148
14.82888 3.62 0.9 5000017.7148
21.64188 -4.7 0.9 5000029.0698
20.4822 -5.62 0.9 5000027.137
16.419959999999996 -5.76 0.9 5000020.3666
16.419959999999996 -5.78 0.9 5000020.3666
19.467180000000003 -6.6 0.9 5000025.4453
19.467180000000003 -6.72 0.9 5000025.4453
19.467180000000003 -6.74 0.9 5000025.4453
19.467180000000003 -1.88 0.88 5000025.4453
22.97934 -2.64 0.88 5000031.2989
20.4822 -5.62 0.88 5000027.137
16.419959999999996 -5.78 0.88 5000020.3666
19.467180000000003 -6.6 0.88 5000025.4453
19.467180000000003 -6.74 0.88 5000025.4453
20.4822 -5.62 0.86 5000027.137
16.419959999999996 -5.78 0.86 5000020.3666
19.467180000000003 -6.74 0.86 5000025.4453
21.64188 -1.62 0.84 5000029.0698
21.64188 -1.64 0.84 5000029.0698
22.97934 -3.82 0.84 5000031.2989
22.97934 -3.94 0.84 5000031.2989
20.4822 -5.62 0.84 5000027.137
19.467180000000003 -6.6 0.84 5000025.4453
19.467180000000003 -6.72 0.84 5000025.4453
19.467180000000003 -6.74 0.84 5000025.4453
22.97934 -3.12 0.82 5000031.2989
22.97934 -3.82 0.82 5000031.2989
22.97934 -3.94 0.82 5000031.2989
20.4822 -5.62 0.82 5000027.137
19.467180000000003 -6.6 0.82 5000025.4453
19.467180000000003 -6.74 0.82 5000025.4453
22.97934 -3.82 0.8 5000031.2989
22.97934 -3.94 0.8 5000031.2989
20.4822 -5.62 0.8 5000027.137
19.467180000000003 -6.6 0.8 5000025.4453
19.467180000000003 -6.74 0.8 5000025.4453
38.9826 -1.5 0.78 5000057.971
20.4822 -1.64 0.78 5000027.137
22.97934 -3.82 0.78 5000031.2989
21.64188 -4.7 0.78 5000029.0698
21.64188 -4.72 0.78 5000029.0698
20.4822 -5.62 0.78 5000027.137
19.467180000000003 -6.6 0.78 5000025.4453
19.467180000000003 -6.74 0.78 5000025.4453
20.4822 -1.64 0.76 5000027.137
20.4822 -1.66 0.76 5000027.137
22.97934 -3.82 0.76 5000031.2989
20.4822 -5.62 0.76 5000027.137
19.467180000000003 -6.6 0.76 5000025.4453
19.467180000000003 -6.74 0.76 5000025.4453
20.4822 -1.66 0.74 5000027.137
24.53898 -2.64 0.74 5000033.8983
22.97934 -3.94 0.74 5000031.2989
20.4822 -5.62 0.74 5000027.137
19.467180000000003 -6.6 0.74 5000025.4453
19.467180000000003 -6.72 0.74 5000025.4453
19.467180000000003 -6.74 0.74 5000025.4453
22.97934 -3.12 0.72 5000031.2989
22.97934 -3.82 0.72 5000031.2989
22.97934 -3.94 0.72 5000031.2989
20.4822 -5.62 0.72 5000027.137
19.467180000000003 -6.6 0.72 5000025.4453
19.467180000000003 -6.74 0.72 5000025.4453
22.97934 -3.82 0.7 5000031.2989
22.97934 -3.94 0.7 5000031.2989
19.467180000000003 -6.6 0.7 5000025.4453
19.467180000000003 -6.74 0.7 5000025.4453
22.97934 -3.82 0.68 5000031.2989
22.97934 -3.94 0.68 5000031.2989
20.4822 -5.62 0.68 5000027.137
16.419959999999996 -6.0 0.68 5000020.3666
19.467180000000003 -6.6 0.68 5000025.4453
19.467180000000003 -6.74 0.68 5000025.4453
19.467180000000003 -1.66 0.66 5000025.4453
22.97934 -3.12 0.66 5000031.2989
22.97934 -3.82 0.66 5000031.2989
22.97934 -3.94 0.66 5000031.2989
21.64188 -4.7 0.66 5000029.0698
21.64188 -4.72 0.66 5000029.0698
19.467180000000003 -6.6 0.66 5000025.4453
19.467180000000003 -6.72 0.66 5000025.4453
19.467180000000003 -6.74 0.66 5000025.4453
22.97934 -3.82 0.64 5000031.2989
22.97934 -3.94 0.64 5000031.2989
22.97934 -3.96 0.64 5000031.2989
20.4822 -5.62 0.64 5000027.137
21.64188 -5.68 0.64 5000029.0698
16.419959999999996 -5.82 0.64 5000020.3666
19.467180000000003 -6.6 0.64 5000025.4453
19.467180000000003 -6.74 0.64 5000025.4453
22.97934 -3.82 0.62 5000031.2989
22.97934 -3.94 0.62 5000031.2989
22.97934 -3.96 0.62 5000031.2989
21.64188 -5.68 0.62 5000029.0698
16.419959999999996 -5.8 0.62 5000020.3666
16.419959999999996 -5.82 0.62 5000020.3666
22.97934 -3.82 0.6 5000031.2989
22.97934 -3.94 0.6 5000031.2989
22.97934 -3.96 0.6 5000031.2989
16.419959999999996 -6.02 0.6 5000020.3666
20.4822 -1.64 0.58 5000027.137
22.97934 -3.94 0.58 5000031.2989
22.97934 -3.96 0.58 5000031.2989
20.4822 -4.78 0.58 5000027.137
16.419959999999996 -6.0 0.58 5000020.3666
16.419959999999996 -6.02 0.58 5000020.3666
16.419959999999996 -6.04 0.58 5000020.3666
20.4822 -1.64 0.56 5000027.137
22.97934 -3.94 0.56 5000031.2989
20.4822 -4.76 0.56 5000027.137
20.4822 -4.78 0.56 5000027.137
16.419959999999996 -5.84 0.56 5000020.3666
16.419959999999996 -5.86 0.56 5000020.3666
16.419959999999996 -6.02 0.56 5000020.3666
16.419959999999996 -6.04 0.56 5000020.3666
19.467180000000003 -6.72 0.56 5000025.4453
19.467180000000003 -6.74 0.56 5000025.4453
20.4822 -1.64 0.54 5000027.137
22.97934 -3.94 0.54 5000031.2989
20.4822 -4.76 0.54 5000027.137
20.4822 -4.78 0.54 5000027.137
16.419959999999996 -5.82 0.54 5000020.3666
16.419959999999996 -5.84 0.54 5000020.3666
16.419959999999996 -5.86 0.54 5000020.3666
16.419959999999996 -6.04 0.54 5000020.3666
19.467180000000003 -6.6 0.54 5000025.4453
22.97934 0.5 0.52 5000031.2989
20.4822 -1.64 0.52 5000027.137
22.97934 -3.94 0.52 5000031.2989
22.97934 -3.96 0.52 5000031.2989
16.419959999999996 -5.82 0.52 5000020.3666
16.419959999999996 -5.84 0.52 5000020.3666
16.419959999999996 -6.02 0.52 5000020.3666
16.419959999999996 -6.04 0.52 5000020.3666
19.467180000000003 -6.6 0.52 5000025.4453
34.65684 -2.76 0.5 5000050.7614
34.65684 -2.78 0.5 5000050.7614
34.65684 -2.86 0.5 5000050.7614
34.65684 -2.88 0.5 5000050.7614
34.65684 -2.9 0.5 5000050.7614
22.97934 -3.94 0.5 5000031.2989
19.467180000000003 -6.6 0.5 5000025.4453
19.467180000000003 -6.62 0.5 5000025.4453
20.4822 -1.64 0.48 5000027.137
22.97934 -2.66 0.48 5000031.2989
34.65684 -2.74 0.48 5000050.7614
34.65684 -2.76 0.48 5000050.7614
34.65684 -2.78 0.48 5000050.7614
20.4822 -5.62 0.48 5000027.137
20.4822 -5.64 0.48 5000027.137
16.419959999999996 -5.86 0.48 5000020.3666
19.467180000000003 -6.6 0.48 5000025.4453
20.4822 -5.58 0.46 5000027.137
20.4822 -5.62 0.46 5000027.137
20.4822 -5.64 0.46 5000027.137
16.419959999999996 -5.84 0.46 5000020.3666
16.419959999999996 -5.86 0.46 5000020.3666
19.467180000000003 -6.6 0.46 5000025.4453
22.97934 -3.12 0.44 5000031.2989
20.4822 -5.62 0.44 5000027.137
20.4822 -5.64 0.44 5000027.137
19.467180000000003 -6.6 0.44 5000025.4453
20.4822 -5.64 0.42 5000027.137
19.467180000000003 -6.6 0.42 5000025.4453
18.57126 -6.74 0.42 5000023.9521
28.590239999999998 -0.46 0.4 5000040.6504
26.38116 -0.48 0.4 5000036.9686
26.38116 -0.52 0.4 5000036.9686
19.467180000000003 -1.64 0.4 5000025.4453
22.97934 -2.66 0.4 5000031.2989
24.53898 -4.66 0.4 5000033.8983
21.64188 -4.7 0.4 5000029.0698
21.64188 -4.72 0.4 5000029.0698
21.64188 -4.74 0.4 5000029.0698
19.467180000000003 -6.6 0.4 5000025.4453
19.467180000000003 -6.74 0.4 5000025.4453
24.53898 -4.66 0.38 5000033.8983
21.64188 -4.7 0.38 5000029.0698
21.64188 -4.72 0.38 5000029.0698
20.4822 -5.64 0.38 5000027.137
19.467180000000003 -6.6 0.38 5000025.4453
19.467180000000003 -6.74 0.38 5000025.4453
21.64188 -3.88 0.36 5000029.0698
21.64188 -4.72 0.36 5000029.0698
20.4822 -5.64 0.36 5000027.137
17.06172 -5.82 0.36 5000021.4362
19.467180000000003 -6.6 0.36 5000025.4453
19.467180000000003 -6.74 0.36 5000025.4453
21.64188 -3.88 0.34 5000029.0698
21.64188 -3.9 0.34 5000029.0698
21.64188 -4.72 0.34 5000029.0698
20.4822 -5.64 0.34 5000027.137
17.06172 -5.8 0.34 5000021.4362
17.06172 -5.82 0.34 5000021.4362
19.467180000000003 -6.6 0.34 5000025.4453
19.467180000000003 -6.74 0.34 5000025.4453
20.4822 -1.62 0.32 5000027.137
21.64188 -3.88 0.32 5000029.0698
21.64188 -4.72 0.32 5000029.0698
20.4822 -5.64 0.32 5000027.137
17.06172 -5.8 0.32 5000021.4362
16.419959999999996 -6.04 0.32 5000020.3666
19.467180000000003 -6.6 0.32 5000025.4453
19.467180000000003 -6.62 0.32 5000025.4453
19.467180000000003 -6.74 0.32 5000025.4453
20.4822 -1.62 0.3 5000027.137
22.97934 -3.12 0.3 5000031.2989
21.64188 -4.72 0.3 5000029.0698
19.467180000000003 -6.6 0.3 5000025.4453
19.467180000000003 -6.74 0.3 5000025.4453
20.4822 -1.62 0.28 5000027.137
22.97934 -2.64 0.28 5000031.2989
22.97934 -2.66 0.28 5000031.2989
22.97934 -3.12 0.28 5000031.2989
22.97934 -3.14 0.28 5000031.2989
22.97934 -3.88 0.28 5000031.2989
24.53898 -4.66 0.28 5000033.8983
21.64188 -4.72 0.28 5000029.0698
20.4822 -5.64 0.28 5000027.137
16.419959999999996 -5.84 0.28 5000020.3666
16.419959999999996 -5.86 0.28 5000020.3666
16.419959999999996 -6.02 0.28 5000020.3666
19.467180000000003 -6.6 0.28 5000025.4453
19.467180000000003 -6.74 0.28 5000025.4453
22.97934 -2.64 0.26 5000031.2989
22.97934 -2.66 0.26 5000031.2989
22.97934 -3.88 0.26 5000031.2989
16.419959999999996 -5.86 0.26 5000020.3666
16.419959999999996 -6.02 0.26 5000020.3666
19.467180000000003 -6.6 0.26 5000025.4453
19.467180000000003 -6.74 0.26 5000025.4453
22.97934 -3.12 0.24 5000031.2989
22.97934 -3.14 0.24 5000031.2989
21.64188 -4.72 0.24 5000029.0698
16.419959999999996 -5.86 0.24 5000020.3666
19.467180000000003 -6.6 0.24 5000025.4453
19.467180000000003 -6.74 0.24 5000025.4453
24.53898 -2.64 0.22 5000033.8983
24.53898 -2.66 0.22 5000033.8983
22.97934 -3.12 0.22 5000031.2989
20.4822 -5.64 0.22 5000027.137
19.467180000000003 -6.6 0.22 5000025.4453
19.467180000000003 -6.74 0.22 5000025.4453
22.97934 -3.14 0.2 5000031.2989
20.4822 -5.64 0.2 5000027.137
19.467180000000003 -6.6 0.2 5000025.4453
19.467180000000003 -6.74 0.2 5000025.4453
19.467180000000003 -1.64 0.18 5000025.4453
20.4822 -5.64 0.18 5000027.137
19.467180000000003 -6.6 0.18 5000025.4453
19.467180000000003 -6.62 0.18 5000025.4453
20.4822 -6.74 0.18 5000027.137
20.4822 -5.64 0.16 5000027.137
20.4822 -6.74 0.16 5000027.137
14.82888 3.7 0.14 5000017.7148
24.53898 -3.12 0.14 5000033.8983
24.53898 -3.14 0.14 5000033.8983
21.64188 -3.9 0.14 5000029.0698
21.64188 -4.72 0.14 5000029.0698
20.4822 -5.64 0.14 5000027.137
16.419959999999996 -5.84 0.14 5000020.3666
20.4822 -6.74 0.14 5000027.137
21.64188 -3.88 0.12 5000029.0698
21.64188 -3.9 0.12 5000029.0698
21.64188 -4.72 0.12 5000029.0698
20.4822 -5.64 0.12 5000027.137
16.419959999999996 -5.84 0.12 5000020.3666
22.97934 -2.64 0.1 5000031.2989
22.97934 -2.66 0.1 5000031.2989
21.64188 -3.88 0.1 5000029.0698
21.64188 -3.9 0.1 5000029.0698
21.64188 -4.72 0.1 5000029.0698
20.4822 -5.64 0.1 5000027.137
16.419959999999996 -5.82 0.1 5000020.3666
16.419959999999996 -5.84 0.1 5000020.3666
19.467180000000003 -1.64 0.08 5000025.4453
16.419959999999996 -5.82 0.08 5000020.3666
16.419959999999996 -5.84 0.08 5000020.3666
19.467180000000003 -1.64 0.06 5000025.4453
22.97934 -2.66 0.06 5000031.2989
21.64188 -4.72 0.06 5000029.0698
20.4822 -5.64 0.06 5000027.137
16.419959999999996 -5.84 0.06 5000020.3666
22.97934 -3.14 0.04 5000031.2989
22.97934 -3.88 0.04 5000031.2989
22.97934 -3.9 0.04 5000031.2989
20.4822 -5.64 0.04 5000027.137
19.467180000000003 -6.74 0.04 5000025.4453
14.82888 3.62 0.02 5000017.7148
22.97934 -3.14 0.02 5000031.2989
21.64188 -4.72 0.02 5000029.0698
20.4822 -5.64 0.02 5000027.137
16.419959999999996 -5.84 0.02 5000020.3666
19.467180000000003 -6.62 0.02 5000025.4453
19.467180000000003 -6.74 0.02 5000025.4453
14.82888 3.62 0.0 5000017.7148
20.4822 -5.64 0.0 5000027.137
19.467180000000003 -6.62 0.0 5000025.4453
19.467180000000003 -6.74 0.0 5000025.4453
22.97934 -3.14 -0.02 5000031.2989
21.64188 -3.9 -0.02 5000029.0698
21.64188 -4.72 -0.02 5000029.0698
20.4822 -5.64 -0.02 5000027.137
16.419959999999996 -5.8 -0.02 5000020.3666
19.467180000000003 -6.62 -0.02 5000025.4453
19.467180000000003 -6.74 -0.02 5000025.4453
22.97934 -2.66 -0.04 5000031.2989
22.97934 -3.14 -0.04 5000031.2989
21.64188 -3.9 -0.04 5000029.0698
20.4822 -5.64 -0.04 5000027.137
19.467180000000003 -6.62 -0.04 5000025.4453
22.97934 -3.12 -0.06 5000031.2989
22.97934 -3.14 -0.06 5000031.2989
21.64188 -3.9 -0.06 5000029.0698
21.64188 -4.72 -0.06 5000029.0698
21.64188 -4.74 -0.06 5000029.0698
20.4822 -5.64 -0.06 5000027.137
19.467180000000003 -6.62 -0.06 5000025.4453
22.97934 -3.14 -0.08 5000031.2989
21.64188 -3.9 -0.08 5000029.0698
20.4822 -5.64 -0.08 5000027.137
16.419959999999996 -6.06 -0.08 5000020.3666
19.467180000000003 -6.62 -0.08 5000025.4453
22.97934 -3.14 -0.1 5000031.2989
21.64188 -3.9 -0.1 5000029.0698
21.64188 -4.72 -0.1 5000029.0698
16.419959999999996 -5.84 -0.1 5000020.3666
16.419959999999996 -6.06 -0.1 5000020.3666
19.467180000000003 -6.62 -0.1 5000025.4453
22.97934 -3.14 -0.12 5000031.2989
20.4822 -5.64 -0.12 5000027.137
16.419959999999996 -5.84 -0.12 5000020.3666
19.467180000000003 -6.62 -0.12 5000025.4453
22.97934 -2.64 -0.14 5000031.2989
22.97934 -2.66 -0.14 5000031.2989
22.97934 -3.14 -0.14 5000031.2989
21.64188 -3.9 -0.14 5000029.0698
21.64188 -4.72 -0.14 5000029.0698
20.4822 -5.64 -0.14 5000027.137
22.97934 -2.64 -0.16 5000031.2989
22.97934 -2.66 -0.16 5000031.2989
22.97934 -3.14 -0.16 5000031.2989
21.64188 -3.9 -0.16 5000029.0698
21.64188 -4.72 -0.16 5000029.0698
21.64188 -4.74 -0.16 5000029.0698
20.4822 -5.64 -0.16 5000027.137
19.467180000000003 -6.74 -0.16 5000025.4453
22.97934 -2.66 -0.18 5000031.2989
22.97934 -3.14 -0.18 5000031.2989
21.64188 -3.9 -0.18 5000029.0698
21.64188 -4.72 -0.18 5000029.0698
16.419959999999996 -5.84 -0.18 5000020.3666
16.419959999999996 -5.86 -0.18 5000020.3666
16.419959999999996 -5.88 -0.18 5000020.3666
16.419959999999996 -6.06 -0.18 5000020.3666
19.467180000000003 -6.74 -0.18 5000025.4453
22.97934 -3.14 -0.2 5000031.2989
26.38116 -3.84 -0.2 5000036.9686
21.64188 -3.9 -0.2 5000029.0698
17.06172 -5.82 -0.2 5000021.4362
16.419959999999996 -5.84 -0.2 5000020.3666
16.419959999999996 -5.86 -0.2 5000020.3666
16.419959999999996 -5.88 -0.2 5000020.3666
16.419959999999996 -6.06 -0.2 5000020.3666
16.419959999999996 -6.08 -0.2 5000020.3666
22.97934 -2.66 -0.22 5000031.2989
22.97934 -3.14 -0.22 5000031.2989
16.419959999999996 -5.84 -0.22 5000020.3666
16.419959999999996 -5.86 -0.22 5000020.3666
16.419959999999996 -5.88 -0.22 5000020.3666
16.419959999999996 -6.06 -0.22 5000020.3666
19.467180000000003 -1.66 -0.26 5000025.4453
22.97934 -3.06 -0.26 5000031.2989
20.4822 -5.64 -0.26 5000027.137
20.4822 -5.66 -0.26 5000027.137
19.467180000000003 -6.62 -0.26 5000025.4453
24.53898 -2.66 -0.28 5000033.8983
22.97934 -3.06 -0.28 5000031.2989
21.64188 -4.72 -0.28 5000029.0698
21.64188 -4.74 -0.28 5000029.0698
20.4822 -5.64 -0.28 5000027.137
20.4822 -5.66 -0.28 5000027.137
19.467180000000003 -6.62 -0.28 5000025.4453
22.97934 -3.06 -0.3 5000031.2989
26.38116 -3.84 -0.3 5000036.9686
21.64188 -3.9 -0.3 5000029.0698
22.97934 -4.56 -0.3 5000031.2989
20.4822 -4.72 -0.3 5000027.137
21.64188 -4.74 -0.3 5000029.0698
20.4822 -5.64 -0.3 5000027.137
19.467180000000003 -6.62 -0.3 5000025.4453
24.53898 -1.88 -0.32 5000033.8983
22.97934 -3.06 -0.32 5000031.2989
22.97934 -3.14 -0.32 5000031.2989
26.38116 -3.84 -0.32 5000036.9686
21.64188 -3.9 -0.32 5000029.0698
22.97934 -4.56 -0.32 5000031.2989
20.4822 -5.64 -0.32 5000027.137
20.4822 -5.66 -0.32 5000027.137
19.467180000000003 -6.62 -0.32 5000025.4453
24.53898 -1.88 -0.34 5000033.8983
22.97934 -3.04 -0.34 5000031.2989
22.97934 -3.06 -0.34 5000031.2989
22.97934 -3.12 -0.34 5000031.2989
22.97934 -3.14 -0.34 5000031.2989
26.38116 -3.84 -0.34 5000036.9686
21.64188 -3.9 -0.34 5000029.0698
22.97934 -4.5 -0.34 5000031.2989
20.4822 -4.68 -0.34 5000027.137
20.4822 -4.8 -0.34 5000027.137
19.467180000000003 -6.62 -0.34 5000025.4453
22.97934 -3.14 -0.36 5000031.2989
21.64188 -3.9 -0.36 5000029.0698
20.4822 -4.68 -0.36 5000027.137
20.4822 -4.8 -0.36 5000027.137
16.419959999999996 -6.06 -0.36 5000020.3666
19.467180000000003 -6.62 -0.36 5000025.4453
20.4822 -3.38 -0.38 5000027.137
17.77464 -3.46 -0.38 5000022.6244
17.77464 -3.48 -0.38 5000022.6244
20.4822 -4.68 -0.38 5000027.137
16.419959999999996 -6.06 -0.38 5000020.3666
19.467180000000003 -6.62 -0.38 5000025.4453
19.467180000000003 -6.74 -0.38 5000025.4453
17.77464 -3.44 -0.4 5000022.6244
17.77464 -3.46 -0.4 5000022.6244
17.77464 -3.48 -0.4 5000022.6244
20.4822 -4.68 -0.4 5000027.137
19.467180000000003 -5.72 -0.4 5000025.4453
16.419959999999996 -6.04 -0.4 5000020.3666
16.419959999999996 -6.06 -0.4 5000020.3666
16.419959999999996 -6.08 -0.4 5000020.3666
20.4822 -6.52 -0.4 5000027.137
19.467180000000003 -6.62 -0.4 5000025.4453
19.467180000000003 -6.64 -0.4 5000025.4453
20.4822 -4.68 -0.42 5000027.137
20.4822 -4.74 -0.42 5000027.137
20.4822 -4.8 -0.42 5000027.137
20.4822 -6.52 -0.42 5000027.137
19.467180000000003 -6.62 -0.42 5000025.4453
18.57126 -0.9 -0.44 5000023.9521
20.4822 -4.68 -0.44 5000027.137
21.64188 -5.54 -0.44 5000029.0698
20.4822 -6.52 -0.44 5000027.137
19.467180000000003 -6.62 -0.44 5000025.4453
17.06172 -3.52 -0.46 5000021.4362
17.06172 -3.54 -0.46 5000021.4362
17.06172 -3.56 -0.46 5000021.4362
21.64188 -5.1 -0.46 5000029.0698
21.64188 -5.12 -0.46 5000029.0698
21.64188 -5.54 -0.46 5000029.0698
19.467180000000003 -5.72 -0.46 5000025.4453
20.4822 -6.52 -0.46 5000027.137
19.467180000000003 -6.62 -0.46 5000025.4453
17.06172 -3.5 -0.48 5000021.4362
17.06172 -3.52 -0.48 5000021.4362
17.06172 -3.54 -0.48 5000021.4362
17.77464 -3.74 -0.48 5000022.6244
17.77464 -3.76 -0.48 5000022.6244
21.64188 -5.54 -0.48 5000029.0698
19.467180000000003 -5.7 -0.48 5000025.4453
19.467180000000003 -5.72 -0.48 5000025.4453
20.4822 -6.52 -0.48 5000027.137
19.467180000000003 -6.58 -0.48 5000025.4453
19.467180000000003 -6.62 -0.48 5000025.4453
19.467180000000003 -6.64 -0.48 5000025.4453
19.467180000000003 -6.74 -0.48 5000025.4453
17.06172 -3.5 -0.5 5000021.4362
17.06172 -3.52 -0.5 5000021.4362
17.06172 -3.54 -0.5 5000021.4362
20.4822 -5.24 -0.5 5000027.137
20.4822 -5.26 -0.5 5000027.137
20.4822 -5.28 -0.5 5000027.137
16.419959999999996 -6.06 -0.5 5000020.3666
19.467180000000003 -6.62 -0.5 5000025.4453
19.467180000000003 -6.74 -0.5 5000025.4453
17.06172 -3.54 -0.52 5000021.4362
16.419959999999996 -3.54 -0.54 5000020.3666
16.419959999999996 -3.56 -0.54 5000020.3666
18.57126 -1.08 -0.56 5000023.9521
26.38116 -1.88 -0.56 5000036.9686
16.419959999999996 -3.46 -0.56 5000020.3666
16.419959999999996 -3.56 -0.56 5000020.3666
16.419959999999996 -3.58 -0.56 5000020.3666
14.82888 -6.4 -0.56 5000017.7148
16.419959999999996 -3.58 -0.58 5000020.3666
16.419959999999996 -3.6 -0.58 5000020.3666
14.82888 -6.32 -0.58 5000017.7148
14.82888 -6.38 -0.58 5000017.7148
14.82888 -6.4 -0.58 5000017.7148
14.82888 -6.42 -0.58 5000017.7148
14.82888 3.7 -0.6 5000017.7148
14.82888 3.68 -0.6 5000017.7148
26.38116 -1.88 -0.6 5000036.9686
17.77464 -2.38 -0.6 5000022.6244
16.419959999999996 -3.58 -0.6 5000020.3666
16.419959999999996 -3.6 -0.6 5000020.3666
19.467180000000003 -4.78 -0.6 5000025.4453
14.82888 -6.32 -0.6 5000017.7148
14.82888 -6.38 -0.6 5000017.7148
14.82888 -6.4 -0.6 5000017.7148
14.82888 3.7 -0.62 5000017.7148
14.82888 3.68 -0.62 5000017.7148
14.82888 3.58 -0.62 5000017.7148
18.57126 -1.08 -0.62 5000023.9521
17.06172 -2.68 -0.62 5000021.4362
16.419959999999996 -3.6 -0.62 5000020.3666
16.419959999999996 -3.62 -0.62 5000020.3666
14.82888 -6.3 -0.62 5000017.7148
14.82888 -6.38 -0.62 5000017.7148
14.82888 3.7 -0.64 5000017.7148
18.57126 -1.08 -0.64 5000023.9521
17.77464 -2.3 -0.64 5000022.6244
17.77464 -2.46 -0.64 5000022.6244
16.419959999999996 -3.6 -0.64 5000020.3666
16.419959999999996 -3.62 -0.64 5000020.3666
16.419959999999996 -3.64 -0.64 5000020.3666
15.3111 -6.38 -0.64 5000018.5185
14.82888 3.68 -0.66 5000017.7148
22.97934 -1.02 -0.66 5000031.2989
17.77464 -2.26 -0.66 5000022.6244
17.77464 -2.3 -0.66 5000022.6244
17.77464 -2.32 -0.66 5000022.6244
14.82888 -6.28 -0.66 5000017.7148
14.82888 -6.36 -0.66 5000017.7148
14.82888 -6.38 -0.66 5000017.7148
14.82888 3.68 -0.68 5000017.7148
20.4822 -0.26 -0.68 5000027.137
21.64188 -4.8 -0.68 5000029.0698
21.64188 -5.22 -0.68 5000029.0698
14.82888 -6.26 -0.68 5000017.7148
14.82888 -6.28 -0.68 5000017.7148
14.82888 -6.36 -0.68 5000017.7148
14.82888 -6.38 -0.68 5000017.7148
14.82888 3.7 -0.7 5000017.7148
21.64188 -3.54 -0.7 5000029.0698
16.419959999999996 -3.64 -0.7 5000020.3666
16.419959999999996 -3.66 -0.7 5000020.3666
21.64188 -4.68 -0.7 5000029.0698
21.64188 -4.78 -0.7 5000029.0698
21.64188 -4.8 -0.7 5000029.0698
14.82888 -6.26 -0.7 5000017.7148
14.82888 -6.36 -0.7 5000017.7148
14.82888 3.7 -0.72 5000017.7148
14.82888 3.68 -0.72 5000017.7148
16.419959999999996 -3.62 -0.72 5000020.3666
16.419959999999996 -3.64 -0.72 5000020.3666
15.83916 -3.7 -0.72 5000019.3986
21.64188 -4.68 -0.72 5000029.0698
21.64188 -4.78 -0.72 5000029.0698
21.64188 -4.8 -0.72 5000029.0698
14.82888 -6.24 -0.72 5000017.7148
14.82888 -6.26 -0.72 5000017.7148
14.82888 -6.36 -0.72 5000017.7148
16.419959999999996 -3.64 -0.74 5000020.3666
22.97934 -3.96 -0.74 5000031.2989
21.64188 -4.68 -0.74 5000029.0698
21.64188 -4.8 -0.74 5000029.0698
14.82888 -5.76 -0.74 5000017.7148
14.82888 -6.24 -0.74 5000017.7148
14.82888 -6.34 -0.74 5000017.7148
14.82888 -6.36 -0.74 5000017.7148
14.82888 -6.38 -0.74 5000017.7148
14.82888 3.7 -0.76 5000017.7148
17.06172 -3.86 -0.76 5000021.4362
22.97934 -3.96 -0.76 5000031.2989
21.64188 -4.8 -0.76 5000029.0698
14.82888 -5.74 -0.76 5000017.7148
14.82888 -5.76 -0.76 5000017.7148
14.82888 -5.78 -0.76 5000017.7148
14.82888 -6.22 -0.76 5000017.7148
14.82888 -6.24 -0.76 5000017.7148
14.82888 -6.34 -0.76 5000017.7148
14.82888 -6.36 -0.76 5000017.7148
14.82888 3.7 -0.78 5000017.7148
14.82888 3.68 -0.78 5000017.7148
17.06172 -3.88 -0.78 5000021.4362
21.64188 -4.8 -0.78 5000029.0698
16.419959999999996 -5.5 -0.78 5000020.3666
16.419959999999996 -5.52 -0.78 5000020.3666
16.419959999999996 -5.54 -0.78 5000020.3666
14.82888 -5.76 -0.78 5000017.7148
14.82888 -6.22 -0.78 5000017.7148
14.82888 -6.36 -0.78 5000017.7148
14.82888 3.68 -0.8 5000017.7148
21.64188 -4.8 -0.8 5000029.0698
15.3111 -5.64 -0.8 5000018.5185
15.3111 -5.66 -0.8 5000018.5185
14.82888 -5.68 -0.8 5000017.7148
14.82888 3.68 -0.82 5000017.7148
22.97934 -4.58 -0.82 5000031.2989
21.64188 -4.8 -0.82 5000029.0698
15.3111 -5.66 -0.82 5000018.5185
14.82888 -5.68 -0.82 5000017.7148
14.82888 -5.7 -0.82 5000017.7148
14.82888 -5.72 -0.82 5000017.7148
17.77464 -1.78 -0.84 5000022.6244
20.4822 -3.88 -0.84 5000027.137
22.97934 -4.58 -0.84 5000031.2989
22.97934 -4.6 -0.84 5000031.2989
21.64188 -4.68 -0.84 5000029.0698
14.82888 -5.7 -0.84 5000017.7148
14.82888 -5.72 -0.84 5000017.7148
17.77464 -1.76 -0.86 5000022.6244
20.4822 -3.88 -0.86 5000027.137
