VERSION .7
FIELDS x y z rgb
SIZE 4 4 4 4
TYPE F F F F
COUNT 1 1 1 1
WIDTH 1266
HEIGHT 1
VIEWPOINT 0 0 0 1 0 0 0
POINTS 1266
DATA ascii
14.386740000000001 -6.68 -0.58 16.9779
14.386740000000001 -6.74 -0.58 16.9779
14.386740000000001 3.78 -0.6 16.9779
24.53898 -2.0 -0.6 33.8983
17.06172 -2.52 -0.6 21.4362
17.06172 -2.54 -0.6 21.4362
17.06172 -2.84 -0.6 21.4362
16.419959999999996 -3.78 -0.6 20.3666
16.419959999999996 -3.8 -0.6 20.3666
15.83916 -3.82 -0.6 19.3986
14.386740000000001 -6.66 -0.6 16.9779
14.386740000000001 -6.74 -0.6 16.9779
14.386740000000001 3.78 -0.62 16.9779
14.82888 3.66 -0.62 17.7148
18.57126 -1.18 -0.62 23.9521
24.53898 -2.0 -0.62 33.8983
16.419959999999996 -3.8 -0.62 20.3666
16.419959999999996 -3.82 -0.62 20.3666
15.83916 -3.84 -0.62 19.3986
21.64188 -4.08 -0.62 29.0698
19.467180000000003 -5.9 -0.62 25.4453
14.386740000000001 -6.66 -0.62 16.9779
14.386740000000001 -6.74 -0.62 16.9779
14.386740000000001 3.78 -0.64 16.9779
18.57126 -1.18 -0.64 23.9521
17.77464 -2.44 -0.64 22.6244
16.419959999999996 -2.46 -0.64 20.3666
15.83916 -3.82 -0.64 19.3986
15.83916 -3.84 -0.64 19.3986
20.4822 -5.56 -0.64 27.137
20.4822 -5.58 -0.64 27.137
14.386740000000001 -6.64 -0.64 16.9779
14.386740000000001 -6.72 -0.64 16.9779
14.386740000000001 -6.74 -0.64 16.9779
18.57126 -0.72 -0.66 23.9521
18.57126 -1.18 -0.66 23.9521
13.25658 -1.34 -0.66 15.0943
18.57126 -1.48 -0.66 23.9521
18.57126 -2.4 -0.66 23.9521
16.419959999999996 -2.46 -0.66 20.3666
14.386740000000001 -6.62 -0.66 16.9779
14.386740000000001 -6.64 -0.66 16.9779
14.386740000000001 -6.72 -0.66 16.9779
14.386740000000001 -6.74 -0.66 16.9779
14.386740000000001 3.78 -0.68 16.9779
19.467180000000003 -0.34 -0.68 25.4453
21.64188 -1.96 -0.68 29.0698
15.83916 -3.86 -0.68 19.3986
14.386740000000001 -6.62 -0.68 16.9779
14.386740000000001 -6.72 -0.68 16.9779
14.386740000000001 3.78 -0.7 16.9779
19.467180000000003 -0.34 -0.7 25.4453
20.4822 -3.74 -0.7 27.137
16.419959999999996 -3.84 -0.7 20.3666
16.419959999999996 -3.86 -0.7 20.3666
21.64188 -4.14 -0.7 29.0698
21.64188 -5.0 -0.7 29.0698
14.386740000000001 -6.62 -0.7 16.9779
14.386740000000001 -6.72 -0.7 16.9779
14.386740000000001 -6.74 -0.7 16.9779
14.386740000000001 3.78 -0.72 16.9779
16.419959999999996 -3.82 -0.72 20.3666
16.419959999999996 -3.84 -0.72 20.3666
16.419959999999996 -3.86 -0.72 20.3666
15.83916 -3.9 -0.72 19.3986
14.82888 -3.92 -0.72 17.7148
21.64188 -4.14 -0.72 29.0698
21.64188 -4.88 -0.72 29.0698
14.386740000000001 -6.6 -0.72 16.9779
14.386740000000001 -6.7 -0.72 16.9779
14.386740000000001 -6.72 -0.72 16.9779
14.386740000000001 -6.74 -0.72 16.9779
16.419959999999996 -3.84 -0.74 20.3666
21.64188 -4.14 -0.74 29.0698
21.64188 -4.16 -0.74 29.0698
21.64188 -5.0 -0.74 29.0698
14.386740000000001 -6.08 -0.74 16.9779
14.386740000000001 -6.58 -0.74 16.9779
14.386740000000001 -6.6 -0.74 16.9779
14.386740000000001 -6.7 -0.74 16.9779
14.386740000000001 -6.72 -0.74 16.9779
14.386740000000001 3.78 -0.76 16.9779
18.57126 -1.28 -0.76 23.9521
21.64188 -4.14 -0.76 29.0698
21.64188 -5.0 -0.76 29.0698
14.386740000000001 -6.08 -0.76 16.9779
14.386740000000001 -6.1 -0.76 16.9779
14.386740000000001 -6.58 -0.76 16.9779
14.386740000000001 -6.7 -0.76 16.9779
14.386740000000001 -6.72 -0.76 16.9779
14.386740000000001 3.78 -0.78 16.9779
17.77464 -1.82 -0.78 22.6244
17.06172 -3.94 -0.78 21.4362
16.419959999999996 -4.08 -0.78 20.3666
22.97934 -4.76 -0.78 31.2989
22.97934 -4.78 -0.78 31.2989
21.64188 -5.0 -0.78 29.0698
14.82888 -5.98 -0.78 17.7148
14.386740000000001 -6.06 -0.78 16.9779
14.386740000000001 -6.08 -0.78 16.9779
14.386740000000001 -6.56 -0.78 16.9779
14.386740000000001 -6.58 -0.78 16.9779
14.386740000000001 -6.7 -0.78 16.9779
14.386740000000001 -6.72 -0.78 16.9779
14.386740000000001 3.78 -0.8 16.9779
14.82888 -5.96 -0.8 17.7148
14.82888 -5.98 -0.8 17.7148
14.82888 -6.0 -0.8 17.7148
14.386740000000001 3.78 -0.82 16.9779
21.64188 -5.0 -0.82 29.0698
14.82888 -5.96 -0.82 17.7148
14.82888 -5.98 -0.82 17.7148
14.82888 -6.0 -0.82 17.7148
14.82888 -6.02 -0.82 17.7148
44.74056 -1.68 -0.84 67.5676
17.77464 -1.9 -0.84 22.6244
17.06172 -1.92 -0.84 21.4362
19.467180000000003 -4.08 -0.84 25.4453
21.64188 -4.78 -0.84 29.0698
21.64188 -4.8 -0.84 29.0698
21.64188 -4.88 -0.84 29.0698
21.64188 -5.02 -0.84 29.0698
14.82888 -6.0 -0.84 17.7148
14.386740000000001 -6.02 -0.84 16.9779
14.386740000000001 -6.04 -0.84 16.9779
19.467180000000003 -0.1 -0.86 25.4453
17.77464 -1.88 -0.86 22.6244
17.77464 -1.9 -0.86 22.6244
19.467180000000003 -4.08 -0.86 25.4453
21.64188 -4.76 -0.86 29.0698
21.64188 -4.78 -0.86 29.0698
21.64188 -4.88 -0.86 29.0698
19.467180000000003 -0.08 -0.88 25.4453
18.57126 -0.92 -0.88 23.9521
18.57126 -0.94 -0.88 23.9521
17.77464 -1.86 -0.88 22.6244
17.77464 -1.88 -0.88 22.6244
15.83916 -3.26 -0.88 19.3986
20.4822 -4.2 -0.88 27.137
21.64188 -4.78 -0.88 29.0698
14.386740000000001 -6.46 -0.88 16.9779
18.57126 -0.9 -0.9 23.9521
17.77464 -1.86 -0.9 22.6244
15.83916 -3.54 -0.9 19.3986
15.83916 -3.84 -0.9 19.3986
15.83916 -3.86 -0.9 19.3986
15.83916 -3.88 -0.9 19.3986
14.386740000000001 -6.44 -0.9 16.9779
14.386740000000001 -6.46 -0.9 16.9779
18.57126 -0.9 -0.92 23.9521
15.83916 -3.54 -0.92 19.3986
15.83916 -3.56 -0.92 19.3986
15.83916 -3.86 -0.92 19.3986
15.83916 -3.88 -0.92 19.3986
19.467180000000003 -4.26 -0.92 25.4453
20.4822 -4.58 -0.92 27.137
20.4822 -4.6 -0.92 27.137
21.64188 -4.82 -0.92 29.0698
19.467180000000003 -4.94 -0.92 25.4453
19.467180000000003 -4.96 -0.92 25.4453
15.83916 -3.56 -0.94 19.3986
15.83916 -3.58 -0.94 19.3986
20.4822 -4.58 -0.94 27.137
20.4822 -4.6 -0.94 27.137
15.83916 -3.58 -0.96 19.3986
15.3111 -5.2 -0.96 18.5185
17.77464 -1.78 -0.98 22.6244
17.77464 -2.12 -0.98 22.6244
17.77464 -2.14 -0.98 22.6244
15.3111 -5.2 -0.98 18.5185
14.386740000000001 -5.52 -0.98 16.9779
16.419959999999996 -3.12 -1.0 20.3666
16.419959999999996 -3.48 -1.0 20.3666
15.3111 -5.44 -1.0 18.5185
14.82888 -5.46 -1.0 17.7148
14.82888 -5.48 -1.0 17.7148
14.82888 -5.5 -1.0 17.7148
14.82888 -5.68 -1.0 17.7148
14.386740000000001 -5.7 -1.0 16.9779
34.65684 -0.92 -1.02 50.7614
16.419959999999996 -3.5 -1.02 20.3666
15.3111 -5.42 -1.02 18.5185
15.3111 -5.44 -1.02 18.5185
14.82888 -5.7 -1.02 17.7148
14.386740000000001 -5.72 -1.02 16.9779
14.386740000000001 -5.74 -1.02 16.9779
34.65684 -0.92 -1.04 50.7614
19.467180000000003 -1.5 -1.04 25.4453
20.4822 -2.08 -1.04 27.137
16.419959999999996 -3.26 -1.04 20.3666
16.419959999999996 -3.3 -1.04 20.3666
17.77464 -3.34 -1.04 22.6244
16.419959999999996 -3.5 -1.04 20.3666
16.419959999999996 -4.12 -1.04 20.3666
15.3111 -5.38 -1.04 18.5185
15.3111 -5.4 -1.04 18.5185
15.3111 -5.42 -1.04 18.5185
14.82888 -5.72 -1.04 17.7148
14.386740000000001 -5.74 -1.04 16.9779
20.4822 -0.5 -1.06 27.137
18.57126 -1.06 -1.06 23.9521
22.97934 -1.98 -1.06 31.2989
20.4822 -2.08 -1.06 27.137
16.419959999999996 -3.26 -1.06 20.3666
15.83916 -3.5 -1.06 19.3986
16.419959999999996 -3.52 -1.06 20.3666
16.419959999999996 -4.1 -1.06 20.3666
16.419959999999996 -4.12 -1.06 20.3666
15.3111 -5.36 -1.06 18.5185
15.3111 -5.38 -1.06 18.5185
15.3111 -5.4 -1.06 18.5185
14.82888 -5.74 -1.06 17.7148
14.386740000000001 -5.76 -1.06 16.9779
18.57126 -1.28 -1.08 23.9521
18.57126 -1.3 -1.08 23.9521
20.4822 -2.06 -1.08 27.137
18.57126 -3.42 -1.08 23.9521
18.57126 -3.44 -1.08 23.9521
16.419959999999996 -3.52 -1.08 20.3666
16.419959999999996 -4.1 -1.08 20.3666
16.419959999999996 -4.12 -1.08 20.3666
15.83916 -5.12 -1.08 19.3986
15.3111 -5.36 -1.08 18.5185
15.3111 -5.38 -1.08 18.5185
14.82888 -5.76 -1.08 17.7148
14.386740000000001 -5.78 -1.08 16.9779
14.82888 -5.86 -1.08 17.7148
14.82888 -5.88 -1.08 17.7148
18.57126 -1.3 -1.1 23.9521
38.9826 -1.92 -1.1 57.971
17.77464 -2.12 -1.1 22.6244
17.77464 -2.14 -1.1 22.6244
15.83916 -3.26 -1.1 19.3986
18.57126 -3.44 -1.1 23.9521
16.419959999999996 -3.46 -1.1 20.3666
15.83916 -3.52 -1.1 19.3986
15.3111 -5.34 -1.1 18.5185
15.3111 -5.36 -1.1 18.5185
15.3111 -5.38 -1.1 18.5185
14.82888 -5.78 -1.1 17.7148
17.77464 -2.12 -1.12 22.6244
18.57126 -2.28 -1.12 23.9521
18.57126 -2.3 -1.12 23.9521
15.83916 -3.26 -1.12 19.3986
16.419959999999996 -3.52 -1.12 20.3666
14.82888 -5.5 -1.12 17.7148
14.82888 -5.54 -1.12 17.7148
14.82888 -5.8 -1.12 17.7148
16.419959999999996 5.18 -1.14 20.3666
17.77464 -2.1 -1.14 22.6244
18.57126 -2.28 -1.14 23.9521
18.57126 -2.3 -1.14 23.9521
17.77464 -2.56 -1.14 22.6244
16.419959999999996 -3.26 -1.14 20.3666
16.419959999999996 -3.3 -1.14 20.3666
16.419959999999996 -3.42 -1.14 20.3666
16.419959999999996 -3.5 -1.14 20.3666
16.419959999999996 -3.52 -1.14 20.3666
15.3111 -5.34 -1.14 18.5185
15.3111 -5.36 -1.14 18.5185
14.82888 -5.5 -1.14 17.7148
14.82888 -5.62 -1.14 17.7148
14.82888 -5.64 -1.14 17.7148
14.82888 -5.8 -1.14 17.7148
17.77464 -2.08 -1.16 22.6244
17.77464 -2.1 -1.16 22.6244
16.419959999999996 -3.26 -1.16 20.3666
16.419959999999996 -3.48 -1.16 20.3666
16.419959999999996 -3.5 -1.16 20.3666
16.419959999999996 -3.52 -1.16 20.3666
17.06172 -3.9 -1.16 21.4362
17.06172 -3.92 -1.16 21.4362
14.82888 -5.34 -1.16 17.7148
14.82888 -5.36 -1.16 17.7148
14.82888 -5.5 -1.16 17.7148
14.82888 -5.52 -1.16 17.7148
14.82888 -5.62 -1.16 17.7148
14.82888 -5.64 -1.16 17.7148
14.82888 -5.8 -1.16 17.7148
14.82888 -5.82 -1.16 17.7148
16.419959999999996 -3.28 -1.18 20.3666
16.419959999999996 -3.48 -1.18 20.3666
16.419959999999996 -3.5 -1.18 20.3666
17.06172 -3.78 -1.18 21.4362
17.06172 -3.8 -1.18 21.4362
14.82888 -5.34 -1.18 17.7148
14.82888 -5.36 -1.18 17.7148
14.82888 -5.72 -1.18 17.7148
14.82888 -5.8 -1.18 17.7148
14.82888 -5.82 -1.18 17.7148
17.77464 -2.92 -1.2 22.6244
16.419959999999996 -3.3 -1.2 20.3666
16.419959999999996 -3.46 -1.2 20.3666
16.419959999999996 -3.48 -1.2 20.3666
17.06172 -3.86 -1.2 21.4362
17.06172 -3.88 -1.2 21.4362
14.82888 -5.34 -1.2 17.7148
14.82888 -5.42 -1.2 17.7148
14.82888 -5.44 -1.2 17.7148
14.82888 -5.68 -1.2 17.7148
14.82888 -5.7 -1.2 17.7148
14.82888 -5.72 -1.2 17.7148
14.82888 -5.74 -1.2 17.7148
14.82888 -5.82 -1.2 17.7148
14.82888 -5.84 -1.2 17.7148
18.57126 -3.38 -1.22 23.9521
17.77464 -3.4 -1.22 22.6244
17.06172 -3.42 -1.22 21.4362
17.06172 -3.44 -1.22 21.4362
16.419959999999996 -3.46 -1.22 20.3666
14.82888 -5.42 -1.22 17.7148
14.82888 -5.44 -1.22 17.7148
14.82888 -5.7 -1.22 17.7148
14.82888 -5.72 -1.22 17.7148
14.82888 -5.74 -1.22 17.7148
14.82888 -5.82 -1.22 17.7148
14.82888 -5.84 -1.22 17.7148
17.06172 -3.42 -1.24 21.4362
14.82888 -5.44 -1.24 17.7148
14.82888 -5.82 -1.24 17.7148
14.82888 -5.44 -1.26 17.7148
15.3111 -5.5 -1.26 18.5185
15.3111 -5.62 -1.26 18.5185
15.3111 -5.64 -1.26 18.5185
15.3111 -5.66 -1.26 18.5185
16.419959999999996 -4.36 -1.28 20.3666
14.82888 -5.56 -1.28 17.7148
14.82888 -5.46 -1.3 17.7148
15.3111 -5.54 -1.3 18.5185
14.82888 -5.56 -1.3 17.7148
15.3111 -5.66 -1.3 18.5185
14.82888 -5.68 -1.3 17.7148
14.82888 -5.7 -1.3 17.7148
16.419959999999996 -5.04 -1.32 20.3666
16.419959999999996 -5.06 -1.32 20.3666
14.82888 -5.48 -1.32 17.7148
15.3111 -5.64 -1.32 18.5185
15.3111 -5.66 -1.32 18.5185
15.3111 -5.68 -1.32 18.5185
14.82888 -5.7 -1.32 17.7148
16.419959999999996 -5.28 -1.34 20.3666
16.419959999999996 -5.3 -1.34 20.3666
15.83916 -5.62 -1.34 19.3986
15.3111 -5.64 -1.34 18.5185
15.3111 -5.66 -1.34 18.5185
14.386740000000001 5.54 -1.36 16.9779
13.979940000000001 3.32 -1.46 16.2999
13.979940000000001 3.38 -1.48 16.2999
12.63288 -5.04 -1.56 14.0548
12.933599999999998 2.72 -1.58 14.556
12.933599999999998 2.7 -1.6 14.556
12.933599999999998 2.68 -1.6 14.556
12.63288 2.66 -1.62 14.0548
12.63288 2.66 -1.64 14.0548
12.63288 2.66 -1.66 14.0548
11.18892 -3.88 -1.92 11.6482
10.995 -3.92 -1.92 11.325
10.811580000000001 -3.94 -1.92 11.0193
10.811580000000001 -3.96 -1.92 11.0193
10.995 -5.36 -1.92 11.325
10.995 -5.38 -1.92 11.325
10.637759999999998 -6.44 -1.94 10.7296
10.637759999999998 -6.46 -1.94 10.7296
10.637759999999998 2.82 -1.98 10.7296
10.637759999999998 2.8 -1.98 10.7296
10.16718 -5.94 -2.02 9.9453
10.16718 -5.96 -2.02 9.9453
10.16718 -5.98 -2.02 9.9453
10.16718 -5.96 -2.04 9.9453
10.16718 2.96 -2.1 9.9453
10.16718 2.94 -2.1 9.9453
10.16718 2.92 -2.1 9.9453
10.025244 -6.14 -2.1 9.70874
10.025244 -6.16 -2.1 9.70874
10.025244 -6.18 -2.1 9.70874
9.889902000000001 -4.7 -2.16 9.48317
9.889902000000001 -6.72 -2.16 9.48317
9.889902000000001 -6.74 -2.16 9.48317
9.760704 -6.56 -2.18 9.26784
9.760704 -6.58 -2.18 9.26784
9.889902000000001 -6.72 -2.18 9.48317
9.889902000000001 -6.74 -2.18 9.48317
9.760704 -6.56 -2.2 9.26784
9.760704 -6.58 -2.2 9.26784
9.760704 -6.6 -2.2 9.26784
9.637241999999999 -6.62 -2.2 9.06207
9.637241999999999 -6.64 -2.2 9.06207
9.51915 -6.66 -2.2 8.86525
9.889902000000001 3.12 -2.24 9.48317
9.889902000000001 3.1 -2.24 9.48317
9.889902000000001 3.08 -2.24 9.48317
9.889902000000001 -5.12 -2.26 9.48317
9.889902000000001 -5.14 -2.26 9.48317
9.889902000000001 -5.14 -2.28 9.48317
9.889902000000001 -5.16 -2.28 9.48317
9.51915 3.14 -2.32 8.86525
9.51915 3.96 -2.4 8.86525
9.51915 3.94 -2.4 8.86525
9.51915 3.92 -2.4 8.86525
9.637241999999999 3.86 -2.4 9.06207
9.637241999999999 3.84 -2.4 9.06207
9.637241999999999 3.82 -2.4 9.06207
9.637241999999999 3.8 -2.4 9.06207
9.637241999999999 3.78 -2.4 9.06207
9.637241999999999 3.76 -2.4 9.06207
9.637241999999999 3.74 -2.4 9.06207
9.637241999999999 3.68 -2.4 9.06207
9.297708 3.56 -2.42 8.49618
9.297708 3.54 -2.42 8.49618
9.297708 3.52 -2.42 8.49618
9.297708 3.5 -2.42 8.49618
9.297708 3.48 -2.42 8.49618
9.406074 3.44 -2.42 8.67679
9.406074 3.42 -2.42 8.67679
9.406074 3.4 -2.42 8.67679
9.406074 3.38 -2.42 8.67679
9.406074 3.36 -2.42 8.67679
9.406074 3.34 -2.42 8.67679
9.406074 3.32 -2.42 8.67679
9.406074 3.3 -2.42 8.67679
9.406074 3.28 -2.42 8.67679
9.406074 3.26 -2.42 8.67679
9.406074 3.28 -2.44 8.67679
9.093966 3.36 -2.52 8.15661
9.093966 3.34 -2.52 8.15661
9.193757999999999 5.52 -2.56 8.32293
9.193757999999999 5.5 -2.56 8.32293
8.99808 4.22 -2.62 7.9968
9.093966 4.16 -2.62 8.15661
9.093966 4.1 -2.62 8.15661
9.093966 4.08 -2.62 8.15661
9.093966 4.06 -2.62 8.15661
8.731722000000001 4.02 -2.64 7.55287
8.817162000000001 3.98 -2.64 7.69527
8.817162000000001 3.96 -2.64 7.69527
8.817162000000001 3.94 -2.64 7.69527
8.817162000000001 3.92 -2.64 7.69527
8.817162000000001 3.88 -2.64 7.69527
8.905884 3.86 -2.64 7.84314
8.905884 3.84 -2.64 7.84314
8.905884 3.82 -2.64 7.84314
8.905884 3.8 -2.64 7.84314
8.905884 3.78 -2.64 7.84314
8.905884 3.76 -2.64 7.84314
8.905884 3.74 -2.64 7.84314
8.99808 3.72 -2.64 7.9968
8.99808 3.7 -2.64 7.9968
8.99808 3.68 -2.64 7.9968
8.99808 3.66 -2.64 7.9968
8.99808 3.64 -2.64 7.9968
8.99808 3.6 -2.64 7.9968
9.093966 3.58 -2.64 8.15661
8.817162000000001 3.54 -2.64 7.69527
8.99808 3.64 -2.66 7.9968
9.093966 3.62 -2.66 8.15661
9.093966 3.56 -2.66 8.15661
8.817162000000001 3.54 -2.66 7.69527
8.817162000000001 3.52 -2.66 7.69527
8.817162000000001 3.5 -2.66 7.69527
8.817162000000001 3.48 -2.66 7.69527
8.731722000000001 4.6 -2.7 7.55287
8.731722000000001 4.58 -2.72 7.55287
8.731722000000001 4.56 -2.72 7.55287
8.731722000000001 4.54 -2.72 7.55287
8.731722000000001 4.52 -2.72 7.55287
8.731722000000001 4.5 -2.72 7.55287
8.731722000000001 4.46 -2.74 7.55287
8.731722000000001 4.44 -2.74 7.55287
8.731722000000001 4.42 -2.74 7.55287
8.731722000000001 4.4 -2.74 7.55287
8.64939 4.34 -2.76 7.41565
8.64939 4.32 -2.76 7.41565
8.64939 4.3 -2.76 7.41565
8.64939 4.28 -2.76 7.41565
8.64939 4.26 -2.76 7.41565
8.569992 4.24 -2.78 7.28332
8.569992 4.22 -2.78 7.28332
8.569992 4.2 -2.78 7.28332
8.569992 4.18 -2.78 7.28332
8.64939 3.62 -2.78 7.41565
8.64939 3.6 -2.78 7.41565
8.569992 4.1 -2.8 7.28332
8.569992 4.08 -2.8 7.28332
8.569992 4.06 -2.8 7.28332
8.64939 4.04 -2.8 7.41565
8.64939 4.02 -2.8 7.41565
8.64939 4.0 -2.8 7.41565
8.493384 3.98 -2.82 7.15564
8.493384 3.96 -2.82 7.15564
8.493384 3.94 -2.82 7.15564
8.569992 3.92 -2.82 7.28332
8.569992 3.9 -2.82 7.28332
8.569992 3.88 -2.82 7.28332
8.419410000000001 3.82 -2.84 7.03235
8.27886 4.16 -2.96 6.7981
8.347944 3.92 -2.96 6.91324
8.347944 3.9 -2.96 6.91324
8.347944 3.84 -2.96 6.91324
8.347944 3.82 -2.96 6.91324
7.965294 4.44 -3.14 6.27549
8.024094 4.4 -3.14 6.37349
8.024094 4.38 -3.14 6.37349
8.024094 4.36 -3.14 6.37349
8.024094 4.32 -3.14 6.37349
8.024094 4.28 -3.14 6.37349
8.084754 4.24 -3.14 6.47459
8.084754 4.22 -3.14 6.47459
8.084754 4.2 -3.14 6.47459
8.084754 4.18 -3.14 6.47459
8.084754 4.16 -3.14 6.47459
7.965294 4.08 -3.16 6.27549
7.965294 4.06 -3.16 6.27549
7.965294 4.04 -3.16 6.27549
7.965294 4.02 -3.16 6.27549
7.965294 4.0 -3.16 6.27549
7.8529680000000015 5.3 -3.3 6.08828
7.8529680000000015 5.2 -3.32 6.08828
7.8529680000000015 5.18 -3.32 6.08828
7.965294 5.66 -3.34 6.27549
7.7992799999999995 5.12 -3.34 5.9988
7.7992799999999995 5.1 -3.34 5.9988
7.7992799999999995 5.06 -3.34 5.9988
7.7992799999999995 5.04 -3.34 5.9988
7.747145999999999 5.02 -3.36 5.91191
7.747145999999999 5.0 -3.36 5.91191
7.747145999999999 4.98 -3.36 5.91191
7.7992799999999995 4.62 -3.36 5.9988
7.7992799999999995 4.6 -3.36 5.9988
7.7992799999999995 4.58 -3.36 5.9988
7.8529680000000015 5.46 -3.38 6.08828
7.8529680000000015 5.44 -3.38 6.08828
7.7992799999999995 5.38 -3.38 5.9988
7.696506 4.94 -3.38 5.82751
7.696506 4.92 -3.38 5.82751
7.696506 4.9 -3.38 5.82751
7.696506 4.88 -3.38 5.82751
7.696506 4.48 -3.38 5.82751
7.696506 4.46 -3.38 5.82751
7.747145999999999 4.42 -3.38 5.91191
7.747145999999999 4.4 -3.38 5.91191
7.747145999999999 4.38 -3.38 5.91191
7.747145999999999 4.36 -3.38 5.91191
7.747145999999999 4.34 -3.38 5.91191
7.747145999999999 4.32 -3.38 5.91191
7.7992799999999995 5.38 -3.4 5.9988
7.7992799999999995 5.36 -3.4 5.9988
7.696506 4.82 -3.4 5.82751
7.696506 4.8 -3.4 5.82751
7.696506 4.78 -3.4 5.82751
7.747145999999999 4.32 -3.4 5.91191
7.696506 4.3 -3.4 5.82751
7.6472880000000005 4.28 -3.4 5.74548
7.6472880000000005 4.26 -3.4 5.74548
7.6472880000000005 4.24 -3.4 5.74548
7.7992799999999995 5.34 -3.42 5.9988
7.747145999999999 5.32 -3.42 5.91191
7.747145999999999 5.3 -3.42 5.91191
7.747145999999999 5.28 -3.42 5.91191
7.696506 4.74 -3.42 5.82751
7.696506 4.72 -3.42 5.82751
7.696506 4.7 -3.42 5.82751
7.696506 4.68 -3.42 5.82751
7.747145999999999 5.28 -3.44 5.91191
7.747145999999999 5.26 -3.44 5.91191
7.696506 5.24 -3.44 5.82751
7.696506 5.22 -3.44 5.82751
7.696506 5.2 -3.44 5.82751
7.6472880000000005 4.62 -3.44 5.74548
7.6472880000000005 4.6 -3.44 5.74548
7.6472880000000005 4.58 -3.44 5.74548
7.696506 5.2 -3.46 5.82751
7.696506 5.18 -3.46 5.82751
7.696506 5.16 -3.46 5.82751
7.696506 5.14 -3.46 5.82751
7.696506 5.12 -3.46 5.82751
7.696506 5.1 -3.46 5.82751
7.6472880000000005 4.5 -3.46 5.74548
7.6472880000000005 4.48 -3.46 5.74548
7.6472880000000005 4.46 -3.46 5.74548
7.6472880000000005 4.44 -3.46 5.74548
7.696506 5.1 -3.48 5.82751
7.6472880000000005 5.08 -3.48 5.74548
7.6472880000000005 5.06 -3.48 5.74548
7.6472880000000005 5.04 -3.48 5.74548
7.6472880000000005 5.02 -3.48 5.74548
7.6472880000000005 5.0 -3.48 5.74548
7.599432 4.36 -3.48 5.66572
7.599432 4.34 -3.48 5.66572
7.599432 4.32 -3.48 5.66572
7.552889999999999 4.3 -3.48 5.58815
7.6472880000000005 5.0 -3.5 5.74548
7.552889999999999 4.98 -3.5 5.58815
7.552889999999999 4.96 -3.5 5.58815
7.552889999999999 4.94 -3.5 5.58815
7.552889999999999 4.46 -3.54 5.58815
7.507607999999999 4.4 -3.54 5.51268
7.420614 -5.8 -3.54 5.36769
7.420614 -5.82 -3.54 5.36769
7.552889999999999 4.64 -3.56 5.58815
7.552889999999999 4.62 -3.56 5.58815
7.552889999999999 4.54 -3.56 5.58815
7.6472880000000005 4.5 -3.56 5.74548
7.552889999999999 4.48 -3.56 5.58815
7.420614 -5.82 -3.56 5.36769
7.378806 -5.84 -3.56 5.29801
7.378806 -5.86 -3.56 5.29801
7.378806 -5.88 -3.56 5.29801
7.338077999999999 -5.9 -3.56 5.23013
7.6472880000000005 4.84 -3.58 5.74548
7.599432 4.82 -3.58 5.66572
7.6472880000000005 4.8 -3.58 5.74548
7.599432 4.78 -3.58 5.66572
7.599432 4.76 -3.58 5.66572
7.599432 4.74 -3.58 5.66572
7.599432 4.72 -3.58 5.66572
7.552889999999999 4.7 -3.58 5.58815
7.552889999999999 4.68 -3.58 5.58815
7.552889999999999 4.66 -3.58 5.58815
7.552889999999999 4.64 -3.58 5.58815
7.552889999999999 4.62 -3.58 5.58815
7.552889999999999 4.6 -3.58 5.58815
7.507607999999999 4.58 -3.58 5.51268
7.378806 -5.86 -3.58 5.29801
7.378806 -5.88 -3.58 5.29801
7.338077999999999 -5.9 -3.58 5.23013
7.338077999999999 -5.92 -3.58 5.23013
7.747145999999999 5.06 -3.6 5.91191
7.599432 4.96 -3.6 5.66572
7.599432 4.94 -3.6 5.66572
7.599432 4.92 -3.6 5.66572
7.552889999999999 4.9 -3.6 5.58815
7.552889999999999 4.88 -3.6 5.58815
7.552889999999999 4.86 -3.6 5.58815
7.6472880000000005 4.8 -3.6 5.74548
7.599432 4.78 -3.6 5.66572
7.599432 5.18 -3.62 5.66572
7.599432 5.16 -3.62 5.66572
7.599432 5.12 -3.62 5.66572
7.507607999999999 5.02 -3.62 5.51268
7.463532 5.0 -3.62 5.43922
7.507607999999999 4.98 -3.62 5.51268
7.599432 4.96 -3.62 5.66572
7.552889999999999 5.28 -3.64 5.58815
7.552889999999999 5.26 -3.64 5.58815
7.552889999999999 5.24 -3.64 5.58815
7.599432 5.14 -3.64 5.66572
7.599432 5.12 -3.64 5.66572
7.6472880000000005 5.6 -3.66 5.74548
7.507607999999999 5.42 -3.66 5.51268
7.507607999999999 5.4 -3.66 5.51268
7.463532 5.54 -3.68 5.43922
7.298376 5.94 -3.74 5.16396
7.114037999999999 4.94 -4.1 4.85673
7.114037999999999 4.9 -4.1 4.85673
7.079772 4.88 -4.1 4.79962
7.079772 4.86 -4.1 4.79962
7.079772 4.84 -4.1 4.79962
7.079772 5.16 -4.12 4.79962
7.079772 5.1 -4.12 4.79962
7.079772 4.82 -4.12 4.79962
6.9504 5.4 -4.3 4.584
6.9504 5.4 -4.32 4.584
6.623754 -0.8 -4.7 4.03959
6.623754 -0.82 -4.7 4.03959
6.623754 -0.84 -4.7 4.03959
4
9.760704 -6.6 -2.2 5000009.26784
9.637241999999999 -6.62 -2.2 5000009.06207
9.637241999999999 -6.64 -2.2 5000009.06207
9.51915 -6.66 -2.2 5000008.86525
9.889902000000001 3.12 -2.24 5000009.48317
9.889902000000001 3.1 -2.24 5000009.48317
9.889902000000001 3.08 -2.24 5000009.48317
9.889902000000001 -5.12 -2.26 5000009.48317
9.889902000000001 -5.14 -2.26 5000009.48317
9.889902000000001 -5.14 -2.28 5000009.48317
9.889902000000001 -5.16 -2.28 5000009.48317
9.51915 3.14 -2.32 5000008.86525
9.51915 3.96 -2.4 5000008.86525
9.51915 3.94 -2.4 5000008.86525
9.51915 3.92 -2.4 5000008.86525
9.637241999999999 3.86 -2.4 5000009.06207
9.637241999999999 3.84 -2.4 5000009.06207
9.637241999999999 3.82 -2.4 5000009.06207
9.637241999999999 3.8 -2.4 5000009.06207
9.637241999999999 3.78 -2.4 5000009.06207
9.637241999999999 3.76 -2.4 5000009.06207
9.637241999999999 3.74 -2.4 5000009.06207
9.637241999999999 3.68 -2.4 5000009.06207
9.297708 3.56 -2.42 5000008.49618
9.297708 3.54 -2.42 5000008.49618
9.297708 3.52 -2.42 5000008.49618
9.297708 3.5 -2.42 5000008.49618
9.297708 3.48 -2.42 5000008.49618
9.406074 3.44 -2.42 5000008.67679
9.406074 3.42 -2.42 5000008.67679
9.406074 3.4 -2.42 5000008.67679
9.406074 3.38 -2.42 5000008.67679
9.406074 3.36 -2.42 5000008.67679
9.406074 3.34 -2.42 5000008.67679
9.406074 3.32 -2.42 5000008.67679
9.406074 3.3 -2.42 5000008.67679
9.406074 3.28 -2.42 5000008.67679
9.406074 3.26 -2.42 5000008.67679
9.406074 3.28 -2.44 5000008.67679
9.093966 3.36 -2.52 5000008.15661
9.093966 3.34 -2.52 5000008.15661
9.193757999999999 5.52 -2.56 5000008.32293
9.193757999999999 5.5 -2.56 5000008.32293
8.99808 4.22 -2.62 5000007.9968
9.093966 4.16 -2.62 5000008.15661
9.093966 4.1 -2.62 5000008.15661
9.093966 4.08 -2.62 5000008.15661
9.093966 4.06 -2.62 5000008.15661
8.731722000000001 4.02 -2.64 5000007.55287
8.817162000000001 3.98 -2.64 5000007.69527
8.817162000000001 3.96 -2.64 5000007.69527
8.817162000000001 3.94 -2.64 5000007.69527
8.817162000000001 3.92 -2.64 5000007.69527
8.817162000000001 3.88 -2.64 5000007.69527
8.905884 3.86 -2.64 5000007.84314
8.905884 3.84 -2.64 5000007.84314
8.905884 3.82 -2.64 5000007.84314
8.905884 3.8 -2.64 5000007.84314
8.905884 3.78 -2.64 5000007.84314
8.905884 3.76 -2.64 5000007.84314
8.905884 3.74 -2.64 5000007.84314
8.99808 3.72 -2.64 5000007.9968
8.99808 3.7 -2.64 5000007.9968
8.99808 3.68 -2.64 5000007.9968
8.99808 3.66 -2.64 5000007.9968
8.99808 3.64 -2.64 5000007.9968
8.99808 3.6 -2.64 5000007.9968
9.093966 3.58 -2.64 5000008.15661
8.817162000000001 3.54 -2.64 5000007.69527
8.99808 3.64 -2.66 5000007.9968
9.093966 3.62 -2.66 5000008.15661
9.093966 3.56 -2.66 5000008.15661
8.817162000000001 3.54 -2.66 5000007.69527
8.817162000000001 3.52 -2.66 5000007.69527
8.817162000000001 3.5 -2.66 5000007.69527
8.817162000000001 3.48 -2.66 5000007.69527
8.731722000000001 4.6 -2.7 5000007.55287
8.731722000000001 4.58 -2.72 5000007.55287
8.731722000000001 4.56 -2.72 5000007.55287
8.731722000000001 4.54 -2.72 5000007.55287
8.731722000000001 4.52 -2.72 5000007.55287
8.731722000000001 4.5 -2.72 5000007.55287
8.731722000000001 4.46 -2.74 5000007.55287
8.731722000000001 4.44 -2.74 5000007.55287
8.731722000000001 4.42 -2.74 5000007.55287
8.731722000000001 4.4 -2.74 5000007.55287
8.64939 4.34 -2.76 5000007.41565
8.64939 4.32 -2.76 5000007.41565
8.64939 4.3 -2.76 5000007.41565
8.64939 4.28 -2.76 5000007.41565
8.64939 4.26 -2.76 5000007.41565
8.569992 4.24 -2.78 5000007.28332
8.569992 4.22 -2.78 5000007.28332
8.569992 4.2 -2.78 5000007.28332
8.569992 4.18 -2.78 5000007.28332
8.64939 3.62 -2.78 5000007.41565
8.64939 3.6 -2.78 5000007.41565
8.569992 4.1 -2.8 5000007.28332
8.569992 4.08 -2.8 5000007.28332
8.569992 4.06 -2.8 5000007.28332
8.64939 4.04 -2.8 5000007.41565
8.64939 4.02 -2.8 5000007.41565
8.64939 4.0 -2.8 5000007.41565
8.493384 3.98 -2.82 5000007.15564
8.493384 3.96 -2.82 5000007.15564
8.493384 3.94 -2.82 5000007.15564
8.569992 3.92 -2.82 5000007.28332
8.569992 3.9 -2.82 5000007.28332
8.569992 3.88 -2.82 5000007.28332
8.419410000000001 3.82 -2.84 5000007.03235
8.27886 4.16 -2.96 5000006.7981
8.347944 3.92 -2.96 5000006.91324
8.347944 3.9 -2.96 5000006.91324
8.347944 3.84 -2.96 5000006.91324
8.347944 3.82 -2.96 5000006.91324
7.965294 4.44 -3.14 5000006.27549
8.024094 4.4 -3.14 5000006.37349
8.024094 4.38 -3.14 5000006.37349
8.024094 4.36 -3.14 5000006.37349
8.024094 4.32 -3.14 5000006.37349
8.024094 4.28 -3.14 5000006.37349
8.084754 4.24 -3.14 5000006.47459
8.084754 4.22 -3.14 5000006.47459
8.084754 4.2 -3.14 5000006.47459
8.084754 4.18 -3.14 5000006.47459
8.084754 4.16 -3.14 5000006.47459
7.965294 4.08 -3.16 5000006.27549
7.965294 4.06 -3.16 5000006.27549
7.965294 4.04 -3.16 5000006.27549
7.965294 4.02 -3.16 5000006.27549
7.965294 4.0 -3.16 5000006.27549
7.8529680000000015 5.3 -3.3 5000006.08828
7.8529680000000015 5.2 -3.32 5000006.08828
7.8529680000000015 5.18 -3.32 5000006.08828
7.965294 5.66 -3.34 5000006.27549
7.7992799999999995 5.12 -3.34 5000005.9988
7.7992799999999995 5.1 -3.34 5000005.9988
7.7992799999999995 5.06 -3.34 5000005.9988
7.7992799999999995 5.04 -3.34 5000005.9988
7.747145999999999 5.02 -3.36 5000005.91191
7.747145999999999 5.0 -3.36 5000005.91191
7.747145999999999 4.98 -3.36 5000005.91191
7.7992799999999995 4.62 -3.36 5000005.9988
7.7992799999999995 4.6 -3.36 5000005.9988
7.7992799999999995 4.58 -3.36 5000005.9988
7.8529680000000015 5.46 -3.38 5000006.08828
7.8529680000000015 5.44 -3.38 5000006.08828
7.7992799999999995 5.38 -3.38 5000005.9988
7.696506 4.94 -3.38 5000005.82751
7.696506 4.92 -3.38 5000005.82751
7.696506 4.9 -3.38 5000005.82751
7.696506 4.88 -3.38 5000005.82751
7.696506 4.48 -3.38 5000005.82751
7.696506 4.46 -3.38 5000005.82751
7.747145999999999 4.42 -3.38 5000005.91191
7.747145999999999 4.4 -3.38 5000005.91191
7.747145999999999 4.38 -3.38 5000005.91191
7.747145999999999 4.36 -3.38 5000005.91191
7.747145999999999 4.34 -3.38 5000005.91191
7.747145999999999 4.32 -3.38 5000005.91191
7.7992799999999995 5.38 -3.4 5000005.9988
7.7992799999999995 5.36 -3.4 5000005.9988
7.696506 4.82 -3.4 5000005.82751
7.696506 4.8 -3.4 5000005.82751
7.696506 4.78 -3.4 5000005.82751
7.747145999999999 4.32 -3.4 5000005.91191
7.696506 4.3 -3.4 5000005.82751
7.6472880000000005 4.28 -3.4 5000005.74548
7.6472880000000005 4.26 -3.4 5000005.74548
7.6472880000000005 4.24 -3.4 5000005.74548
7.7992799999999995 5.34 -3.42 5000005.9988
7.747145999999999 5.32 -3.42 5000005.91191
7.747145999999999 5.3 -3.42 5000005.91191
7.747145999999999 5.28 -3.42 5000005.91191
7.696506 4.74 -3.42 5000005.82751
7.696506 4.72 -3.42 5000005.82751
7.696506 4.7 -3.42 5000005.82751
7.696506 4.68 -3.42 5000005.82751
7.747145999999999 5.28 -3.44 5000005.91191
7.747145999999999 5.26 -3.44 5000005.91191
7.696506 5.24 -3.44 5000005.82751
7.696506 5.22 -3.44 5000005.82751
7.696506 5.2 -3.44 5000005.82751
7.6472880000000005 4.62 -3.44 5000005.74548
7.6472880000000005 4.6 -3.44 5000005.74548
7.6472880000000005 4.58 -3.44 5000005.74548
7.696506 5.2 -3.46 5000005.82751
7.696506 5.18 -3.46 5000005.82751
7.696506 5.16 -3.46 5000005.82751
7.696506 5.14 -3.46 5000005.82751
7.696506 5.12 -3.46 5000005.82751
7.696506 5.1 -3.46 5000005.82751
7.6472880000000005 4.5 -3.46 5000005.74548
7.6472880000000005 4.48 -3.46 5000005.74548
7.6472880000000005 4.46 -3.46 5000005.74548
7.6472880000000005 4.44 -3.46 5000005.74548
7.696506 5.1 -3.48 5000005.82751
7.6472880000000005 5.08 -3.48 5000005.74548
7.6472880000000005 5.06 -3.48 5000005.74548
7.6472880000000005 5.04 -3.48 5000005.74548
7.6472880000000005 5.02 -3.48 5000005.74548
7.6472880000000005 5.0 -3.48 5000005.74548
7.599432 4.36 -3.48 5000005.66572
7.599432 4.34 -3.48 5000005.66572
7.599432 4.32 -3.48 5000005.66572
7.552889999999999 4.3 -3.48 5000005.58815
7.6472880000000005 5.0 -3.5 5000005.74548
7.552889999999999 4.98 -3.5 5000005.58815
7.552889999999999 4.96 -3.5 5000005.58815
7.552889999999999 4.94 -3.5 5000005.58815
7.552889999999999 4.46 -3.54 5000005.58815
7.507607999999999 4.4 -3.54 5000005.51268
7.420614 -5.8 -3.54 5000005.36769
7.420614 -5.82 -3.54 5000005.36769
7.552889999999999 4.64 -3.56 5000005.58815
7.552889999999999 4.62 -3.56 5000005.58815
7.552889999999999 4.54 -3.56 5000005.58815
7.6472880000000005 4.5 -3.56 5000005.74548
7.552889999999999 4.48 -3.56 5000005.58815
7.420614 -5.82 -3.56 5000005.36769
7.378806 -5.84 -3.56 5000005.29801
7.378806 -5.86 -3.56 5000005.29801
7.378806 -5.88 -3.56 5000005.29801
7.338077999999999 -5.9 -3.56 5000005.23013
7.6472880000000005 4.84 -3.58 5000005.74548
7.599432 4.82 -3.58 5000005.66572
7.6472880000000005 4.8 -3.58 5000005.74548
7.599432 4.78 -3.58 5000005.66572
7.599432 4.76 -3.58 5000005.66572
7.599432 4.74 -3.58 5000005.66572
7.599432 4.72 -3.58 5000005.66572
7.552889999999999 4.7 -3.58 5000005.58815
7.552889999999999 4.68 -3.58 5000005.58815
7.552889999999999 4.66 -3.58 5000005.58815
7.552889999999999 4.64 -3.58 5000005.58815
7.552889999999999 4.62 -3.58 5000005.58815
7.552889999999999 4.6 -3.58 5000005.58815
7.507607999999999 4.58 -3.58 5000005.51268
7.378806 -5.86 -3.58 5000005.29801
7.378806 -5.88 -3.58 5000005.29801
7.338077999999999 -5.9 -3.58 5000005.23013
7.338077999999999 -5.92 -3.58 5000005.23013
7.747145999999999 5.06 -3.6 5000005.91191
7.599432 4.96 -3.6 5000005.66572
7.599432 4.94 -3.6 5000005.66572
7.599432 4.92 -3.6 5000005.66572
7.552889999999999 4.9 -3.6 5000005.58815
7.552889999999999 4.88 -3.6 5000005.58815
7.552889999999999 4.86 -3.6 5000005.58815
7.6472880000000005 4.8 -3.6 5000005.74548
7.599432 4.78 -3.6 5000005.66572
7.599432 5.18 -3.62 5000005.66572
7.599432 5.16 -3.62 5000005.66572
7.599432 5.12 -3.62 5000005.66572
7.507607999999999 5.02 -3.62 5000005.51268
7.463532 5.0 -3.62 5000005.43922
7.507607999999999 4.98 -3.62 5000005.51268
7.599432 4.96 -3.62 5000005.66572
7.552889999999999 5.28 -3.64 5000005.58815
7.552889999999999 5.26 -3.64 5000005.58815
7.552889999999999 5.24 -3.64 5000005.58815
7.599432 5.14 -3.64 5000005.66572
7.599432 5.12 -3.64 5000005.66572
7.6472880000000005 5.6 -3.66 5000005.74548
7.507607999999999 5.42 -3.66 5000005.51268
7.507607999999999 5.4 -3.66 5000005.51268
7.463532 5.54 -3.68 5000005.43922
7.298376 5.94 -3.74 5000005.16396
7.114037999999999 4.94 -4.1 5000004.85673
7.114037999999999 4.9 -4.1 5000004.85673
7.079772 4.88 -4.1 5000004.79962
7.079772 4.86 -4.1 5000004.79962
7.079772 4.84 -4.1 5000004.79962
7.079772 5.16 -4.12 5000004.79962
7.079772 5.1 -4.12 5000004.79962
7.079772 4.82 -4.12 5000004.79962
6.9504 5.4 -4.3 5000004.584
6.9504 5.4 -4.32 5000004.584
6.623754 -0.8 -4.7 5000004.03959
6.623754 -0.82 -4.7 5000004.03959
6.623754 -0.84 -4.7 5000004.03959
4 5000005.74548
8.298192 4.6 -3.44 5000005.74548
8.298192 4.58 -3.44 5000005.74548
8.331004 5.2 -3.46 5000005.82751
8.331004 5.18 -3.46 5000005.82751
8.331004 5.16 -3.46 5000005.82751
8.331004 5.14 -3.46 5000005.82751
8.331004 5.12 -3.46 5000005.82751
8.331004 5.1 -3.46 5000005.82751
8.298192 4.5 -3.46 5000005.74548
8.298192 4.48 -3.46 5000005.74548
8.298192 4.46 -3.46 5000005.74548
8.298192 4.44 -3.46 5000005.74548
8.331004 5.1 -3.48 5000005.82751
8.298192 5.08 -3.48 5000005.74548
8.298192 5.06 -3.48 5000005.74548
8.298192 5.04 -3.48 5000005.74548
8.298192 5.02 -3.48 5000005.74548
8.298192 5.0 -3.48 5000005.74548
8.266288000000001 4.36 -3.48 5000005.66572
8.266288000000001 4.34 -3.48 5000005.66572
8.266288000000001 4.32 -3.48 5000005.66572
8.23526 4.3 -3.48 5000005.58815
8.298192 5.0 -3.5 5000005.74548
8.23526 4.98 -3.5 5000005.58815
8.23526 4.96 -3.5 5000005.58815
8.23526 4.94 -3.5 5000005.58815
8.23526 4.46 -3.54 5000005.58815
8.205072 4.4 -3.54 5000005.51268
8.147076 -5.8 -3.54 5000005.36769
8.147076 -5.82 -3.54 5000005.36769
8.23526 4.64 -3.56 5000005.58815
8.23526 4.62 -3.56 5000005.58815
8.23526 4.54 -3.56 5000005.58815
8.298192 4.5 -3.56 5000005.74548
8.23526 4.48 -3.56 5000005.58815
8.147076 -5.82 -3.56 5000005.36769
8.119203999999998 -5.84 -3.56 5000005.29801
8.119203999999998 -5.86 -3.56 5000005.29801
8.119203999999998 -5.88 -3.56 5000005.29801
8.092051999999999 -5.9 -3.56 5000005.23013
8.298192 4.84 -3.58 5000005.74548
8.266288000000001 4.82 -3.58 5000005.66572
8.298192 4.8 -3.58 5000005.74548
8.266288000000001 4.78 -3.58 5000005.66572
8.266288000000001 4.76 -3.58 5000005.66572
8.266288000000001 4.74 -3.58 5000005.66572
8.266288000000001 4.72 -3.58 5000005.66572
8.23526 4.7 -3.58 5000005.58815
8.23526 4.68 -3.58 5000005.58815
8.23526 4.66 -3.58 5000005.58815
8.23526 4.64 -3.58 5000005.58815
8.23526 4.62 -3.58 5000005.58815
8.23526 4.6 -3.58 5000005.58815
8.205072 4.58 -3.58 5000005.51268
8.119203999999998 -5.86 -3.58 5000005.29801
8.119203999999998 -5.88 -3.58 5000005.29801
8.092051999999999 -5.9 -3.58 5000005.23013
8.092051999999999 -5.92 -3.58 5000005.23013
8.364764000000001 5.06 -3.6 5000005.91191
8.266288000000001 4.96 -3.6 5000005.66572
8.266288000000001 4.94 -3.6 5000005.66572
8.266288000000001 4.92 -3.6 5000005.66572
8.23526 4.9 -3.6 5000005.58815
8.23526 4.88 -3.6 5000005.58815
8.23526 4.86 -3.6 5000005.58815
8.298192 4.8 -3.6 5000005.74548
8.266288000000001 4.78 -3.6 5000005.66572
8.266288000000001 5.18 -3.62 5000005.66572
8.266288000000001 5.16 -3.62 5000005.66572
8.266288000000001 5.12 -3.62 5000005.66572
8.205072 5.02 -3.62 5000005.51268
8.175688 5.0 -3.62 5000005.43922
8.205072 4.98 -3.62 5000005.51268
8.266288000000001 4.96 -3.62 5000005.66572
8.23526 5.28 -3.64 5000005.58815
8.23526 5.26 -3.64 5000005.58815
8.23526 5.24 -3.64 5000005.58815
8.266288000000001 5.14 -3.64 5000005.66572
8.266288000000001 5.12 -3.64 5000005.66572
8.298192 5.6 -3.66 5000005.74548
8.205072 5.42 -3.66 5000005.51268
8.205072 5.4 -3.66 5000005.51268
8.175688 5.54 -3.68 5000005.43922
8.065584 5.94 -3.74 5000005.16396
7.942692 4.94 -4.1 5000004.85673
7.942692 4.9 -4.1 5000004.85673
7.919848 4.88 -4.1 5000004.79962
7.919848 4.86 -4.1 5000004.79962
7.919848 4.84 -4.1 5000004.79962
7.919848 5.16 -4.12 5000004.79962
7.919848 5.1 -4.12 5000004.79962
7.919848 4.82 -4.12 5000004.79962
7.8336 5.4 -4.3 5000004.584
7.8336 5.4 -4.32 5000004.584
7.615836 -0.8 -4.7 5000004.03959
7.615836 -0.82 -4.7 5000004.03959
7.615836 -0.84 -4.7 5000004.03959
6666666666666 2.566666666666667 5000027.137
10.904566666666666 -16.3 2.566666666666667 5000027.137
10.904566666666666 -16.5 2.566666666666667 5000027.137
10.848176666666667 -16.566666666666666 2.566666666666667 5000025.4453
10.848176666666667 -16.6 2.566666666666667 5000025.4453
10.848176666666667 -16.633333333333333 2.566666666666667 5000025.4453
10.968993333333334 -17.566666666666666 2.566666666666667 5000029.0698
10.968993333333334 -17.6 2.566666666666667 5000029.0698
10.678886666666667 -12.833333333333334 2.533333333333333 5000020.3666
10.678886666666667 -12.866666666666667 2.533333333333333 5000020.3666
10.678886666666667 -12.9 2.533333333333333 5000020.3666
10.71454 -13.233333333333333 2.533333333333333 5000021.4362
10.71454 -13.266666666666667 2.533333333333333 5000021.4362
10.848176666666667 -15.8 2.533333333333333 5000025.4453
10.848176666666667 -15.833333333333334 2.533333333333333 5000025.4453
10.848176666666667 -15.866666666666667 2.533333333333333 5000025.4453
10.904566666666666 -16.3 2.533333333333333 5000027.137
10.848176666666667 -16.566666666666666 2.533333333333333 5000025.4453
10.848176666666667 -16.6 2.533333333333333 5000025.4453
10.678886666666667 -17.266666666666666 2.533333333333333 5000020.3666
10.678886666666667 -17.3 2.533333333333333 5000020.3666
10.798403333333333 -8.566666666666666 2.5 5000023.9521
10.798403333333333 -8.6 2.5 5000023.9521
10.678886666666667 -12.2 2.5 5000020.3666
10.678886666666667 -12.866666666666667 2.5 5000020.3666
10.678886666666667 -12.9 2.5 5000020.3666
10.678886666666667 -17.266666666666666 2.5 5000020.3666
10.678886666666667 -17.3 2.5 5000020.3666
10.798403333333333 -8.633333333333333 2.466666666666667 5000023.9521
10.678886666666667 -12.9 2.466666666666667 5000020.3666
10.904566666666666 -14.9 2.466666666666667 5000027.137
11.232286666666667 -9.2 2.433333333333333 5000036.9686
10.64662 -12.766666666666667 2.433333333333333 5000019.3986
10.678886666666667 -12.933333333333334 2.433333333333333 5000020.3666
11.232286666666667 -9.2 2.4 5000036.9686
11.129943333333333 -10.0 2.4 5000033.8983
10.64662 -12.766666666666667 2.4 5000019.3986
10.678886666666667 -12.933333333333334 2.4 5000020.3666
10.678886666666667 -12.966666666666667 2.4 5000020.3666
10.56593 -17.8 2.4 5000016.9779
10.590493333333333 -17.9 2.4 5000017.7148
10.56593 -0.36666666666666664 2.3666666666666667 5000016.9779
10.590493333333333 -0.5666666666666667 2.3666666666666667 5000017.7148
11.129943333333333 -10.0 2.3666666666666667 5000033.8983
10.678886666666667 -12.966666666666667 2.3666666666666667 5000020.3666
10.64662 -13.0 2.3666666666666667 5000019.3986
10.56593 -17.8 2.3666666666666667 5000016.9779
10.56593 -17.9 2.3666666666666667 5000016.9779
10.56593 -0.36666666666666664 2.3333333333333335 5000016.9779
11.129943333333333 -10.0 2.3333333333333335 5000033.8983
10.71454 -10.866666666666667 2.3333333333333335 5000021.4362
10.71454 -10.9 2.3333333333333335 5000021.4362
10.71454 -11.4 2.3333333333333335 5000021.4362
10.678886666666667 -12.966666666666667 2.3333333333333335 5000020.3666
10.678886666666667 -13.0 2.3333333333333335 5000020.3666
10.64662 -13.033333333333333 2.3333333333333335 5000019.3986
10.56593 -17.766666666666666 2.3333333333333335 5000016.9779
10.56593 -17.9 2.3333333333333335 5000016.9779
10.56593 -0.36666666666666664 2.3 5000016.9779
10.590493333333333 -0.5666666666666667 2.3 5000017.7148
10.798403333333333 -8.633333333333333 2.3 5000023.9521
11.129943333333333 -10.0 2.3 5000033.8983
10.678886666666667 -13.0 2.3 5000020.3666
10.678886666666667 -13.033333333333333 2.3 5000020.3666
10.64662 -13.066666666666666 2.3 5000019.3986
10.968993333333334 -13.466666666666667 2.3 5000029.0698
10.848176666666667 -16.5 2.3 5000025.4453
10.56593 -17.766666666666666 2.3 5000016.9779
10.56593 -17.9 2.3 5000016.9779
10.56593 -0.36666666666666664 2.2666666666666666 5000016.9779
10.798403333333333 -8.633333333333333 2.2666666666666666 5000023.9521
10.754146666666667 -10.733333333333333 2.2666666666666666 5000022.6244
10.678886666666667 -10.766666666666667 2.2666666666666666 5000020.3666
10.64662 -13.033333333333333 2.2666666666666666 5000019.3986
10.64662 -13.066666666666666 2.2666666666666666 5000019.3986
10.904566666666666 -15.933333333333334 2.2666666666666666 5000027.137
10.904566666666666 -15.966666666666667 2.2666666666666666 5000027.137
10.56593 -17.733333333333334 2.2666666666666666 5000016.9779
10.56593 -17.866666666666667 2.2666666666666666 5000016.9779
10.56593 -17.9 2.2666666666666666 5000016.9779
10.798403333333333 -7.866666666666666 2.2333333333333334 5000023.9521
10.798403333333333 -8.633333333333333 2.2333333333333334 5000023.9521
10.503143333333334 -8.9 2.2333333333333334 5000015.0943
10.798403333333333 -9.133333333333333 2.2333333333333334 5000023.9521
10.798403333333333 -10.666666666666666 2.2333333333333334 5000023.9521
10.678886666666667 -10.766666666666667 2.2333333333333334 5000020.3666
10.56593 -17.7 2.2333333333333334 5000016.9779
10.56593 -17.733333333333334 2.2333333333333334 5000016.9779
10.56593 -17.866666666666667 2.2333333333333334 5000016.9779
10.56593 -17.9 2.2333333333333334 5000016.9779
10.56593 -0.36666666666666664 2.2 5000016.9779
10.848176666666667 -7.233333333333333 2.2 5000025.4453
10.968993333333334 -9.933333333333334 2.2 5000029.0698
10.64662 -13.1 2.2 5000019.3986
10.56593 -17.7 2.2 5000016.9779
10.56593 -17.866666666666667 2.2 5000016.9779
10.56593 -0.36666666666666664 2.1666666666666665 5000016.9779
10.848176666666667 -7.233333333333333 2.1666666666666665 5000025.4453
10.904566666666666 -12.9 2.1666666666666665 5000027.137
10.678886666666667 -13.066666666666666 2.1666666666666665 5000020.3666
10.678886666666667 -13.1 2.1666666666666665 5000020.3666
10.968993333333334 -13.566666666666666 2.1666666666666665 5000029.0698
10.968993333333334 -15.0 2.1666666666666665 5000029.0698
10.56593 -17.7 2.1666666666666665 5000016.9779
10.56593 -17.866666666666667 2.1666666666666665 5000016.9779
10.56593 -17.9 2.1666666666666665 5000016.9779
10.56593 -0.36666666666666664 2.1333333333333333 5000016.9779
10.678886666666667 -13.033333333333333 2.1333333333333333 5000020.3666
10.678886666666667 -13.066666666666666 2.1333333333333333 5000020.3666
10.678886666666667 -13.1 2.1333333333333333 5000020.3666
10.64662 -13.166666666666666 2.1333333333333333 5000019.3986
10.590493333333333 -13.2 2.1333333333333333 5000017.7148
10.968993333333334 -13.566666666666666 2.1333333333333333 5000029.0698
10.968993333333334 -14.8 2.1333333333333333 5000029.0698
10.56593 -17.666666666666668 2.1333333333333333 5000016.9779
10.56593 -17.833333333333332 2.1333333333333333 5000016.9779
10.56593 -17.866666666666667 2.1333333333333333 5000016.9779
10.56593 -17.9 2.1333333333333333 5000016.9779
10.678886666666667 -13.066666666666666 2.1 5000020.3666
10.968993333333334 -13.566666666666666 2.1 5000029.0698
10.968993333333334 -13.6 2.1 5000029.0698
10.968993333333334 -15.0 2.1 5000029.0698
10.56593 -16.8 2.1 5000016.9779
10.56593 -17.633333333333333 2.1 5000016.9779
10.56593 -17.666666666666668 2.1 5000016.9779
10.56593 -17.833333333333332 2.1 5000016.9779
10.56593 -17.866666666666667 2.1 5000016.9779
10.56593 -0.36666666666666664 2.066666666666667 5000016.9779
10.798403333333333 -8.8 2.066666666666667 5000023.9521
10.968993333333334 -13.566666666666666 2.066666666666667 5000029.0698
10.968993333333334 -15.0 2.066666666666667 5000029.0698
10.56593 -16.8 2.066666666666667 5000016.9779
10.56593 -16.833333333333332 2.066666666666667 5000016.9779
10.56593 -17.633333333333333 2.066666666666667 5000016.9779
10.56593 -17.833333333333332 2.066666666666667 5000016.9779
10.56593 -17.866666666666667 2.066666666666667 5000016.9779
10.56593 -0.36666666666666664 2.033333333333333 5000016.9779
10.754146666666667 -9.7 2.033333333333333 5000022.6244
10.71454 -13.233333333333333 2.033333333333333 5000021.4362
10.678886666666667 -13.466666666666667 2.033333333333333 5000020.3666
11.043296666666667 -14.6 2.033333333333333 5000031.2989
11.043296666666667 -14.633333333333333 2.033333333333333 5000031.2989
10.968993333333334 -15.0 2.033333333333333 5000029.0698
10.590493333333333 -16.633333333333333 2.033333333333333 5000017.7148
10.56593 -16.766666666666666 2.033333333333333 5000016.9779
10.56593 -16.8 2.033333333333333 5000016.9779
10.56593 -17.6 2.033333333333333 5000016.9779
10.56593 -17.633333333333333 2.033333333333333 5000016.9779
10.56593 -17.833333333333332 2.033333333333333 5000016.9779
10.56593 -17.866666666666667 2.033333333333333 5000016.9779
10.56593 -0.36666666666666664 2.0 5000016.9779
10.590493333333333 -16.6 2.0 5000017.7148
10.590493333333333 -16.633333333333333 2.0 5000017.7148
10.590493333333333 -16.666666666666668 2.0 5000017.7148
10.56593 -0.36666666666666664 1.9666666666666666 5000016.9779
10.968993333333334 -15.0 1.9666666666666666 5000029.0698
10.590493333333333 -16.6 1.9666666666666666 5000017.7148
10.590493333333333 -16.633333333333333 1.9666666666666666 5000017.7148
10.590493333333333 -16.666666666666668 1.9666666666666666 5000017.7148
10.590493333333333 -16.7 1.9666666666666666 5000017.7148
12.252253333333334 -9.466666666666667 1.9333333333333333 5000067.5676
10.754146666666667 -9.833333333333334 1.9333333333333333 5000022.6244
10.71454 -9.866666666666667 1.9333333333333333 5000021.4362
10.848176666666667 -13.466666666666667 1.9333333333333333 5000025.4453
10.968993333333334 -14.633333333333333 1.9333333333333333 5000029.0698
10.968993333333334 -14.666666666666666 1.9333333333333333 5000029.0698
10.968993333333334 -14.8 1.9333333333333333 5000029.0698
10.968993333333334 -15.033333333333333 1.9333333333333333 5000029.0698
10.590493333333333 -16.666666666666668 1.9333333333333333 5000017.7148
10.56593 -16.7 1.9333333333333333 5000016.9779
10.56593 -16.733333333333334 1.9333333333333333 5000016.9779
10.848176666666667 -6.833333333333333 1.9 5000025.4453
10.754146666666667 -9.8 1.9 5000022.6244
10.754146666666667 -9.833333333333334 1.9 5000022.6244
10.848176666666667 -13.466666666666667 1.9 5000025.4453
10.968993333333334 -14.6 1.9 5000029.0698
10.968993333333334 -14.633333333333333 1.9 5000029.0698
10.968993333333334 -14.8 1.9 5000029.0698
10.848176666666667 -6.8 1.8666666666666667 5000025.4453
10.798403333333333 -8.2 1.8666666666666667 5000023.9521
10.798403333333333 -8.233333333333333 1.8666666666666667 5000023.9521
10.754146666666667 -9.766666666666667 1.8666666666666667 5000022.6244
10.754146666666667 -9.8 1.8666666666666667 5000022.6244
10.64662 -12.1 1.8666666666666667 5000019.3986
10.904566666666666 -13.666666666666666 1.8666666666666667 5000027.137
10.968993333333334 -14.633333333333333 1.8666666666666667 5000029.0698
10.56593 -17.433333333333334 1.8666666666666667 5000016.9779
10.798403333333333 -8.166666666666666 1.8333333333333333 5000023.9521
10.754146666666667 -9.766666666666667 1.8333333333333333 5000022.6244
10.64662 -12.566666666666666 1.8333333333333333 5000019.3986
10.64662 -13.066666666666666 1.8333333333333333 5000019.3986
10.64662 -13.1 1.8333333333333333 5000019.3986
10.64662 -13.133333333333333 1.8333333333333333 5000019.3986
10.56593 -17.4 1.8333333333333333 5000016.9779
10.56593 -17.433333333333334 1.8333333333333333 5000016.9779
10.798403333333333 -8.166666666666666 1.8 5000023.9521
10.64662 -12.566666666666666 1.8 5000019.3986
10.64662 -12.6 1.8 5000019.3986
10.64662 -13.1 1.8 5000019.3986
10.64662 -13.133333333333333 1.8 5000019.3986
10.848176666666667 -13.766666666666667 1.8 5000025.4453
10.904566666666666 -14.3 1.8 5000027.137
10.904566666666666 -14.333333333333334 1.8 5000027.137
10.968993333333334 -14.7 1.8 5000029.0698
10.848176666666667 -14.9 1.8 5000025.4453
10.848176666666667 -14.933333333333334 1.8 5000025.4453
10.64662 -12.6 1.7666666666666666 5000019.3986
10.64662 -12.633333333333333 1.7666666666666666 5000019.3986
10.904566666666666 -14.3 1.7666666666666666 5000027.137
10.904566666666666 -14.333333333333334 1.7666666666666666 5000027.137
10.64662 -12.633333333333333 1.7333333333333334 5000019.3986
10.617283333333333 -15.333333333333334 1.7333333333333334 5000018.5185
10.754146666666667 -9.633333333333333 1.7 5000022.6244
10.754146666666667 -10.2 1.7 5000022.6244
10.754146666666667 -10.233333333333333 1.7 5000022.6244
10.617283333333333 -15.333333333333334 1.7 5000018.5185
10.56593 -15.866666666666667 1.7 5000016.9779
10.678886666666667 -11.866666666666667 1.6666666666666667 5000020.3666
10.678886666666667 -12.466666666666667 1.6666666666666667 5000020.3666
10.617283333333333 -15.733333333333333 1.6666666666666667 5000018.5185
10.590493333333333 -15.766666666666667 1.6666666666666667 5000017.7148
