VERSION .7
FIELDS x y z rgb
SIZE 4 4 4 4
TYPE F F F F
COUNT 1 1 1 1
WIDTH 915
HEIGHT 1
VIEWPOINT 0 0 0 1 0 0 0
POINTS 915
DATA ascii
7.8529680000000015 4.14 -3.1 5000006.08828
7.8529680000000015 4.12 -3.1 5000006.08828
7.8529680000000015 4.1 -3.1 5000006.08828
7.908282 4.08 -3.1 5000006.18047
7.908282 4.06 -3.1 5000006.18047
7.908282 4.04 -3.1 5000006.18047
7.8529680000000015 4.12 -3.12 5000006.08828
7.8529680000000015 4.1 -3.12 5000006.08828
7.747145999999999 4.28 -3.26 5000005.91191
7.747145999999999 4.26 -3.26 5000005.91191
7.747145999999999 4.28 -3.28 5000005.91191
7.747145999999999 4.26 -3.28 5000005.91191
7.507607999999999 5.54 -3.46 5000005.51268
7.552889999999999 5.46 -3.46 5000005.58815
7.463532 5.36 -3.48 5000005.43922
7.463532 5.34 -3.48 5000005.43922
7.463532 5.32 -3.48 5000005.43922
7.463532 5.3 -3.48 5000005.43922
7.463532 5.26 -3.48 5000005.43922
7.507607999999999 5.24 -3.48 5000005.51268
7.507607999999999 5.22 -3.48 5000005.51268
7.378806 5.18 -3.48 5000005.29801
7.463532 5.3 -3.5 5000005.43922
7.507607999999999 5.24 -3.5 5000005.51268
7.507607999999999 5.22 -3.5 5000005.51268
7.378806 5.2 -3.5 5000005.29801
7.378806 5.18 -3.5 5000005.29801
7.378806 5.16 -3.5 5000005.29801
7.420614 5.14 -3.5 5000005.36769
7.420614 5.12 -3.5 5000005.36769
7.420614 5.1 -3.5 5000005.36769
7.420614 5.08 -3.5 5000005.36769
7.420614 5.06 -3.5 5000005.36769
7.420614 5.04 -3.5 5000005.36769
7.463532 5.02 -3.5 5000005.43922
7.338077999999999 5.0 -3.5 5000005.23013
7.378806 4.98 -3.5 5000005.29801
7.378806 4.94 -3.5 5000005.29801
7.420614 5.06 -3.52 5000005.36769
7.420614 5.04 -3.52 5000005.36769
7.463532 5.02 -3.52 5000005.43922
7.338077999999999 5.0 -3.52 5000005.23013
7.378806 4.98 -3.52 5000005.29801
7.378806 4.96 -3.52 5000005.29801
7.378806 4.94 -3.52 5000005.29801
7.378806 4.92 -3.52 5000005.29801
7.378806 4.9 -3.52 5000005.29801
7.378806 4.88 -3.52 5000005.29801
7.378806 4.86 -3.52 5000005.29801
7.420614 4.84 -3.52 5000005.36769
7.420614 4.82 -3.52 5000005.36769
7.420614 4.8 -3.52 5000005.36769
7.420614 4.78 -3.52 5000005.36769
7.420614 4.76 -3.52 5000005.36769
7.338077999999999 4.74 -3.52 5000005.23013
7.378806 4.72 -3.52 5000005.29801
7.420614 4.8 -3.54 5000005.36769
7.420614 4.78 -3.54 5000005.36769
7.420614 4.76 -3.54 5000005.36769
7.338077999999999 4.74 -3.54 5000005.23013
7.378806 4.72 -3.54 5000005.29801
7.378806 4.7 -3.54 5000005.29801
7.378806 4.68 -3.54 5000005.29801
7.378806 4.66 -3.54 5000005.29801
7.378806 4.64 -3.54 5000005.29801
7.378806 4.62 -3.54 5000005.29801
7.378806 4.6 -3.54 5000005.29801
7.420614 4.58 -3.54 5000005.36769
7.378806 4.66 -3.56 5000005.29801
7.378806 4.64 -3.56 5000005.29801
7.378806 4.62 -3.56 5000005.29801
7.149126 5.06 -3.78 5000004.91521
7.149126 5.02 -3.78 5000004.91521
7.149126 4.98 -3.78 5000004.91521
7.149126 4.96 -3.8 5000004.91521
7.149126 4.94 -3.8 5000004.91521
7.114037999999999 4.92 -3.8 5000004.85673
7.149126 4.9 -3.82 5000004.91521
7.149126 4.88 -3.82 5000004.91521
7.114037999999999 4.86 -3.82 5000004.85673
7.114037999999999 5.42 -3.86 5000004.85673
7.079772 5.36 -3.86 5000004.79962
7.114037999999999 5.4 -3.88 5000004.85673
7.149126 5.34 -3.88 5000004.91521
7.046298 5.28 -3.9 5000004.74383
7.046298 5.22 -3.92 5000004.74383
7.046298 5.2 -3.92 5000004.74383
7.079772 5.08 -3.96 5000004.79962
7.079772 5.06 -3.96 5000004.79962
6.919854 5.38 -4.18 5000004.53309
6.919854 5.36 -4.18 5000004.53309
6.919854 5.38 -4.2 5000004.53309
6.919854 5.36 -4.2 5000004.53309
6.647982 -5.02 -4.46 5000004.07997
6.647982 -5.04 -4.46 5000004.07997
6.623754 0.14 -4.6 5000004.03959
6.623754 5.88 -4.62 5000004.03959
6.623754 5.86 -4.62 5000004.03959
-3.1 5000006.18047
12.765293999999997 4.3 -3.1 5000006.27549
12.765293999999997 4.28 -3.1 5000006.27549
12.599279999999998 4.26 -3.1 5000005.9988
12.599279999999998 4.24 -3.1 5000005.9988
12.599279999999998 4.22 -3.1 5000005.9988
12.652968000000001 4.2 -3.1 5000006.08828
12.652968000000001 4.18 -3.1 5000006.08828
12.652968000000001 4.16 -3.1 5000006.08828
12.652968000000001 4.14 -3.1 5000006.08828
12.652968000000001 4.12 -3.1 5000006.08828
12.652968000000001 4.1 -3.1 5000006.08828
12.708281999999999 4.08 -3.1 5000006.18047
12.708281999999999 4.06 -3.1 5000006.18047
12.708281999999999 4.04 -3.1 5000006.18047
12.652968000000001 4.12 -3.12 5000006.08828
12.652968000000001 4.1 -3.12 5000006.08828
12.547146 4.28 -3.26 5000005.91191
12.547146 4.26 -3.26 5000005.91191
12.547146 4.28 -3.28 5000005.91191
12.547146 4.26 -3.28 5000005.91191
12.307608 5.54 -3.46 5000005.51268
12.35289 5.46 -3.46 5000005.58815
12.263532 5.36 -3.48 5000005.43922
12.263532 5.34 -3.48 5000005.43922
12.263532 5.32 -3.48 5000005.43922
12.263532 5.3 -3.48 5000005.43922
12.263532 5.26 -3.48 5000005.43922
12.307608 5.24 -3.48 5000005.51268
12.307608 5.22 -3.48 5000005.51268
12.178805999999998 5.18 -3.48 5000005.29801
12.263532 5.3 -3.5 5000005.43922
12.307608 5.24 -3.5 5000005.51268
12.307608 5.22 -3.5 5000005.51268
12.178805999999998 5.2 -3.5 5000005.29801
12.178805999999998 5.18 -3.5 5000005.29801
12.178805999999998 5.16 -3.5 5000005.29801
12.220614 5.14 -3.5 5000005.36769
12.220614 5.12 -3.5 5000005.36769
12.220614 5.1 -3.5 5000005.36769
12.220614 5.08 -3.5 5000005.36769
12.220614 5.06 -3.5 5000005.36769
12.220614 5.04 -3.5 5000005.36769
12.263532 5.02 -3.5 5000005.43922
12.138078 5.0 -3.5 5000005.23013
12.178805999999998 4.98 -3.5 5000005.29801
12.178805999999998 4.94 -3.5 5000005.29801
12.220614 5.06 -3.52 5000005.36769
12.220614 5.04 -3.52 5000005.36769
12.263532 5.02 -3.52 5000005.43922
12.138078 5.0 -3.52 5000005.23013
12.178805999999998 4.98 -3.52 5000005.29801
12.178805999999998 4.96 -3.52 5000005.29801
12.178805999999998 4.94 -3.52 5000005.29801
12.178805999999998 4.92 -3.52 5000005.29801
12.178805999999998 4.9 -3.52 5000005.29801
12.178805999999998 4.88 -3.52 5000005.29801
12.178805999999998 4.86 -3.52 5000005.29801
12.220614 4.84 -3.52 5000005.36769
12.220614 4.82 -3.52 5000005.36769
12.220614 4.8 -3.52 5000005.36769
12.220614 4.78 -3.52 5000005.36769
12.220614 4.76 -3.52 5000005.36769
12.138078 4.74 -3.52 5000005.23013
12.178805999999998 4.72 -3.52 5000005.29801
12.220614 4.8 -3.54 5000005.36769
12.220614 4.78 -3.54 5000005.36769
12.220614 4.76 -3.54 5000005.36769
12.138078 4.74 -3.54 5000005.23013
12.178805999999998 4.72 -3.54 5000005.29801
12.178805999999998 4.7 -3.54 5000005.29801
12.178805999999998 4.68 -3.54 5000005.29801
12.178805999999998 4.66 -3.54 5000005.29801
12.178805999999998 4.64 -3.54 5000005.29801
12.178805999999998 4.62 -3.54 5000005.29801
12.178805999999998 4.6 -3.54 5000005.29801
12.220614 4.58 -3.54 5000005.36769
12.178805999999998 4.66 -3.56 5000005.29801
12.178805999999998 4.64 -3.56 5000005.29801
12.178805999999998 4.62 -3.56 5000005.29801
11.949126000000001 5.06 -3.78 5000004.91521
11.949126000000001 5.02 -3.78 5000004.91521
11.949126000000001 4.98 -3.78 5000004.91521
11.949126000000001 4.96 -3.8 5000004.91521
11.949126000000001 4.94 -3.8 5000004.91521
11.914038 4.92 -3.8 5000004.85673
11.949126000000001 4.9 -3.82 5000004.91521
11.949126000000001 4.88 -3.82 5000004.91521
11.914038 4.86 -3.82 5000004.85673
11.914038 5.42 -3.86 5000004.85673
11.879772 5.36 -3.86 5000004.79962
11.914038 5.4 -3.88 5000004.85673
11.949126000000001 5.34 -3.88 5000004.91521
11.846297999999999 5.28 -3.9 5000004.74383
11.846297999999999 5.22 -3.92 5000004.74383
11.846297999999999 5.2 -3.92 5000004.74383
11.879772 5.08 -3.96 5000004.79962
11.879772 5.06 -3.96 5000004.79962
11.719854 5.38 -4.18 5000004.53309
11.719854 5.36 -4.18 5000004.53309
11.719854 5.38 -4.2 5000004.53309
11.719854 5.36 -4.2 5000004.53309
11.447982 -5.02 -4.46 5000004.07997
11.447982 -5.04 -4.46 5000004.07997
11.423754 0.14 -4.6 5000004.03959
11.423754 5.88 -4.62 5000004.03959
11.423754 5.86 -4.62 5000004.03959
22
8.092051999999999 5.0 -3.5 5000005.23013
8.119203999999998 4.98 -3.5 5000005.29801
8.119203999999998 4.94 -3.5 5000005.29801
8.147076 5.06 -3.52 5000005.36769
8.147076 5.04 -3.52 5000005.36769
8.175688 5.02 -3.52 5000005.43922
8.092051999999999 5.0 -3.52 5000005.23013
8.119203999999998 4.98 -3.52 5000005.29801
8.119203999999998 4.96 -3.52 5000005.29801
8.119203999999998 4.94 -3.52 5000005.29801
8.119203999999998 4.92 -3.52 5000005.29801
8.119203999999998 4.9 -3.52 5000005.29801
8.119203999999998 4.88 -3.52 5000005.29801
8.119203999999998 4.86 -3.52 5000005.29801
8.147076 4.84 -3.52 5000005.36769
8.147076 4.82 -3.52 5000005.36769
8.147076 4.8 -3.52 5000005.36769
8.147076 4.78 -3.52 5000005.36769
8.147076 4.76 -3.52 5000005.36769
8.092051999999999 4.74 -3.52 5000005.23013
8.119203999999998 4.72 -3.52 5000005.29801
8.147076 4.8 -3.54 5000005.36769
8.147076 4.78 -3.54 5000005.36769
8.147076 4.76 -3.54 5000005.36769
8.092051999999999 4.74 -3.54 5000005.23013
8.119203999999998 4.72 -3.54 5000005.29801
8.119203999999998 4.7 -3.54 5000005.29801
8.119203999999998 4.68 -3.54 5000005.29801
8.119203999999998 4.66 -3.54 5000005.29801
8.119203999999998 4.64 -3.54 5000005.29801
8.119203999999998 4.62 -3.54 5000005.29801
8.119203999999998 4.6 -3.54 5000005.29801
8.147076 4.58 -3.54 5000005.36769
8.119203999999998 4.66 -3.56 5000005.29801
8.119203999999998 4.64 -3.56 5000005.29801
8.119203999999998 4.62 -3.56 5000005.29801
7.966084000000001 5.06 -3.78 5000004.91521
7.966084000000001 5.02 -3.78 5000004.91521
7.966084000000001 4.98 -3.78 5000004.91521
7.966084000000001 4.96 -3.8 5000004.91521
7.966084000000001 4.94 -3.8 5000004.91521
7.942692 4.92 -3.8 5000004.85673
7.966084000000001 4.9 -3.82 5000004.91521
7.966084000000001 4.88 -3.82 5000004.91521
7.942692 4.86 -3.82 5000004.85673
7.942692 5.42 -3.86 5000004.85673
7.919848 5.36 -3.86 5000004.79962
7.942692 5.4 -3.88 5000004.85673
7.966084000000001 5.34 -3.88 5000004.91521
7.897531999999999 5.28 -3.9 5000004.74383
7.897531999999999 5.22 -3.92 5000004.74383
7.897531999999999 5.2 -3.92 5000004.74383
7.919848 5.08 -3.96 5000004.79962
7.919848 5.06 -3.96 5000004.79962
7.813236 5.38 -4.18 5000004.53309
7.813236 5.36 -4.18 5000004.53309
7.813236 5.38 -4.2 5000004.53309
7.813236 5.36 -4.2 5000004.53309
7.631988 -5.02 -4.46 5000004.07997
7.631988 -5.04 -4.46 5000004.07997
7.615836 0.14 -4.6 5000004.03959
7.615836 5.88 -4.62 5000004.03959
7.615836 5.86 -4.62 5000004.03959
333333333333 5000080.9717
11.50489 1.8666666666666667 3.433333333333333 5000045.1467
11.50489 1.8333333333333333 3.433333333333333 5000045.1467
12.699056666666667 1.2 3.433333333333333 5000080.9717
13.367 0.6333333333333333 3.433333333333333 5000101.01
11.232286666666667 -1.5666666666666667 3.433333333333333 5000036.9686
11.129943333333333 -3.566666666666667 3.433333333333333 5000033.8983
10.754146666666667 -3.7 3.433333333333333 5000022.6244
10.904566666666666 -6.533333333333333 3.433333333333333 5000027.137
10.904566666666666 -6.566666666666666 3.433333333333333 5000027.137
10.64662 -6.733333333333333 3.433333333333333 5000019.3986
10.798403333333333 -10.733333333333333 3.433333333333333 5000023.9521
11.043296666666667 -12.3 3.433333333333333 5000031.2989
11.043296666666667 -12.333333333333334 3.433333333333333 5000031.2989
10.968993333333334 -13.2 3.433333333333333 5000029.0698
10.968993333333334 -13.233333333333333 3.433333333333333 5000029.0698
11.043296666666667 -14.6 3.433333333333333 5000031.2989
10.904566666666666 -14.7 3.433333333333333 5000027.137
10.968993333333334 -16.233333333333334 3.433333333333333 5000029.0698
10.848176666666667 -16.333333333333332 3.433333333333333 5000025.4453
13.367 2.1 3.4 5000101.01
11.50489 1.8333333333333333 3.4 5000045.1467
12.699056666666667 1.1666666666666667 3.4 5000080.9717
11.232286666666667 -1.5666666666666667 3.4 5000036.9686
10.798403333333333 -10.733333333333333 3.4 5000023.9521
10.968993333333334 -13.2 3.4 5000029.0698
10.968993333333334 -13.233333333333333 3.4 5000029.0698
11.043296666666667 -14.6 3.4 5000031.2989
10.904566666666666 -14.7 3.4 5000027.137
10.968993333333334 -16.233333333333334 3.4 5000029.0698
10.848176666666667 -16.333333333333332 3.4 5000025.4453
13.367 2.1 3.3666666666666667 5000101.01
11.50489 1.8333333333333333 3.3666666666666667 5000045.1467
12.699056666666667 1.1333333333333333 3.3666666666666667 5000080.9717
10.754146666666667 -10.533333333333333 3.3666666666666667 5000022.6244
10.798403333333333 -10.766666666666667 3.3666666666666667 5000023.9521
10.968993333333334 -13.2 3.3666666666666667 5000029.0698
10.968993333333334 -13.233333333333333 3.3666666666666667 5000029.0698
11.043296666666667 -14.6 3.3666666666666667 5000031.2989
10.904566666666666 -14.7 3.3666666666666667 5000027.137
10.968993333333334 -16.233333333333334 3.3666666666666667 5000029.0698
10.848176666666667 -16.333333333333332 3.3666666666666667 5000025.4453
13.367 2.1 3.3333333333333335 5000101.01
11.692046666666666 -3.2666666666666666 3.3333333333333335 5000050.7614
11.355013333333334 -13.066666666666666 3.3333333333333335 5000040.6504
10.968993333333334 -13.233333333333333 3.3333333333333335 5000029.0698
11.043296666666667 -14.6 3.3333333333333335 5000031.2989
10.904566666666666 -14.7 3.3333333333333335 5000027.137
10.968993333333334 -16.233333333333334 3.3333333333333335 5000029.0698
10.848176666666667 -16.333333333333332 3.3333333333333335 5000025.4453
11.692046666666666 -3.3 3.3 5000050.7614
11.232286666666667 -3.7666666666666666 3.3 5000036.9686
10.590493333333333 -6.733333333333333 3.3 5000017.7148
11.355013333333334 -13.033333333333333 3.3 5000040.6504
11.355013333333334 -13.066666666666666 3.3 5000040.6504
10.968993333333334 -13.2 3.3 5000029.0698
10.968993333333334 -13.233333333333333 3.3 5000029.0698
11.043296666666667 -14.6 3.3 5000031.2989
10.904566666666666 -14.7 3.3 5000027.137
10.968993333333334 -16.233333333333334 3.3 5000029.0698
10.848176666666667 -16.333333333333332 3.3 5000025.4453
10.590493333333333 -6.733333333333333 3.2666666666666666 5000017.7148
10.798403333333333 -10.5 3.2666666666666666 5000023.9521
10.798403333333333 -10.533333333333333 3.2666666666666666 5000023.9521
10.798403333333333 -10.766666666666667 3.2666666666666666 5000023.9521
11.232286666666667 -12.2 3.2666666666666666 5000036.9686
10.968993333333334 -12.266666666666667 3.2666666666666666 5000029.0698
10.968993333333334 -12.3 3.2666666666666666 5000029.0698
11.355013333333334 -13.033333333333333 3.2666666666666666 5000040.6504
11.355013333333334 -13.066666666666666 3.2666666666666666 5000040.6504
10.968993333333334 -13.233333333333333 3.2666666666666666 5000029.0698
11.043296666666667 -14.6 3.2666666666666666 5000031.2989
10.904566666666666 -14.7 3.2666666666666666 5000027.137
10.968993333333334 -16.233333333333334 3.2666666666666666 5000029.0698
10.848176666666667 -16.333333333333332 3.2666666666666666 5000025.4453
11.692046666666666 -2.8666666666666667 3.2333333333333334 5000050.7614
11.232286666666667 -3.7666666666666666 3.2333333333333334 5000036.9686
10.798403333333333 -10.766666666666667 3.2333333333333334 5000023.9521
10.968993333333334 -12.3 3.2333333333333334 5000029.0698
10.968993333333334 -12.333333333333334 3.2333333333333334 5000029.0698
10.968993333333334 -13.233333333333333 3.2333333333333334 5000029.0698
11.043296666666667 -14.6 3.2333333333333334 5000031.2989
10.904566666666666 -14.7 3.2333333333333334 5000027.137
10.968993333333334 -16.233333333333334 3.2333333333333334 5000029.0698
10.848176666666667 -16.333333333333332 3.2333333333333334 5000025.4453
11.232286666666667 -1.6 3.2 5000036.9686
11.232286666666667 -3.7666666666666666 3.2 5000036.9686
10.904566666666666 -6.5 3.2 5000027.137
10.617283333333333 -6.7 3.2 5000018.5185
10.968993333333334 -12.3 3.2 5000029.0698
11.355013333333334 -13.066666666666666 3.2 5000040.6504
10.968993333333334 -13.233333333333333 3.2 5000029.0698
11.043296666666667 -14.6 3.2 5000031.2989
10.904566666666666 -14.7 3.2 5000027.137
10.968993333333334 -16.233333333333334 3.2 5000029.0698
10.848176666666667 -16.333333333333332 3.2 5000025.4453
10.848176666666667 -16.366666666666667 3.2 5000025.4453
11.232286666666667 -3.7666666666666666 3.1666666666666665 5000036.9686
10.904566666666666 -6.5 3.1666666666666665 5000027.137
10.904566666666666 -6.533333333333333 3.1666666666666665 5000027.137
10.617283333333333 -6.7 3.1666666666666665 5000018.5185
10.798403333333333 -10.8 3.1666666666666665 5000023.9521
10.968993333333334 -12.3 3.1666666666666665 5000029.0698
10.968993333333334 -12.333333333333334 3.1666666666666665 5000029.0698
10.968993333333334 -13.233333333333333 3.1666666666666665 5000029.0698
11.043296666666667 -14.6 3.1666666666666665 5000031.2989
10.904566666666666 -14.7 3.1666666666666665 5000027.137
10.904566666666666 -14.733333333333333 3.1666666666666665 5000027.137
10.848176666666667 -16.333333333333332 3.1666666666666665 5000025.4453
11.232286666666667 -3.7666666666666666 3.1333333333333333 5000036.9686
10.904566666666666 -6.533333333333333 3.1333333333333333 5000027.137
10.617283333333333 -6.7 3.1333333333333333 5000018.5185
10.754146666666667 -10.5 3.1333333333333333 5000022.6244
10.754146666666667 -10.533333333333333 3.1333333333333333 5000022.6244
10.798403333333333 -10.8 3.1333333333333333 5000023.9521
11.043296666666667 -12.3 3.1333333333333333 5000031.2989
10.968993333333334 -13.233333333333333 3.1333333333333333 5000029.0698
11.043296666666667 -14.6 3.1333333333333333 5000031.2989
10.904566666666666 -14.7 3.1333333333333333 5000027.137
11.692046666666666 2.7333333333333334 3.1 5000050.7614
11.129943333333333 -3.7666666666666666 3.1 5000033.8983
10.754146666666667 -10.5 3.1 5000022.6244
10.798403333333333 -10.8 3.1 5000023.9521
11.355013333333334 -12.2 3.1 5000040.6504
11.043296666666667 -12.3 3.1 5000031.2989
11.043296666666667 -12.333333333333334 3.1 5000031.2989
10.968993333333334 -13.233333333333333 3.1 5000029.0698
10.968993333333334 -13.266666666666667 3.1 5000029.0698
10.754146666666667 -10.5 3.066666666666667 5000022.6244
10.968993333333334 -10.666666666666666 3.066666666666667 5000029.0698
10.798403333333333 -10.8 3.066666666666667 5000023.9521
11.043296666666667 -12.3 3.066666666666667 5000031.2989
11.043296666666667 -12.333333333333334 3.066666666666667 5000031.2989
10.904566666666666 -6.733333333333333 3.033333333333333 5000027.137
10.798403333333333 -10.5 3.033333333333333 5000023.9521
10.754146666666667 -10.8 3.033333333333333 5000022.6244
11.355013333333334 -12.2 3.033333333333333 5000040.6504
11.043296666666667 -12.3 3.033333333333333 5000031.2989
11.043296666666667 -12.333333333333334 3.033333333333333 5000031.2989
10.968993333333334 -13.066666666666666 3.033333333333333 5000029.0698
10.968993333333334 -13.1 3.033333333333333 5000029.0698
10.968993333333334 -16.233333333333334 3.033333333333333 5000029.0698
11.355013333333334 -12.2 3.0 5000040.6504
11.043296666666667 -12.3 3.0 5000031.2989
11.043296666666667 -12.333333333333334 3.0 5000031.2989
11.043296666666667 -12.366666666666667 3.0 5000031.2989
10.904566666666666 -13.066666666666666 3.0 5000027.137
10.904566666666666 -13.1 3.0 5000027.137
10.968993333333334 -16.166666666666668 3.0 5000029.0698
10.968993333333334 -16.2 3.0 5000029.0698
10.968993333333334 -16.233333333333334 3.0 5000029.0698
10.848176666666667 -16.333333333333332 3.0 5000025.4453
10.848176666666667 -16.366666666666667 3.0 5000025.4453
11.692046666666666 2.7 2.966666666666667 5000050.7614
14.474266666666667 -10.066666666666666 2.966666666666667 5000134.228
11.043296666666667 -10.4 2.966666666666667 5000031.2989
10.968993333333334 -10.433333333333334 2.966666666666667 5000029.0698
11.043296666666667 -11.0 2.966666666666667 5000031.2989
11.043296666666667 -12.3 2.966666666666667 5000031.2989
10.968993333333334 -13.066666666666666 2.966666666666667 5000029.0698
10.968993333333334 -13.1 2.966666666666667 5000029.0698
11.129943333333333 -14.566666666666666 2.966666666666667 5000033.8983
11.129943333333333 -14.6 2.966666666666667 5000033.8983
10.904566666666666 -14.7 2.966666666666667 5000027.137
10.904566666666666 -14.733333333333333 2.966666666666667 5000027.137
11.129943333333333 -15.8 2.966666666666667 5000033.8983
11.129943333333333 -15.833333333333334 2.966666666666667 5000033.8983
10.968993333333334 -15.933333333333334 2.966666666666667 5000029.0698
10.968993333333334 -15.966666666666667 2.966666666666667 5000029.0698
10.968993333333334 -16.233333333333334 2.966666666666667 5000029.0698
10.848176666666667 -16.333333333333332 2.966666666666667 5000025.4453
10.848176666666667 -16.366666666666667 2.966666666666667 5000025.4453
10.678886666666667 -16.466666666666665 2.966666666666667 5000020.3666
10.678886666666667 -16.5 2.966666666666667 5000020.3666
11.043296666666667 -9.266666666666667 2.933333333333333 5000031.2989
11.129943333333333 -9.533333333333333 2.933333333333333 5000033.8983
11.129943333333333 -9.566666666666666 2.933333333333333 5000033.8983
14.474266666666667 -10.066666666666666 2.933333333333333 5000134.228
11.043296666666667 -10.4 2.933333333333333 5000031.2989
11.692046666666666 -10.8 2.933333333333333 5000050.7614
11.692046666666666 -10.833333333333334 2.933333333333333 5000050.7614
11.692046666666666 -10.866666666666667 2.933333333333333 5000050.7614
11.043296666666667 -10.966666666666667 2.933333333333333 5000031.2989
11.043296666666667 -11.0 2.933333333333333 5000031.2989
10.968993333333334 -13.1 2.933333333333333 5000029.0698
10.968993333333334 -13.2 2.933333333333333 5000029.0698
10.968993333333334 -13.233333333333333 2.933333333333333 5000029.0698
11.129943333333333 -14.566666666666666 2.933333333333333 5000033.8983
11.129943333333333 -14.6 2.933333333333333 5000033.8983
10.904566666666666 -14.7 2.933333333333333 5000027.137
10.904566666666666 -14.733333333333333 2.933333333333333 5000027.137
10.678886666666667 -14.833333333333334 2.933333333333333 5000020.3666
11.129943333333333 -15.8 2.933333333333333 5000033.8983
11.129943333333333 -15.833333333333334 2.933333333333333 5000033.8983
10.968993333333334 -15.933333333333334 2.933333333333333 5000029.0698
10.968993333333334 -15.966666666666667 2.933333333333333 5000029.0698
10.848176666666667 -16.333333333333332 2.933333333333333 5000025.4453
10.848176666666667 -16.366666666666667 2.933333333333333 5000025.4453
11.043296666666667 -9.3 2.9 5000031.2989
11.129943333333333 -9.533333333333333 2.9 5000033.8983
16.666666666666668 -9.666666666666666 2.9 5000200.0
11.355013333333334 -9.9 2.9 5000040.6504
11.355013333333334 -9.966666666666667 2.9 5000040.6504
14.474266666666667 -10.066666666666666 2.9 5000134.228
11.043296666666667 -10.4 2.9 5000031.2989
11.692046666666666 -10.833333333333334 2.9 5000050.7614
11.692046666666666 -10.866666666666667 2.9 5000050.7614
11.043296666666667 -11.0 2.9 5000031.2989
11.355013333333334 -13.033333333333333 2.9 5000040.6504
11.355013333333334 -13.066666666666666 2.9 5000040.6504
10.968993333333334 -13.2 2.9 5000029.0698
10.968993333333334 -13.233333333333333 2.9 5000029.0698
10.968993333333334 -13.266666666666667 2.9 5000029.0698
10.904566666666666 -13.3 2.9 5000027.137
11.129943333333333 -14.566666666666666 2.9 5000033.8983
11.129943333333333 -14.6 2.9 5000033.8983
10.904566666666666 -14.7 2.9 5000027.137
10.904566666666666 -14.733333333333333 2.9 5000027.137
11.129943333333333 -15.833333333333334 2.9 5000033.8983
10.968993333333334 -15.933333333333334 2.9 5000029.0698
10.968993333333334 -15.966666666666667 2.9 5000029.0698
11.129943333333333 -1.4 2.8666666666666667 5000033.8983
11.129943333333333 -1.4333333333333333 2.8666666666666667 5000033.8983
11.129943333333333 -7.833333333333333 2.8666666666666667 5000033.8983
11.043296666666667 -9.3 2.8666666666666667 5000031.2989
16.666666666666668 -9.666666666666666 2.8666666666666667 5000200.0
16.666666666666668 -9.7 2.8666666666666667 5000200.0
11.355013333333334 -9.866666666666667 2.8666666666666667 5000040.6504
11.355013333333334 -9.9 2.8666666666666667 5000040.6504
11.355013333333334 -9.966666666666667 2.8666666666666667 5000040.6504
11.043296666666667 -11.0 2.8666666666666667 5000031.2989
11.355013333333334 -13.033333333333333 2.8666666666666667 5000040.6504
11.355013333333334 -13.066666666666666 2.8666666666666667 5000040.6504
11.355013333333334 -13.1 2.8666666666666667 5000040.6504
10.968993333333334 -13.2 2.8666666666666667 5000029.0698
10.968993333333334 -13.233333333333333 2.8666666666666667 5000029.0698
10.968993333333334 -13.266666666666667 2.8666666666666667 5000029.0698
10.904566666666666 -14.7 2.8666666666666667 5000027.137
10.904566666666666 -14.733333333333333 2.8666666666666667 5000027.137
11.043296666666667 -16.333333333333332 2.8666666666666667 5000031.2989
11.355013333333334 2.033333333333333 2.8333333333333335 5000040.6504
11.129943333333333 -1.4666666666666666 2.8333333333333335 5000033.8983
11.129943333333333 -1.9333333333333333 2.8333333333333335 5000033.8983
11.129943333333333 -7.833333333333333 2.8333333333333335 5000033.8983
16.666666666666668 -9.666666666666666 2.8333333333333335 5000200.0
16.666666666666668 -9.7 2.8333333333333335 5000200.0
16.666666666666668 -9.733333333333333 2.8333333333333335 5000200.0
10.617283333333333 -14.133333333333333 2.8333333333333335 5000018.5185
10.617283333333333 -14.166666666666666 2.8333333333333335 5000018.5185
10.904566666666666 -14.7 2.8333333333333335 5000027.137
10.904566666666666 -14.733333333333333 2.8333333333333335 5000027.137
11.692046666666666 -16.066666666666666 2.8333333333333335 5000050.7614
10.904566666666666 -16.2 2.8333333333333335 5000027.137
11.043296666666667 -16.333333333333332 2.8333333333333335 5000031.2989
10.848176666666667 -16.466666666666665 2.8333333333333335 5000025.4453
10.968993333333334 -3.033333333333333 2.8 5000029.0698
10.968993333333334 -3.066666666666667 2.8 5000029.0698
10.848176666666667 -13.9 2.8 5000025.4453
10.848176666666667 -13.933333333333334 2.8 5000025.4453
10.848176666666667 -13.966666666666667 2.8 5000025.4453
10.798403333333333 -14.0 2.8 5000023.9521
10.64662 -14.1 2.8 5000019.3986
10.617283333333333 -14.133333333333333 2.8 5000018.5185
10.617283333333333 -14.166666666666666 2.8 5000018.5185
10.617283333333333 -14.2 2.8 5000018.5185
10.590493333333333 -14.233333333333333 2.8 5000017.7148
11.129943333333333 -14.566666666666666 2.8 5000033.8983
11.129943333333333 -14.6 2.8 5000033.8983
10.904566666666666 -14.7 2.8 5000027.137
11.043296666666667 -16.333333333333332 2.8 5000031.2989
10.848176666666667 -16.466666666666665 2.8 5000025.4453
10.848176666666667 -16.9 2.8 5000025.4453
11.50489 1.6 2.7666666666666666 5000045.1467
10.968993333333334 -3.066666666666667 2.7666666666666666 5000029.0698
10.968993333333334 -3.1 2.7666666666666666 5000029.0698
11.355013333333334 -13.666666666666666 2.7666666666666666 5000040.6504
11.232286666666667 -13.733333333333333 2.7666666666666666 5000036.9686
11.232286666666667 -13.766666666666667 2.7666666666666666 5000036.9686
10.64662 -14.1 2.7666666666666666 5000019.3986
10.617283333333333 -14.133333333333333 2.7666666666666666 5000018.5185
10.617283333333333 -14.166666666666666 2.7666666666666666 5000018.5185
10.617283333333333 -14.2 2.7666666666666666 5000018.5185
11.129943333333333 -14.6 2.7666666666666666 5000033.8983
10.904566666666666 -14.7 2.7666666666666666 5000027.137
10.904566666666666 -14.733333333333333 2.7666666666666666 5000027.137
11.043296666666667 -16.333333333333332 2.7666666666666666 5000031.2989
10.848176666666667 -16.433333333333334 2.7666666666666666 5000025.4453
10.848176666666667 -16.466666666666665 2.7666666666666666 5000025.4453
11.355013333333334 2.0 2.7333333333333334 5000040.6504
11.50489 1.6 2.7333333333333334 5000045.1467
11.043296666666667 -8.933333333333334 2.7333333333333334 5000031.2989
10.754146666666667 -9.033333333333333 2.7333333333333334 5000022.6244
10.754146666666667 -9.066666666666666 2.7333333333333334 5000022.6244
10.754146666666667 -9.1 2.7333333333333334 5000022.6244
10.968993333333334 -10.866666666666667 2.7333333333333334 5000029.0698
11.129943333333333 -14.6 2.7333333333333334 5000033.8983
10.904566666666666 -14.7 2.7333333333333334 5000027.137
10.848176666666667 -16.466666666666665 2.7333333333333334 5000025.4453
10.848176666666667 -17.0 2.7333333333333334 5000025.4453
11.355013333333334 2.0 2.7 5000040.6504
10.754146666666667 -8.5 2.7 5000022.6244
10.754146666666667 -8.533333333333333 2.7 5000022.6244
10.754146666666667 -9.066666666666666 2.7 5000022.6244
10.754146666666667 -9.1 2.7 5000022.6244
10.316105666666667 -9.2 2.7 5000009.48317
10.904566666666666 -9.5 2.7 5000027.137
10.754146666666667 -9.6 2.7 5000022.6244
10.754146666666667 -9.633333333333333 2.7 5000022.6244
10.323624666666667 -9.733333333333333 2.7 5000009.70874
10.848176666666667 -17.033333333333335 2.7 5000025.4453
10.848176666666667 -17.066666666666666 2.7 5000025.4453
11.355013333333334 1.4333333333333333 2.6666666666666665 5000040.6504
11.043296666666667 -3.3333333333333335 2.6666666666666665 5000031.2989
10.754146666666667 -9.066666666666666 2.6666666666666665 5000022.6244
10.754146666666667 -9.1 2.6666666666666665 5000022.6244
10.754146666666667 -9.566666666666666 2.6666666666666665 5000022.6244
10.754146666666667 -9.6 2.6666666666666665 5000022.6244
10.590493333333333 -14.3 2.6666666666666665 5000017.7148
10.590493333333333 -14.333333333333334 2.6666666666666665 5000017.7148
10.590493333333333 -14.366666666666667 2.6666666666666665 5000017.7148
10.56593 -14.4 2.6666666666666665 5000016.9779
10.56593 -14.433333333333334 2.6666666666666665 5000016.9779
11.129943333333333 -14.6 2.6666666666666665 5000033.8983
11.129943333333333 -14.633333333333333 2.6666666666666665 5000033.8983
10.848176666666667 -17.066666666666666 2.6666666666666665 5000025.4453
10.798403333333333 -17.1 2.6666666666666665 5000023.9521
10.798403333333333 -17.133333333333333 2.6666666666666665 5000023.9521
10.798403333333333 -17.166666666666668 2.6666666666666665 5000023.9521
11.043296666666667 -3.3333333333333335 2.6333333333333333 5000031.2989
10.754146666666667 -9.6 2.6333333333333333 5000022.6244
10.848176666666667 -14.033333333333333 2.6333333333333333 5000025.4453
10.617283333333333 -14.266666666666667 2.6333333333333333 5000018.5185
10.590493333333333 -14.3 2.6333333333333333 5000017.7148
10.590493333333333 -14.333333333333334 2.6333333333333333 5000017.7148
10.590493333333333 -14.366666666666667 2.6333333333333333 5000017.7148
11.129943333333333 -14.6 2.6333333333333333 5000033.8983
10.848176666666667 -14.733333333333333 2.6333333333333333 5000025.4453
10.848176666666667 -17.0 2.6333333333333333 5000025.4453
10.798403333333333 -17.1 2.6333333333333333 5000023.9521
10.798403333333333 -17.133333333333333 2.6333333333333333 5000023.9521
10.798403333333333 -17.166666666666668 2.6333333333333333 5000023.9521
10.754146666666667 -17.2 2.6333333333333333 5000022.6244
10.64662 -17.266666666666666 2.6333333333333333 5000019.3986
10.617283333333333 -17.3 2.6333333333333333 5000018.5185
10.617283333333333 -17.333333333333332 2.6333333333333333 5000018.5185
11.043296666666667 -3.3666666666666667 2.6 5000031.2989
10.590493333333333 -13.5 2.6 5000017.7148
10.590493333333333 -13.533333333333333 2.6 5000017.7148
10.848176666666667 -14.033333333333333 2.6 5000025.4453
10.848176666666667 -14.066666666666666 2.6 5000025.4453
10.617283333333333 -14.233333333333333 2.6 5000018.5185
10.617283333333333 -14.266666666666667 2.6 5000018.5185
10.590493333333333 -14.3 2.6 5000017.7148
10.590493333333333 -14.333333333333334 2.6 5000017.7148
10.848176666666667 -14.7 2.6 5000025.4453
10.754146666666667 -17.466666666666665 2.6 5000022.6244
10.754146666666667 -17.5 2.6 5000022.6244
10.754146666666667 -17.533333333333335 2.6 5000022.6244
10.71454 -17.566666666666666 2.6 5000021.4362
10.71454 -17.6 2.6 5000021.4362
11.355013333333334 2.6333333333333333 2.566666666666667 5000040.6504
11.043296666666667 -3.3666666666666667 2.566666666666667 5000031.2989
10.904566666666666 -5.0 2.566666666666667 5000027.137
10.904566666666666 -5.033333333333333 2.566666666666667 5000027.137
16.666666666666668 -7.5 2.566666666666667 5000200.0
14.474266666666667 -8.166666666666666 2.566666666666667 5000134.228
14.474266666666667 -8.2 2.566666666666667 5000134.228
10.904566666666666 -8.533333333333333 2.566666666666667 5000027.137
10.71454 -8.633333333333333 2.566666666666667 5000021.4362
14.474266666666667 -8.933333333333334 2.566666666666667 5000134.228
14.474266666666667 -8.966666666666667 2.566666666666667 5000134.228
10.754146666666667 -9.333333333333334 2.566666666666667 5000022.6244
10.71454 -9.366666666666667 2.566666666666667 5000021.4362
10.71454 -9.4 2.566666666666667 5000021.4362
10.71454 -9.433333333333334 2.566666666666667 5000021.4362
10.617283333333333 -12.666666666666666 2.566666666666667 5000018.5185
10.617283333333333 -12.7 2.566666666666667 5000018.5185
10.590493333333333 -13.5 2.566666666666667 5000017.7148
10.590493333333333 -13.533333333333333 2.566666666666667 5000017.7148
10.798403333333333 -14.1 2.566666666666667 5000023.9521
10.617283333333333 -14.266666666666667 2.566666666666667 5000018.5185
10.590493333333333 -14.3 2.566666666666667 5000017.7148
10.590493333333333 -14.333333333333334 2.566666666666667 5000017.7148
10.754146666666667 -17.466666666666665 2.566666666666667 5000022.6244
10.754146666666667 -17.5 2.566666666666667 5000022.6244
11.355013333333334 0.8666666666666667 2.533333333333333 5000040.6504
11.043296666666667 -2.1666666666666665 2.533333333333333 5000031.2989
11.043296666666667 -2.2 2.533333333333333 5000031.2989
11.043296666666667 -3.3666666666666667 2.533333333333333 5000031.2989
16.666666666666668 -7.5 2.533333333333333 5000200.0
16.666666666666668 -7.533333333333333 2.533333333333333 5000200.0
14.474266666666667 -8.133333333333333 2.533333333333333 5000134.228
10.904566666666666 -8.533333333333333 2.533333333333333 5000027.137
10.71454 -8.633333333333333 2.533333333333333 5000021.4362
10.71454 -9.366666666666667 2.533333333333333 5000021.4362
10.71454 -9.4 2.533333333333333 5000021.4362
10.71454 -9.433333333333334 2.533333333333333 5000021.4362
10.754146666666667 -10.7 2.533333333333333 5000022.6244
11.232286666666667 -12.3 2.533333333333333 5000036.9686
11.232286666666667 -12.333333333333334 2.533333333333333 5000036.9686
10.848176666666667 -12.466666666666667 2.533333333333333 5000025.4453
10.617283333333333 -12.666666666666666 2.533333333333333 5000018.5185
10.590493333333333 -13.533333333333333 2.533333333333333 5000017.7148
10.590493333333333 -14.3 2.533333333333333 5000017.7148
10.590493333333333 -14.333333333333334 2.533333333333333 5000017.7148
10.590493333333333 -14.366666666666667 2.533333333333333 5000017.7148
11.355013333333334 0.8333333333333334 2.5 5000040.6504
11.129943333333333 -1.5666666666666667 2.5 5000033.8983
11.043296666666667 -2.2 2.5 5000031.2989
11.043296666666667 -2.2333333333333334 2.5 5000031.2989
10.71454 -9.433333333333334 2.5 5000021.4362
11.50489 -9.9 2.5 5000045.1467
11.129943333333333 -11.433333333333334 2.5 5000033.8983
10.590493333333333 -14.166666666666666 2.5 5000017.7148
10.590493333333333 -14.333333333333334 2.5 5000017.7148
10.590493333333333 -14.366666666666667 2.5 5000017.7148
11.50489 2.8666666666666667 2.466666666666667 5000045.1467
11.355013333333334 2.6 2.466666666666667 5000040.6504
11.129943333333333 -1.6 2.466666666666667 5000033.8983
10.968993333333334 -8.5 2.466666666666667 5000029.0698
10.754146666666667 -8.6 2.466666666666667 5000022.6244
13.367 -8.933333333333334 2.466666666666667 5000101.01
10.71454 -9.4 2.466666666666667 5000021.4362
10.71454 -9.433333333333334 2.466666666666667 5000021.4362
14.474266666666667 -9.633333333333333 2.466666666666667 5000134.228
11.50489 -9.833333333333334 2.466666666666667 5000045.1467
11.50489 -9.9 2.466666666666667 5000045.1467
11.129943333333333 -10.0 2.466666666666667 5000033.8983
10.798403333333333 -10.133333333333333 2.466666666666667 5000023.9521
16.666666666666668 -10.5 2.466666666666667 5000200.0
14.474266666666667 -10.6 2.466666666666667 5000134.228
11.043296666666667 -10.833333333333334 2.466666666666667 5000031.2989
11.043296666666667 -10.866666666666667 2.466666666666667 5000031.2989
11.043296666666667 -10.9 2.466666666666667 5000031.2989
10.64662 -12.633333333333333 2.466666666666667 5000019.3986
10.617283333333333 -13.533333333333333 2.466666666666667 5000018.5185
10.590493333333333 -14.166666666666666 2.466666666666667 5000017.7148
10.590493333333333 -14.2 2.466666666666667 5000017.7148
10.590493333333333 -14.366666666666667 2.466666666666667 5000017.7148
10.590493333333333 -14.4 2.466666666666667 5000017.7148
10.798403333333333 -14.766666666666667 2.466666666666667 5000023.9521
11.50489 2.8666666666666667 2.433333333333333 5000045.1467
11.355013333333334 2.6 2.433333333333333 5000040.6504
11.355013333333334 2.2666666666666666 2.433333333333333 5000040.6504
11.232286666666667 -0.13333333333333333 2.433333333333333 5000036.9686
10.522466666666666 -7.5 2.433333333333333 5000015.674
10.388273333333334 -7.766666666666667 2.433333333333333 5000011.6482
10.968993333333334 -8.5 2.433333333333333 5000029.0698
13.367 -9.0 2.433333333333333 5000101.01
10.71454 -9.433333333333334 2.433333333333333 5000021.4362
16.666666666666668 -10.5 2.433333333333333 5000200.0
11.043296666666667 -11.0 2.433333333333333 5000031.2989
11.50489 -11.566666666666666 2.433333333333333 5000045.1467
10.64662 -12.0 2.433333333333333 5000019.3986
10.64662 -12.6 2.433333333333333 5000019.3986
10.64662 -12.633333333333333 2.433333333333333 5000019.3986
10.617283333333333 -13.533333333333333 2.433333333333333 5000018.5185
10.590493333333333 -14.366666666666667 2.433333333333333 5000017.7148
10.590493333333333 -14.4 2.433333333333333 5000017.7148
10.590493333333333 -14.433333333333334 2.433333333333333 5000017.7148
11.50489 2.8666666666666667 2.4 5000045.1467
11.355013333333334 2.566666666666667 2.4 5000040.6504
11.355013333333334 2.2666666666666666 2.4 5000040.6504
10.968993333333334 -3.4 2.4 5000029.0698
11.043296666666667 -3.6666666666666665 2.4 5000031.2989
10.754146666666667 -7.1 2.4 5000022.6244
10.522466666666666 -7.533333333333333 2.4 5000015.674
10.42463 -7.666666666666667 2.4 5000012.7389
10.388273333333334 -7.733333333333333 2.4 5000011.6482
10.3775 -7.766666666666667 2.4 5000011.325
10.968993333333334 -8.466666666666667 2.4 5000029.0698
13.367 -9.0 2.4 5000101.01
13.367 -9.033333333333333 2.4 5000101.01
10.848176666666667 -9.333333333333334 2.4 5000025.4453
10.71454 -9.4 2.4 5000021.4362
10.71454 -9.433333333333334 2.4 5000021.4362
16.666666666666668 -10.5 2.4 5000200.0
16.666666666666668 -10.533333333333333 2.4 5000200.0
11.043296666666667 -11.0 2.4 5000031.2989
10.64662 -12.0 2.4 5000019.3986
10.64662 -12.566666666666666 2.4 5000019.3986
10.64662 -12.6 2.4 5000019.3986
10.617283333333333 -13.5 2.4 5000018.5185
10.617283333333333 -13.533333333333333 2.4 5000018.5185
10.590493333333333 -14.4 2.4 5000017.7148
10.590493333333333 -14.433333333333334 2.4 5000017.7148
10.590493333333333 -14.466666666666667 2.4 5000017.7148
10.678886666666667 -14.866666666666667 2.4 5000020.3666
10.848176666666667 -16.466666666666665 2.4 5000025.4453
11.50489 2.8666666666666667 2.3666666666666667 5000045.1467
13.367 -6.9 2.3666666666666667 5000101.01
13.367 -6.933333333333334 2.3666666666666667 5000101.01
10.754146666666667 -7.1 2.3666666666666667 5000022.6244
10.522466666666666 -7.5 2.3666666666666667 5000015.674
10.42463 -7.666666666666667 2.3666666666666667 5000012.7389
10.3775 -7.766666666666667 2.3666666666666667 5000011.325
13.367 -9.0 2.3666666666666667 5000101.01
10.904566666666666 -9.266666666666667 2.3666666666666667 5000027.137
10.848176666666667 -9.333333333333334 2.3666666666666667 5000025.4453
10.71454 -9.433333333333334 2.3666666666666667 5000021.4362
11.692046666666666 -9.866666666666667 2.3666666666666667 5000050.7614
11.355013333333334 -9.933333333333334 2.3666666666666667 5000040.6504
11.129943333333333 -10.0 2.3666666666666667 5000033.8983
11.129943333333333 -10.033333333333333 2.3666666666666667 5000033.8983
16.666666666666668 -10.5 2.3666666666666667 5000200.0
16.666666666666668 -10.533333333333333 2.3666666666666667 5000200.0
11.043296666666667 -11.0 2.3666666666666667 5000031.2989
10.64662 -11.966666666666667 2.3666666666666667 5000019.3986
10.64662 -12.0 2.3666666666666667 5000019.3986
10.64662 -12.533333333333333 2.3666666666666667 5000019.3986
10.64662 -12.566666666666666 2.3666666666666667 5000019.3986
10.64662 -12.6 2.3666666666666667 5000019.3986
10.617283333333333 -13.5 2.3666666666666667 5000018.5185
10.617283333333333 -13.533333333333333 2.3666666666666667 5000018.5185
10.590493333333333 -14.433333333333334 2.3666666666666667 5000017.7148
10.590493333333333 -14.466666666666667 2.3666666666666667 5000017.7148
10.590493333333333 -14.5 2.3666666666666667 5000017.7148
10.678886666666667 -14.866666666666667 2.3666666666666667 5000020.3666
10.678886666666667 -14.9 2.3666666666666667 5000020.3666
10.848176666666667 -16.466666666666665 2.3666666666666667 5000025.4453
11.043296666666667 -3.7333333333333334 2.3333333333333335 5000031.2989
10.904566666666666 -5.366666666666666 2.3333333333333335 5000027.137
10.522466666666666 -7.5 2.3333333333333335 5000015.674
10.3775 -7.766666666666667 2.3333333333333335 5000011.325
10.968993333333334 -8.466666666666667 2.3333333333333335 5000029.0698
10.754146666666667 -8.566666666666666 2.3333333333333335 5000022.6244
10.71454 -9.433333333333334 2.3333333333333335 5000021.4362
10.64662 -12.133333333333333 2.3333333333333335 5000019.3986
10.64662 -12.166666666666666 2.3333333333333335 5000019.3986
10.64662 -12.566666666666666 2.3333333333333335 5000019.3986
10.590493333333333 -14.466666666666667 2.3333333333333335 5000017.7148
10.590493333333333 -14.5 2.3333333333333335 5000017.7148
10.56593 -14.533333333333333 2.3333333333333335 5000016.9779
10.848176666666667 -15.466666666666667 2.3333333333333335 5000025.4453
10.848176666666667 -15.5 2.3333333333333335 5000025.4453
11.355013333333334 2.6666666666666665 2.3 5000040.6504
10.904566666666666 -3.466666666666667 2.3 5000027.137
10.904566666666666 -4.0 2.3 5000027.137
10.904566666666666 -5.366666666666666 2.3 5000027.137
10.904566666666666 -5.4 2.3 5000027.137
10.56593 -5.533333333333333 2.3 5000016.9779
10.56593 -5.566666666666666 2.3 5000016.9779
10.56593 -5.6 2.3 5000016.9779
11.043296666666667 -8.466666666666667 2.3 5000031.2989
10.754146666666667 -8.566666666666666 2.3 5000022.6244
10.754146666666667 -8.6 2.3 5000022.6244
11.932366666666667 -9.1 2.3 5000057.971
10.904566666666666 -9.333333333333334 2.3 5000027.137
10.71454 -9.433333333333334 2.3 5000021.4362
10.71454 -9.466666666666667 2.3 5000021.4362
11.043296666666667 -10.866666666666667 2.3 5000031.2989
11.043296666666667 -10.933333333333334 2.3 5000031.2989
10.678886666666667 -11.8 2.3 5000020.3666
10.64662 -11.833333333333334 2.3 5000019.3986
10.64662 -11.866666666666667 2.3 5000019.3986
10.64662 -12.133333333333333 2.3 5000019.3986
10.590493333333333 -14.466666666666667 2.3 5000017.7148
10.590493333333333 -14.5 2.3 5000017.7148
10.590493333333333 -14.533333333333333 2.3 5000017.7148
10.848176666666667 -15.466666666666667 2.3 5000025.4453
10.848176666666667 -15.5 2.3 5000025.4453
10.904566666666666 -15.966666666666667 2.3 5000027.137
11.043296666666667 -16.333333333333332 2.3 5000031.2989
10.848176666666667 -16.466666666666665 2.3 5000025.4453
10.798403333333333 -17.6 2.3 5000023.9521
10.798403333333333 -17.633333333333333 2.3 5000023.9521
11.043296666666667 -6.5 2.2666666666666666 5000031.2989
10.754146666666667 -7.833333333333333 2.2666666666666666 5000022.6244
10.754146666666667 -7.866666666666666 2.2666666666666666 5000022.6244
10.754146666666667 -7.9 2.2666666666666666 5000022.6244
10.590493333333333 -8.033333333333333 2.2666666666666666 5000017.7148
14.474266666666667 -8.166666666666666 2.2666666666666666 5000134.228
11.043296666666667 -8.433333333333334 2.2666666666666666 5000031.2989
11.043296666666667 -8.466666666666667 2.2666666666666666 5000031.2989
10.754146666666667 -8.566666666666666 2.2666666666666666 5000022.6244
10.71454 -8.6 2.2666666666666666 5000021.4362
11.232286666666667 -9.233333333333333 2.2666666666666666 5000036.9686
10.968993333333334 -9.3 2.2666666666666666 5000029.0698
10.904566666666666 -9.333333333333334 2.2666666666666666 5000027.137
10.71454 -9.433333333333334 2.2666666666666666 5000021.4362
10.71454 -9.466666666666667 2.2666666666666666 5000021.4362
11.692046666666666 -9.933333333333334 2.2666666666666666 5000050.7614
11.692046666666666 -9.966666666666667 2.2666666666666666 5000050.7614
11.692046666666666 -10.0 2.2666666666666666 5000050.7614
11.043296666666667 -10.133333333333333 2.2666666666666666 5000031.2989
11.043296666666667 -10.866666666666667 2.2666666666666666 5000031.2989
10.904566666666666 -10.966666666666667 2.2666666666666666 5000027.137
10.754146666666667 -11.7 2.2666666666666666 5000022.6244
10.71454 -11.733333333333333 2.2666666666666666 5000021.4362
10.678886666666667 -11.766666666666667 2.2666666666666666 5000020.3666
10.678886666666667 -11.8 2.2666666666666666 5000020.3666
10.64662 -11.833333333333334 2.2666666666666666 5000019.3986
10.64662 -11.866666666666667 2.2666666666666666 5000019.3986
10.617283333333333 -11.9 2.2666666666666666 5000018.5185
10.904566666666666 -15.966666666666667 2.2666666666666666 5000027.137
10.848176666666667 -16.433333333333334 2.2666666666666666 5000025.4453
10.848176666666667 -16.466666666666665 2.2666666666666666 5000025.4453
10.754146666666667 -16.566666666666666 2.2666666666666666 5000022.6244
11.232286666666667 0.7666666666666667 2.2333333333333334 5000036.9686
10.754146666666667 -7.833333333333333 2.2333333333333334 5000022.6244
10.754146666666667 -7.866666666666666 2.2333333333333334 5000022.6244
10.754146666666667 -7.9 2.2333333333333334 5000022.6244
10.590493333333333 -8.033333333333333 2.2333333333333334 5000017.7148
11.355013333333334 -8.333333333333334 2.2333333333333334 5000040.6504
11.043296666666667 -8.433333333333334 2.2333333333333334 5000031.2989
10.71454 -8.566666666666666 2.2333333333333334 5000021.4362
10.71454 -8.6 2.2333333333333334 5000021.4362
10.302069 -8.666666666666666 2.2333333333333334 5000009.06207
10.71454 -9.433333333333334 2.2333333333333334 5000021.4362
10.71454 -9.466666666666667 2.2333333333333334 5000021.4362
11.692046666666666 -9.966666666666667 2.2333333333333334 5000050.7614
10.904566666666666 -15.966666666666667 2.2333333333333334 5000027.137
10.904566666666666 -16.2 2.2333333333333334 5000027.137
10.848176666666667 -16.466666666666665 2.2333333333333334 5000025.4453
10.754146666666667 -16.566666666666666 2.2333333333333334 5000022.6244
10.904566666666666 -17.266666666666666 2.2333333333333334 5000027.137
10.904566666666666 -17.3 2.2333333333333334 5000027.137
10.754146666666667 -17.7 2.2333333333333334 5000022.6244
10.798403333333333 -17.733333333333334 2.2333333333333334 5000023.9521
11.355013333333334 1.5666666666666667 2.2 5000040.6504
11.043296666666667 -1.9 2.2 5000031.2989
11.129943333333333 -6.866666666666666 2.2 5000033.8983
11.129943333333333 -6.9 2.2 5000033.8983
10.64662 -7.133333333333334 2.2 5000019.3986
16.666666666666668 -7.466666666666667 2.2 5000200.0
10.754146666666667 -7.866666666666666 2.2 5000022.6244
10.754146666666667 -7.9 2.2 5000022.6244
10.754146666666667 -7.933333333333334 2.2 5000022.6244
10.71454 -8.633333333333333 2.2 5000021.4362
10.71454 -9.4 2.2 5000021.4362
11.043296666666667 -10.133333333333333 2.2 5000031.2989
10.798403333333333 -10.566666666666666 2.2 5000023.9521
10.798403333333333 -10.6 2.2 5000023.9521
10.798403333333333 -14.3 2.2 5000023.9521
10.798403333333333 -14.333333333333334 2.2 5000023.9521
10.754146666666667 -14.366666666666667 2.2 5000022.6244
10.754146666666667 -14.4 2.2 5000022.6244
10.678886666666667 -14.433333333333334 2.2 5000020.3666
10.590493333333333 -14.533333333333333 2.2 5000017.7148
10.590493333333333 -14.566666666666666 2.2 5000017.7148
10.904566666666666 -15.966666666666667 2.2 5000027.137
10.904566666666666 -16.2 2.2 5000027.137
11.043296666666667 -16.333333333333332 2.2 5000031.2989
10.848176666666667 -16.466666666666665 2.2 5000025.4453
10.968993333333334 -5.9 2.1666666666666665 5000029.0698
10.4852 -7.3 2.1666666666666665 5000014.556
