VERSION .7
FIELDS x y z rgb
SIZE 4 4 4 4
TYPE F F F F
COUNT 1 1 1 1
WIDTH 1380
HEIGHT 1
VIEWPOINT 0 0 0 1 0 0 0
POINTS 1380
DATA ascii
26.38116 2.9 2.84 5000036.9686
26.38116 2.42 2.84 5000036.9686
22.97934 1.76 2.84 5000031.2989
21.64188 1.66 2.84 5000029.0698
21.64188 1.64 2.84 5000029.0698
15.3111 1.16 2.84 5000018.5185
20.4822 -0.14 2.84 5000027.137
20.4822 -0.2 2.84 5000027.137
17.06172 -2.38 2.84 5000021.4362
17.06172 -2.4 2.84 5000021.4362
17.06172 -2.42 2.84 5000021.4362
17.06172 -2.44 2.84 5000021.4362
14.386740000000001 -2.52 2.84 5000016.9779
18.57126 -3.26 2.84 5000023.9521
18.57126 -3.28 2.84 5000023.9521
24.53898 -3.86 2.84 5000033.8983
26.38116 -4.42 2.84 5000036.9686
19.467180000000003 -4.52 2.84 5000025.4453
19.467180000000003 -4.54 2.84 5000025.4453
19.467180000000003 -5.58 2.84 5000025.4453
18.57126 -6.6 2.84 5000023.9521
18.57126 -6.62 2.84 5000023.9521
26.38116 2.88 2.82 5000036.9686
31.28802 1.36 2.82 5000045.1467
22.97934 1.3 2.82 5000031.2989
22.97934 1.28 2.82 5000031.2989
20.4822 -0.14 2.82 5000027.137
20.4822 -0.22 2.82 5000027.137
20.4822 -0.8 2.82 5000027.137
17.06172 -2.42 2.82 5000021.4362
14.386740000000001 -2.52 2.82 5000016.9779
24.53898 -3.86 2.82 5000033.8983
26.38116 -4.42 2.82 5000036.9686
20.4822 -4.52 2.82 5000027.137
20.4822 -4.54 2.82 5000027.137
19.467180000000003 -5.58 2.82 5000025.4453
18.57126 -6.6 2.82 5000023.9521
18.57126 -6.62 2.82 5000023.9521
22.97934 1.28 2.8 5000031.2989
22.97934 1.26 2.8 5000031.2989
20.4822 -0.14 2.8 5000027.137
20.4822 -0.8 2.8 5000027.137
17.06172 -2.42 2.8 5000021.4362
20.4822 -4.52 2.8 5000027.137
20.4822 -4.54 2.8 5000027.137
22.97934 -5.5 2.8 5000031.2989
19.467180000000003 -5.58 2.8 5000025.4453
17.77464 -6.6 2.8 5000022.6244
17.77464 -6.62 2.8 5000022.6244
26.38116 2.98 2.78 5000036.9686
26.38116 2.9 2.78 5000036.9686
17.06172 1.64 2.78 5000021.4362
22.97934 1.34 2.78 5000031.2989
20.4822 -0.22 2.78 5000027.137
20.4822 -0.26 2.78 5000027.137
20.4822 -0.28 2.78 5000027.137
17.06172 -2.42 2.78 5000021.4362
20.4822 -4.52 2.78 5000027.137
20.4822 -4.54 2.78 5000027.137
19.467180000000003 -5.58 2.78 5000025.4453
17.77464 -6.6 2.78 5000022.6244
17.77464 -6.62 2.78 5000022.6244
26.38116 2.96 2.76 5000036.9686
24.53898 1.88 2.76 5000033.8983
24.53898 1.8 2.76 5000033.8983
19.467180000000003 -0.28 2.76 5000025.4453
20.4822 -4.52 2.76 5000027.137
20.4822 -4.54 2.76 5000027.137
22.97934 -5.5 2.76 5000031.2989
19.467180000000003 -5.58 2.76 5000025.4453
17.77464 -6.62 2.76 5000022.6244
26.38116 2.96 2.74 5000036.9686
26.38116 2.4 2.74 5000036.9686
24.53898 1.88 2.74 5000033.8983
24.53898 1.78 2.74 5000033.8983
22.97934 1.76 2.74 5000031.2989
22.97934 1.74 2.74 5000031.2989
22.97934 1.72 2.74 5000031.2989
17.06172 1.62 2.74 5000021.4362
19.467180000000003 -0.24 2.74 5000025.4453
17.06172 -2.44 2.74 5000021.4362
20.4822 -3.92 2.74 5000027.137
20.4822 -3.94 2.74 5000027.137
20.4822 -3.96 2.74 5000027.137
19.467180000000003 -4.52 2.74 5000025.4453
19.467180000000003 -4.54 2.74 5000025.4453
34.65684 -5.34 2.74 5000050.7614
22.97934 -5.44 2.74 5000031.2989
17.77464 -6.6 2.74 5000022.6244
17.77464 -6.62 2.74 5000022.6244
24.53898 1.86 2.72 5000033.8983
24.53898 1.74 2.72 5000033.8983
22.97934 1.72 2.72 5000031.2989
22.97934 1.7 2.72 5000031.2989
20.4822 -0.14 2.72 5000027.137
19.467180000000003 -0.24 2.72 5000025.4453
16.419959999999996 -3.24 2.72 5000020.3666
16.419959999999996 -3.26 2.72 5000020.3666
16.419959999999996 -3.28 2.72 5000020.3666
20.4822 -3.9 2.72 5000027.137
20.4822 -3.92 2.72 5000027.137
20.4822 -3.94 2.72 5000027.137
19.467180000000003 -4.52 2.72 5000025.4453
19.467180000000003 -4.54 2.72 5000025.4453
34.65684 -5.34 2.72 5000050.7614
22.97934 -5.44 2.72 5000031.2989
19.467180000000003 -5.52 2.72 5000025.4453
17.77464 -6.6 2.72 5000022.6244
17.77464 -6.62 2.72 5000022.6244
26.38116 2.94 2.7 5000036.9686
22.97934 1.7 2.7 5000031.2989
20.4822 -0.14 2.7 5000027.137
19.467180000000003 -0.24 2.7 5000025.4453
19.467180000000003 -0.82 2.7 5000025.4453
19.467180000000003 -0.84 2.7 5000025.4453
16.419959999999996 -2.88 2.7 5000020.3666
16.419959999999996 -3.26 2.7 5000020.3666
16.419959999999996 -3.28 2.7 5000020.3666
24.53898 -3.86 2.7 5000033.8983
20.4822 -3.92 2.7 5000027.137
19.467180000000003 -4.54 2.7 5000025.4453
19.467180000000003 -5.52 2.7 5000025.4453
18.57126 -6.62 2.7 5000023.9521
28.590239999999998 1.76 2.68 5000040.6504
24.53898 1.74 2.68 5000033.8983
19.467180000000003 -0.24 2.68 5000025.4453
19.467180000000003 -0.26 2.68 5000025.4453
31.28802 -0.7 2.68 5000045.1467
19.467180000000003 -0.84 2.68 5000025.4453
17.77464 -2.42 2.68 5000022.6244
24.53898 -3.86 2.68 5000033.8983
20.4822 -3.92 2.68 5000027.137
19.467180000000003 -4.52 2.68 5000025.4453
19.467180000000003 -4.54 2.68 5000025.4453
19.467180000000003 -5.52 2.68 5000025.4453
18.57126 -6.6 2.68 5000023.9521
18.57126 -6.62 2.68 5000023.9521
44.74056 3.98 2.66 5000067.5676
44.74056 3.96 2.66 5000067.5676
28.590239999999998 1.74 2.66 5000040.6504
28.590239999999998 1.7 2.66 5000040.6504
26.38116 -0.16 2.66 5000036.9686
12.3522 -0.4 2.66 5000013.587
17.77464 -2.42 2.66 5000022.6244
17.77464 -2.44 2.66 5000022.6244
24.53898 -3.86 2.66 5000033.8983
20.4822 -3.92 2.66 5000027.137
19.467180000000003 -4.52 2.66 5000025.4453
19.467180000000003 -4.54 2.66 5000025.4453
24.53898 -5.42 2.66 5000033.8983
24.53898 -5.44 2.66 5000033.8983
19.467180000000003 -5.52 2.66 5000025.4453
18.57126 -6.62 2.66 5000023.9521
31.28802 1.7 2.64 5000045.1467
26.38116 -0.16 2.64 5000036.9686
26.38116 -0.18 2.64 5000036.9686
17.77464 -2.42 2.64 5000022.6244
17.77464 -2.44 2.64 5000022.6244
17.77464 -2.46 2.64 5000022.6244
17.06172 -3.26 2.64 5000021.4362
24.53898 -3.86 2.64 5000033.8983
20.4822 -3.92 2.64 5000027.137
20.4822 -4.52 2.64 5000027.137
20.4822 -4.54 2.64 5000027.137
19.467180000000003 -5.58 2.64 5000025.4453
18.57126 -6.62 2.64 5000023.9521
31.28802 1.74 2.62 5000045.1467
17.77464 -2.42 2.62 5000022.6244
17.77464 -2.44 2.62 5000022.6244
18.57126 -3.2 2.62 5000023.9521
18.57126 -3.24 2.62 5000023.9521
24.53898 -3.86 2.62 5000033.8983
20.4822 -3.92 2.62 5000027.137
19.467180000000003 -4.52 2.62 5000025.4453
19.467180000000003 -4.54 2.62 5000025.4453
22.97934 -5.5 2.62 5000031.2989
19.467180000000003 -5.58 2.62 5000025.4453
19.467180000000003 -5.6 2.62 5000025.4453
18.57126 -6.62 2.62 5000023.9521
26.38116 2.14 2.6 5000036.9686
24.53898 1.74 2.6 5000033.8983
28.590239999999998 0.74 2.6 5000040.6504
28.590239999999998 0.72 2.6 5000040.6504
20.4822 -0.8 2.6 5000027.137
20.4822 -0.82 2.6 5000027.137
21.64188 -2.34 2.6 5000029.0698
21.64188 -2.36 2.6 5000029.0698
17.77464 -2.44 2.6 5000022.6244
18.57126 -3.2 2.6 5000023.9521
24.53898 -3.86 2.6 5000033.8983
21.64188 -3.92 2.6 5000029.0698
19.467180000000003 -4.52 2.6 5000025.4453
19.467180000000003 -4.54 2.6 5000025.4453
19.467180000000003 -5.58 2.6 5000025.4453
19.467180000000003 -5.6 2.6 5000025.4453
18.57126 -6.6 2.6 5000023.9521
18.57126 -6.62 2.6 5000023.9521
22.97934 1.76 2.58 5000031.2989
28.590239999999998 0.72 2.58 5000040.6504
20.4822 -0.16 2.58 5000027.137
20.4822 -0.18 2.58 5000027.137
16.419959999999996 -0.26 2.58 5000020.3666
19.467180000000003 -0.4 2.58 5000025.4453
21.64188 -2.34 2.58 5000029.0698
21.64188 -2.36 2.58 5000029.0698
21.64188 -3.92 2.58 5000029.0698
19.467180000000003 -4.54 2.58 5000025.4453
19.467180000000003 -5.58 2.58 5000025.4453
19.467180000000003 -5.6 2.58 5000025.4453
18.57126 -6.62 2.58 5000023.9521
31.28802 2.02 2.56 5000045.1467
22.97934 1.76 2.56 5000031.2989
28.590239999999998 0.72 2.56 5000040.6504
19.467180000000003 -0.04 2.56 5000025.4453
20.4822 -0.18 2.56 5000027.137
20.4822 -0.8 2.56 5000027.137
20.4822 -0.82 2.56 5000027.137
21.64188 -2.34 2.56 5000029.0698
16.419959999999996 -2.72 2.56 5000020.3666
16.419959999999996 -2.74 2.56 5000020.3666
19.467180000000003 -4.54 2.56 5000025.4453
22.97934 -5.5 2.56 5000031.2989
19.467180000000003 -5.58 2.56 5000025.4453
19.467180000000003 -5.6 2.56 5000025.4453
31.28802 2.02 2.54 5000045.1467
22.97934 1.76 2.54 5000031.2989
13.979940000000001 1.6 2.54 5000016.2999
19.467180000000003 -0.04 2.54 5000025.4453
19.467180000000003 -0.06 2.54 5000025.4453
20.4822 -0.18 2.54 5000027.137
20.4822 -0.2 2.54 5000027.137
20.4822 -0.8 2.54 5000027.137
19.467180000000003 -2.64 2.54 5000025.4453
17.06172 -2.72 2.54 5000021.4362
24.53898 -3.86 2.54 5000033.8983
21.64188 -3.92 2.54 5000029.0698
19.467180000000003 -4.54 2.54 5000025.4453
22.97934 -5.26 2.54 5000031.2989
22.97934 -5.28 2.54 5000031.2989
19.467180000000003 -5.58 2.54 5000025.4453
19.467180000000003 -5.6 2.54 5000025.4453
34.65684 2.98 2.52 5000050.7614
26.38116 2.94 2.52 5000036.9686
26.38116 2.88 2.52 5000036.9686
15.83916 1.16 2.52 5000019.3986
19.467180000000003 -0.04 2.52 5000025.4453
19.467180000000003 -0.06 2.52 5000025.4453
19.467180000000003 -0.18 2.52 5000025.4453
19.467180000000003 -0.2 2.52 5000025.4453
19.467180000000003 -0.64 2.52 5000025.4453
19.467180000000003 -2.64 2.52 5000025.4453
17.06172 -3.24 2.52 5000021.4362
17.06172 -3.26 2.52 5000021.4362
24.53898 -3.86 2.52 5000033.8983
21.64188 -3.92 2.52 5000029.0698
19.467180000000003 -4.54 2.52 5000025.4453
22.97934 -5.28 2.52 5000031.2989
19.467180000000003 -5.58 2.52 5000025.4453
19.467180000000003 -5.6 2.52 5000025.4453
34.65684 2.98 2.5 5000050.7614
26.38116 2.92 2.5 5000036.9686
22.97934 1.76 2.5 5000031.2989
21.64188 1.26 2.5 5000029.0698
19.467180000000003 -0.06 2.5 5000025.4453
19.467180000000003 -0.18 2.5 5000025.4453
17.06172 -2.72 2.5 5000021.4362
17.06172 -3.26 2.5 5000021.4362
17.06172 -3.28 2.5 5000021.4362
21.64188 -3.92 2.5 5000029.0698
19.467180000000003 -4.54 2.5 5000025.4453
22.97934 -5.28 2.5 5000031.2989
22.97934 -5.3 2.5 5000031.2989
22.97934 -5.5 2.5 5000031.2989
19.467180000000003 -5.58 2.5 5000025.4453
17.77464 -6.62 2.5 5000022.6244
17.77464 -6.64 2.5 5000022.6244
17.06172 -6.68 2.5 5000021.4362
26.38116 2.92 2.48 5000036.9686
22.97934 1.8 2.48 5000031.2989
22.97934 1.76 2.48 5000031.2989
28.590239999999998 0.72 2.48 5000040.6504
20.4822 -0.06 2.48 5000027.137
19.467180000000003 -0.18 2.48 5000025.4453
17.06172 -2.36 2.48 5000021.4362
17.06172 -2.38 2.48 5000021.4362
16.419959999999996 -2.54 2.48 5000020.3666
16.419959999999996 -2.56 2.48 5000020.3666
17.06172 -3.26 2.48 5000021.4362
21.64188 -3.92 2.48 5000029.0698
21.64188 -3.94 2.48 5000029.0698
19.467180000000003 -4.54 2.48 5000025.4453
19.467180000000003 -5.34 2.48 5000025.4453
19.467180000000003 -5.58 2.48 5000025.4453
19.467180000000003 -5.6 2.48 5000025.4453
19.467180000000003 -6.56 2.48 5000025.4453
18.57126 -6.6 2.48 5000023.9521
17.77464 -6.62 2.48 5000022.6244
26.38116 2.92 2.46 5000036.9686
22.97934 1.8 2.46 5000031.2989
28.590239999999998 1.12 2.46 5000040.6504
20.4822 -0.06 2.46 5000027.137
20.4822 -0.08 2.46 5000027.137
19.467180000000003 -0.18 2.46 5000025.4453
19.467180000000003 -0.2 2.46 5000025.4453
17.06172 -2.36 2.46 5000021.4362
17.06172 -2.38 2.46 5000021.4362
17.06172 -2.4 2.46 5000021.4362
16.419959999999996 -2.54 2.46 5000020.3666
16.419959999999996 -2.56 2.46 5000020.3666
16.419959999999996 -2.58 2.46 5000020.3666
16.419959999999996 -2.98 2.46 5000020.3666
16.419959999999996 -3.0 2.46 5000020.3666
21.64188 -3.92 2.46 5000029.0698
20.4822 -4.54 2.46 5000027.137
19.467180000000003 -5.36 2.46 5000025.4453
19.467180000000003 -5.58 2.46 5000025.4453
19.467180000000003 -5.6 2.46 5000025.4453
19.467180000000003 -6.54 2.46 5000025.4453
19.467180000000003 -6.56 2.46 5000025.4453
18.57126 -6.6 2.46 5000023.9521
17.77464 -6.62 2.46 5000022.6244
28.590239999999998 4.16 2.44 5000040.6504
38.9826 3.12 2.44 5000057.971
26.38116 2.92 2.44 5000036.9686
26.38116 2.44 2.44 5000036.9686
20.4822 -0.06 2.44 5000027.137
20.4822 -0.08 2.44 5000027.137
20.4822 -0.18 2.44 5000027.137
17.06172 -2.38 2.44 5000021.4362
16.419959999999996 -3.0 2.44 5000020.3666
16.419959999999996 -3.02 2.44 5000020.3666
17.06172 -3.22 2.44 5000021.4362
21.64188 -3.92 2.44 5000029.0698
21.64188 -3.94 2.44 5000029.0698
20.4822 -4.54 2.44 5000027.137
22.97934 -5.5 2.44 5000031.2989
19.467180000000003 -5.58 2.44 5000025.4453
19.467180000000003 -5.6 2.44 5000025.4453
17.77464 -6.68 2.44 5000022.6244
28.590239999999998 4.16 2.42 5000040.6504
38.9826 3.12 2.42 5000057.971
38.9826 3.1 2.42 5000057.971
17.06172 1.7 2.42 5000021.4362
20.4822 -0.08 2.42 5000027.137
20.4822 -0.1 2.42 5000027.137
19.467180000000003 -0.76 2.42 5000025.4453
17.77464 -2.38 2.42 5000022.6244
16.419959999999996 -2.84 2.42 5000020.3666
16.419959999999996 -3.0 2.42 5000020.3666
17.06172 -3.22 2.42 5000021.4362
21.64188 -3.92 2.42 5000029.0698
21.64188 -3.94 2.42 5000029.0698
20.4822 -4.54 2.42 5000027.137
22.97934 -5.44 2.42 5000031.2989
22.97934 -5.5 2.42 5000031.2989
19.467180000000003 -5.58 2.42 5000025.4453
19.467180000000003 -5.6 2.42 5000025.4453
17.77464 -6.66 2.42 5000022.6244
17.77464 -6.68 2.42 5000022.6244
34.65684 4.04 2.4 5000050.7614
26.38116 2.46 2.4 5000036.9686
17.06172 1.68 2.4 5000021.4362
28.590239999999998 0.72 2.4 5000040.6504
20.4822 -0.08 2.4 5000027.137
20.4822 -0.1 2.4 5000027.137
19.467180000000003 -0.74 2.4 5000025.4453
19.467180000000003 -0.76 2.4 5000025.4453
17.77464 -2.38 2.4 5000022.6244
17.77464 -2.4 2.4 5000022.6244
17.06172 -3.2 2.4 5000021.4362
21.64188 -3.92 2.4 5000029.0698
21.64188 -3.94 2.4 5000029.0698
20.4822 -4.54 2.4 5000027.137
22.97934 -5.44 2.4 5000031.2989
22.97934 -5.5 2.4 5000031.2989
22.97934 -5.52 2.4 5000031.2989
19.467180000000003 -5.58 2.4 5000025.4453
17.77464 -6.54 2.4 5000022.6244
17.77464 -6.66 2.4 5000022.6244
17.77464 -6.68 2.4 5000022.6244
31.28802 4.22 2.38 5000045.1467
34.65684 4.04 2.38 5000050.7614
26.38116 2.46 2.38 5000036.9686
17.06172 1.68 2.38 5000021.4362
20.4822 -0.08 2.38 5000027.137
20.4822 -0.1 2.38 5000027.137
19.467180000000003 -0.74 2.38 5000025.4453
19.467180000000003 -0.76 2.38 5000025.4453
17.77464 -2.38 2.38 5000022.6244
21.64188 -3.92 2.38 5000029.0698
21.64188 -3.94 2.38 5000029.0698
20.4822 -4.54 2.38 5000027.137
22.97934 -5.5 2.38 5000031.2989
19.467180000000003 -5.6 2.38 5000025.4453
17.77464 -6.54 2.38 5000022.6244
17.77464 -6.66 2.38 5000022.6244
17.77464 -6.68 2.38 5000022.6244
34.65684 4.94 2.36 5000050.7614
44.74056 3.26 2.36 5000067.5676
44.74056 3.24 2.36 5000067.5676
26.38116 2.46 2.36 5000036.9686
22.97934 1.76 2.36 5000031.2989
20.4822 -0.1 2.36 5000027.137
20.4822 -0.12 2.36 5000027.137
17.77464 -2.38 2.36 5000022.6244
26.38116 -2.82 2.36 5000036.9686
21.64188 -3.92 2.36 5000029.0698
21.64188 -3.94 2.36 5000029.0698
26.38116 -4.44 2.36 5000036.9686
20.4822 -4.54 2.36 5000027.137
17.77464 -6.66 2.36 5000022.6244
17.77464 -6.68 2.36 5000022.6244
34.65684 4.94 2.34 5000050.7614
34.65684 4.92 2.34 5000050.7614
34.65684 4.88 2.34 5000050.7614
28.590239999999998 4.22 2.34 5000040.6504
24.53898 2.9 2.34 5000033.8983
26.38116 2.44 2.34 5000036.9686
22.97934 1.88 2.34 5000031.2989
22.97934 1.18 2.34 5000031.2989
15.3111 -0.22 2.34 5000018.5185
19.467180000000003 -0.7 2.34 5000025.4453
17.06172 -3.18 2.34 5000021.4362
17.06172 -3.2 2.34 5000021.4362
17.06172 -3.22 2.34 5000021.4362
26.38116 -3.86 2.34 5000036.9686
21.64188 -3.92 2.34 5000029.0698
21.64188 -3.94 2.34 5000029.0698
26.38116 -4.44 2.34 5000036.9686
20.4822 -4.54 2.34 5000027.137
17.77464 -6.54 2.34 5000022.6244
17.77464 -6.68 2.34 5000022.6244
34.65684 4.94 2.32 5000050.7614
31.28802 4.92 2.32 5000045.1467
28.590239999999998 4.2 2.32 5000040.6504
24.53898 2.86 2.32 5000033.8983
22.97934 1.86 2.32 5000031.2989
20.4822 -0.08 2.32 5000027.137
19.467180000000003 -0.14 2.32 5000025.4453
19.467180000000003 -0.72 2.32 5000025.4453
21.64188 -2.36 2.32 5000029.0698
17.06172 -2.44 2.32 5000021.4362
17.06172 -2.46 2.32 5000021.4362
17.06172 -2.48 2.32 5000021.4362
17.06172 -3.2 2.32 5000021.4362
17.06172 -3.22 2.32 5000021.4362
20.4822 -4.54 2.32 5000027.137
17.77464 -6.54 2.32 5000022.6244
17.77464 -6.68 2.32 5000022.6244
28.590239999999998 4.2 2.3 5000040.6504
28.590239999999998 4.18 2.3 5000040.6504
44.74056 3.38 2.3 5000067.5676
26.38116 2.84 2.3 5000036.9686
22.97934 1.86 2.3 5000031.2989
21.64188 1.84 2.3 5000029.0698
21.64188 1.8 2.3 5000029.0698
22.97934 -0.08 2.3 5000031.2989
20.4822 -0.12 2.3 5000027.137
19.467180000000003 -0.14 2.3 5000025.4453
21.64188 -2.34 2.3 5000029.0698
21.64188 -2.36 2.3 5000029.0698
17.06172 -2.46 2.3 5000021.4362
17.06172 -2.48 2.3 5000021.4362
17.06172 -3.2 2.3 5000021.4362
20.4822 -4.54 2.3 5000027.137
19.467180000000003 -5.52 2.3 5000025.4453
18.57126 -5.54 2.3 5000023.9521
17.77464 -6.54 2.3 5000022.6244
17.77464 -6.68 2.3 5000022.6244
31.28802 4.94 2.28 5000045.1467
28.590239999999998 4.18 2.28 5000040.6504
44.74056 3.38 2.28 5000067.5676
38.9826 2.98 2.28 5000057.971
26.38116 2.92 2.28 5000036.9686
21.64188 1.84 2.28 5000029.0698
21.64188 1.8 2.28 5000029.0698
28.590239999999998 0.72 2.28 5000040.6504
28.590239999999998 0.68 2.28 5000040.6504
19.467180000000003 -0.14 2.28 5000025.4453
19.467180000000003 -0.16 2.28 5000025.4453
19.467180000000003 -0.74 2.28 5000025.4453
19.467180000000003 -0.76 2.28 5000025.4453
20.4822 -4.54 2.28 5000027.137
20.4822 -5.46 2.28 5000027.137
19.467180000000003 -5.5 2.28 5000025.4453
19.467180000000003 -5.52 2.28 5000025.4453
17.77464 -6.54 2.28 5000022.6244
17.77464 -6.68 2.28 5000022.6244
31.28802 4.94 2.26 5000045.1467
34.65684 4.88 2.26 5000050.7614
38.9826 2.98 2.26 5000057.971
26.38116 2.92 2.26 5000036.9686
26.38116 2.9 2.26 5000036.9686
15.3111 1.68 2.26 5000018.5185
21.64188 1.1 2.26 5000029.0698
28.590239999999998 0.72 2.26 5000040.6504
24.53898 -0.06 2.26 5000033.8983
24.53898 -0.08 2.26 5000033.8983
16.419959999999996 -2.82 2.26 5000020.3666
17.77464 -3.2 2.26 5000022.6244
20.4822 -3.94 2.26 5000027.137
20.4822 -3.96 2.26 5000027.137
20.4822 -4.54 2.26 5000027.137
19.467180000000003 -5.5 2.26 5000025.4453
18.57126 -5.56 2.26 5000023.9521
18.57126 -5.58 2.26 5000023.9521
18.57126 -5.6 2.26 5000023.9521
17.77464 -6.54 2.26 5000022.6244
17.77464 -6.68 2.26 5000022.6244
31.28802 4.96 2.24 5000045.1467
31.28802 4.94 2.24 5000045.1467
44.74056 3.52 2.24 5000067.5676
26.38116 2.9 2.24 5000036.9686
24.53898 -0.08 2.24 5000033.8983
15.83916 -2.48 2.24 5000019.3986
20.4822 -3.92 2.24 5000027.137
20.4822 -3.94 2.24 5000027.137
20.4822 -4.54 2.24 5000027.137
20.4822 -4.56 2.24 5000027.137
19.467180000000003 -5.44 2.24 5000025.4453
20.4822 -5.5 2.24 5000027.137
18.57126 -5.56 2.24 5000023.9521
19.467180000000003 -5.58 2.24 5000025.4453
19.467180000000003 -5.6 2.24 5000025.4453
24.53898 -6.06 2.24 5000033.8983
17.77464 -6.54 2.24 5000022.6244
17.77464 -6.68 2.24 5000022.6244
31.28802 4.94 2.22 5000045.1467
31.28802 4.92 2.22 5000045.1467
44.74056 3.5 2.22 5000067.5676
22.97934 1.8 2.22 5000031.2989
22.97934 1.78 2.22 5000031.2989
20.4822 0.0 2.22 5000027.137
20.4822 -0.02 2.22 5000027.137
24.53898 -0.08 2.22 5000033.8983
20.4822 -0.28 2.22 5000027.137
19.467180000000003 -2.36 2.22 5000025.4453
18.57126 -2.38 2.22 5000023.9521
16.419959999999996 -2.44 2.22 5000020.3666
16.419959999999996 -2.94 2.22 5000020.3666
16.419959999999996 -2.96 2.22 5000020.3666
20.4822 -3.92 2.22 5000027.137
20.4822 -3.94 2.22 5000027.137
20.4822 -4.52 2.22 5000027.137
20.4822 -4.54 2.22 5000027.137
19.467180000000003 -5.44 2.22 5000025.4453
19.467180000000003 -5.56 2.22 5000025.4453
19.467180000000003 -5.58 2.22 5000025.4453
17.77464 -6.54 2.22 5000022.6244
17.77464 -6.68 2.22 5000022.6244
34.65684 4.92 2.2 5000050.7614
22.97934 1.78 2.2 5000031.2989
22.97934 1.76 2.2 5000031.2989
20.4822 -0.02 2.2 5000027.137
20.4822 -0.08 2.2 5000027.137
19.467180000000003 -2.36 2.2 5000025.4453
18.57126 -2.38 2.2 5000023.9521
17.06172 -2.42 2.2 5000021.4362
17.06172 -2.44 2.2 5000021.4362
17.06172 -2.46 2.2 5000021.4362
16.419959999999996 -2.94 2.2 5000020.3666
16.419959999999996 -2.96 2.2 5000020.3666
16.419959999999996 -3.18 2.2 5000020.3666
16.419959999999996 -3.2 2.2 5000020.3666
21.64188 -3.88 2.2 5000029.0698
20.4822 -3.92 2.2 5000027.137
20.4822 -3.94 2.2 5000027.137
19.467180000000003 -5.44 2.2 5000025.4453
19.467180000000003 -5.56 2.2 5000025.4453
19.467180000000003 -5.58 2.2 5000025.4453
17.77464 -6.68 2.2 5000022.6244
31.28802 4.98 2.18 5000045.1467
34.65684 4.64 2.18 5000050.7614
28.590239999999998 4.24 2.18 5000040.6504
11.394240000000002 3.94 2.18 5000011.9904
11.843340000000001 3.88 2.18 5000012.7389
44.74056 3.64 2.18 5000067.5676
26.38116 3.0 2.18 5000036.9686
26.38116 2.88 2.18 5000036.9686
22.97934 1.76 2.18 5000031.2989
22.97934 1.74 2.18 5000031.2989
18.57126 1.66 2.18 5000023.9521
22.97934 1.24 2.18 5000031.2989
22.97934 1.18 2.18 5000031.2989
20.4822 -0.02 2.18 5000027.137
19.467180000000003 -0.24 2.18 5000025.4453
17.06172 -2.42 2.18 5000021.4362
17.06172 -2.44 2.18 5000021.4362
22.97934 -2.84 2.18 5000031.2989
16.419959999999996 -2.94 2.18 5000020.3666
16.419959999999996 -2.96 2.18 5000020.3666
16.419959999999996 -3.16 2.18 5000020.3666
21.64188 -3.92 2.18 5000029.0698
20.4822 -3.94 2.18 5000027.137
19.467180000000003 -5.56 2.18 5000025.4453
19.467180000000003 -5.58 2.18 5000025.4453
17.77464 -6.54 2.18 5000022.6244
17.77464 -6.68 2.18 5000022.6244
26.38116 5.0 2.16 5000036.9686
34.65684 4.96 2.16 5000050.7614
11.843340000000001 3.86 2.16 5000012.7389
11.843340000000001 3.84 2.16 5000012.7389
44.74056 3.62 2.16 5000067.5676
26.38116 3.0 2.16 5000036.9686
26.38116 2.98 2.16 5000036.9686
24.53898 1.82 2.16 5000033.8983
22.97934 1.76 2.16 5000031.2989
22.97934 1.74 2.16 5000031.2989
18.57126 1.66 2.16 5000023.9521
22.97934 1.16 2.16 5000031.2989
20.4822 -0.02 2.16 5000027.137
20.4822 -0.1 2.16 5000027.137
20.4822 -0.28 2.16 5000027.137
24.53898 -2.28 2.16 5000033.8983
17.06172 -2.42 2.16 5000021.4362
22.97934 -2.82 2.16 5000031.2989
21.64188 -3.92 2.16 5000029.0698
21.64188 -3.94 2.16 5000029.0698
19.467180000000003 -5.44 2.16 5000025.4453
19.467180000000003 -5.46 2.16 5000025.4453
19.467180000000003 -5.56 2.16 5000025.4453
19.467180000000003 -5.58 2.16 5000025.4453
17.77464 -6.68 2.16 5000022.6244
31.28802 5.0 2.14 5000045.1467
31.28802 4.96 2.14 5000045.1467
31.28802 4.94 2.14 5000045.1467
11.843340000000001 3.82 2.14 5000012.7389
26.38116 3.0 2.14 5000036.9686
26.38116 2.98 2.14 5000036.9686
22.97934 1.82 2.14 5000031.2989
22.97934 1.74 2.14 5000031.2989
22.97934 1.72 2.14 5000031.2989
22.97934 1.16 2.14 5000031.2989
22.97934 -1.46 2.14 5000031.2989
16.419959999999996 -2.5 2.14 5000020.3666
21.64188 -3.06 2.14 5000029.0698
20.4822 -3.94 2.14 5000027.137
19.467180000000003 -4.54 2.14 5000025.4453
19.467180000000003 -4.56 2.14 5000025.4453
19.467180000000003 -5.44 2.14 5000025.4453
19.467180000000003 -5.46 2.14 5000025.4453
19.467180000000003 -5.56 2.14 5000025.4453
19.467180000000003 -5.58 2.14 5000025.4453
17.77464 -6.68 2.14 5000022.6244
34.65684 4.92 2.12 5000050.7614
38.9826 3.74 2.12 5000057.971
26.38116 3.0 2.12 5000036.9686
26.38116 2.9 2.12 5000036.9686
26.38116 2.88 2.12 5000036.9686
24.53898 1.8 2.12 5000033.8983
24.53898 -1.46 2.12 5000033.8983
31.28802 -2.96 2.12 5000045.1467
21.64188 -3.06 2.12 5000029.0698
20.4822 -3.92 2.12 5000027.137
24.53898 -4.44 2.12 5000033.8983
19.467180000000003 -4.52 2.12 5000025.4453
19.467180000000003 -4.54 2.12 5000025.4453
19.467180000000003 -4.56 2.12 5000025.4453
22.97934 -5.22 2.12 5000031.2989
19.467180000000003 -5.44 2.12 5000025.4453
19.467180000000003 -5.46 2.12 5000025.4453
19.467180000000003 -5.56 2.12 5000025.4453
19.467180000000003 -5.58 2.12 5000025.4453
19.467180000000003 -5.6 2.12 5000025.4453
17.77464 -6.68 2.12 5000022.6244
34.65684 4.98 2.1 5000050.7614
38.9826 3.74 2.1 5000057.971
26.38116 3.0 2.1 5000036.9686
26.38116 2.98 2.1 5000036.9686
26.38116 2.86 2.1 5000036.9686
31.28802 2.46 2.1 5000045.1467
19.467180000000003 -0.04 2.1 5000025.4453
19.467180000000003 -0.76 2.1 5000025.4453
26.38116 -1.24 2.1 5000036.9686
34.65684 -1.36 2.1 5000050.7614
24.53898 -1.48 2.1 5000033.8983
17.06172 -2.38 2.1 5000021.4362
21.64188 -3.04 2.1 5000029.0698
17.06172 -3.14 2.1 5000021.4362
20.4822 -3.94 2.1 5000027.137
24.53898 -4.44 2.1 5000033.8983
19.467180000000003 -5.44 2.1 5000025.4453
19.467180000000003 -5.46 2.1 5000025.4453
19.467180000000003 -5.56 2.1 5000025.4453
19.467180000000003 -5.58 2.1 5000025.4453
17.77464 -6.68 2.1 5000022.6244
17.77464 -6.7 2.1 5000022.6244
34.65684 4.98 2.08 5000050.7614
34.65684 4.96 2.08 5000050.7614
31.28802 4.68 2.08 5000045.1467
26.38116 3.0 2.08 5000036.9686
26.38116 2.98 2.08 5000036.9686
26.38116 2.86 2.08 5000036.9686
26.38116 2.84 2.08 5000036.9686
31.28802 2.46 2.08 5000045.1467
31.28802 2.44 2.08 5000045.1467
26.38116 0.04 2.08 5000036.9686
19.467180000000003 -0.04 2.08 5000025.4453
15.3111 -0.14 2.08 5000018.5185
34.65684 -1.4 2.08 5000050.7614
24.53898 -1.48 2.08 5000033.8983
17.06172 -2.38 2.08 5000021.4362
17.06172 -2.4 2.08 5000021.4362
17.06172 -3.16 2.08 5000021.4362
17.06172 -3.18 2.08 5000021.4362
21.64188 -3.92 2.08 5000029.0698
21.64188 -3.94 2.08 5000029.0698
21.64188 -4.52 2.08 5000029.0698
21.64188 -4.54 2.08 5000029.0698
19.467180000000003 -4.6 2.08 5000025.4453
19.467180000000003 -5.44 2.08 5000025.4453
19.467180000000003 -5.46 2.08 5000025.4453
19.467180000000003 -5.56 2.08 5000025.4453
19.467180000000003 -5.58 2.08 5000025.4453
19.467180000000003 -5.6 2.08 5000025.4453
18.57126 -6.68 2.08 5000023.9521
34.65684 4.96 2.06 5000050.7614
34.65684 4.94 2.06 5000050.7614
34.65684 4.92 2.06 5000050.7614
34.65684 4.68 2.06 5000050.7614
34.65684 4.66 2.06 5000050.7614
26.38116 2.98 2.06 5000036.9686
31.28802 2.44 2.06 5000045.1467
34.65684 2.16 2.06 5000050.7614
26.38116 0.04 2.06 5000036.9686
34.65684 -1.4 2.06 5000050.7614
17.06172 -2.38 2.06 5000021.4362
17.06172 -2.4 2.06 5000021.4362
14.386740000000001 -2.52 2.06 5000016.9779
17.06172 -3.18 2.06 5000021.4362
17.06172 -3.2 2.06 5000021.4362
24.53898 -3.88 2.06 5000033.8983
21.64188 -3.92 2.06 5000029.0698
20.4822 -3.94 2.06 5000027.137
22.97934 -4.52 2.06 5000031.2989
26.38116 -5.3 2.06 5000036.9686
26.38116 -5.32 2.06 5000036.9686
19.467180000000003 -5.44 2.06 5000025.4453
19.467180000000003 -5.46 2.06 5000025.4453
19.467180000000003 -5.56 2.06 5000025.4453
19.467180000000003 -5.58 2.06 5000025.4453
18.57126 -6.68 2.06 5000023.9521
18.57126 -6.7 2.06 5000023.9521
34.65684 4.96 2.04 5000050.7614
34.65684 4.94 2.04 5000050.7614
34.65684 4.66 2.04 5000050.7614
34.65684 4.64 2.04 5000050.7614
10.637759999999998 4.2 2.04 5000010.7296
34.65684 2.16 2.04 5000050.7614
22.97934 1.86 2.04 5000031.2989
22.97934 1.84 2.04 5000031.2989
26.38116 0.04 2.04 5000036.9686
16.419959999999996 -0.04 2.04 5000020.3666
24.53898 -1.32 2.04 5000033.8983
24.53898 -1.34 2.04 5000033.8983
34.65684 -1.4 2.04 5000050.7614
17.06172 -2.38 2.04 5000021.4362
17.06172 -2.4 2.04 5000021.4362
17.06172 -2.42 2.04 5000021.4362
14.386740000000001 -2.52 2.04 5000016.9779
24.53898 -3.88 2.04 5000033.8983
22.97934 -4.52 2.04 5000031.2989
20.4822 -4.6 2.04 5000027.137
124.19999999999999 -5.12 2.04 5000200.0
26.38116 -5.3 2.04 5000036.9686
26.38116 -5.32 2.04 5000036.9686
19.467180000000003 -5.44 2.04 5000025.4453
19.467180000000003 -5.46 2.04 5000025.4453
19.467180000000003 -5.56 2.04 5000025.4453
19.467180000000003 -5.58 2.04 5000025.4453
18.57126 -6.68 2.04 5000023.9521
34.65684 4.64 2.02 5000050.7614
12.08952 4.26 2.02 5000013.1492
22.97934 1.86 2.02 5000031.2989
22.97934 1.84 2.02 5000031.2989
22.97934 1.82 2.02 5000031.2989
20.4822 1.78 2.02 5000027.137
19.467180000000003 1.72 2.02 5000025.4453
16.419959999999996 -0.04 2.02 5000020.3666
20.4822 -0.7 2.02 5000027.137
20.4822 -0.72 2.02 5000027.137
44.74056 -1.22 2.02 5000067.5676
24.53898 -1.32 2.02 5000033.8983
17.77464 -2.4 2.02 5000022.6244
16.419959999999996 -2.88 2.02 5000020.3666
20.4822 -3.94 2.02 5000027.137
21.64188 -4.58 2.02 5000029.0698
26.38116 -5.3 2.02 5000036.9686
26.38116 -5.32 2.02 5000036.9686
19.467180000000003 -5.44 2.02 5000025.4453
19.467180000000003 -5.46 2.02 5000025.4453
19.467180000000003 -5.56 2.02 5000025.4453
19.467180000000003 -5.58 2.02 5000025.4453
19.467180000000003 -6.06 2.02 5000025.4453
19.467180000000003 -6.08 2.02 5000025.4453
19.467180000000003 -6.1 2.02 5000025.4453
18.57126 -6.68 2.02 5000023.9521
18.57126 -6.7 2.02 5000023.9521
34.65684 4.64 2.0 5000050.7614
11.843340000000001 4.14 2.0 5000012.7389
11.843340000000001 4.12 2.0 5000012.7389
26.38116 2.98 2.0 5000036.9686
22.97934 1.82 2.0 5000031.2989
21.64188 1.78 2.0 5000029.0698
19.467180000000003 1.76 2.0 5000025.4453
18.57126 1.7 2.0 5000023.9521
24.53898 1.08 2.0 5000033.8983
20.4822 0.04 2.0 5000027.137
16.419959999999996 -0.04 2.0 5000020.3666
20.4822 -0.72 2.0 5000027.137
20.4822 -0.74 2.0 5000027.137
44.74056 -1.22 2.0 5000067.5676
26.38116 -1.3 2.0 5000036.9686
26.38116 -1.32 2.0 5000036.9686
17.77464 -2.4 2.0 5000022.6244
17.77464 -2.42 2.0 5000022.6244
24.53898 -3.04 2.0 5000033.8983
24.53898 -3.88 2.0 5000033.8983
20.4822 -3.94 2.0 5000027.137
21.64188 -4.58 2.0 5000029.0698
21.64188 -4.6 2.0 5000029.0698
19.467180000000003 -5.44 2.0 5000025.4453
19.467180000000003 -5.46 2.0 5000025.4453
19.467180000000003 -5.56 2.0 5000025.4453
19.467180000000003 -5.58 2.0 5000025.4453
19.467180000000003 -5.6 2.0 5000025.4453
18.57126 -6.68 2.0 5000023.9521
34.65684 5.5 1.98 5000050.7614
31.28802 5.0 1.98 5000045.1467
34.65684 4.98 1.98 5000050.7614
34.65684 4.64 1.98 5000050.7614
11.843340000000001 4.12 1.98 5000012.7389
26.38116 2.98 1.98 5000036.9686
22.97934 1.82 1.98 5000031.2989
20.4822 1.76 1.98 5000027.137
20.4822 0.04 1.98 5000027.137
20.4822 0.02 1.98 5000027.137
16.419959999999996 -0.04 1.98 5000020.3666
16.419959999999996 -0.06 1.98 5000020.3666
15.3111 -0.16 1.98 5000018.5185
52.78302 -1.2 1.98 5000080.9717
52.78302 -1.22 1.98 5000080.9717
26.38116 -1.3 1.98 5000036.9686
26.38116 -1.32 1.98 5000036.9686
17.77464 -2.4 1.98 5000022.6244
17.77464 -2.42 1.98 5000022.6244
17.06172 -3.28 1.98 5000021.4362
24.53898 -3.88 1.98 5000033.8983
21.64188 -3.94 1.98 5000029.0698
22.97934 -4.52 1.98 5000031.2989
21.64188 -4.58 1.98 5000029.0698
19.467180000000003 -5.44 1.98 5000025.4453
19.467180000000003 -5.46 1.98 5000025.4453
19.467180000000003 -5.56 1.98 5000025.4453
19.467180000000003 -5.58 1.98 5000025.4453
19.467180000000003 -5.6 1.98 5000025.4453
18.57126 -6.68 1.98 5000023.9521
34.65684 5.5 1.96 5000050.7614
34.65684 5.48 1.96 5000050.7614
34.65684 5.38 1.96 5000050.7614
34.65684 4.98 1.96 5000050.7614
31.28802 4.96 1.96 5000045.1467
34.65684 4.92 1.96 5000050.7614
26.38116 2.96 1.96 5000036.9686
22.97934 1.8 1.96 5000031.2989
12.63288 1.54 1.96 5000014.0548
28.590239999999998 0.72 1.96 5000040.6504
20.4822 0.04 1.96 5000027.137
20.4822 0.02 1.96 5000027.137
16.419959999999996 -0.04 1.96 5000020.3666
16.419959999999996 -0.06 1.96 5000020.3666
15.3111 -0.16 1.96 5000018.5185
52.78302 -1.2 1.96 5000080.9717
26.38116 -1.3 1.96 5000036.9686
17.77464 -2.4 1.96 5000022.6244
17.77464 -2.42 1.96 5000022.6244
17.77464 -2.44 1.96 5000022.6244
17.06172 -2.46 1.96 5000021.4362
15.83916 -2.48 1.96 5000019.3986
17.06172 -3.28 1.96 5000021.4362
24.53898 -3.88 1.96 5000033.8983
22.97934 -3.92 1.96 5000031.2989
21.64188 -3.94 1.96 5000029.0698
21.64188 -4.58 1.96 5000029.0698
124.19999999999999 -5.14 1.96 5000200.0
84.7368 -5.16 1.96 5000134.228
84.7368 -5.2 1.96 5000134.228
19.467180000000003 -5.44 1.96 5000025.4453
19.467180000000003 -5.46 1.96 5000025.4453
19.467180000000003 -5.56 1.96 5000025.4453
19.467180000000003 -5.58 1.96 5000025.4453
19.467180000000003 -5.6 1.96 5000025.4453
18.57126 -6.66 1.96 5000023.9521
18.57126 -6.68 1.96 5000023.9521
34.65684 5.48 1.94 5000050.7614
31.28802 4.96 1.94 5000045.1467
34.65684 4.94 1.94 5000050.7614
22.97934 1.78 1.94 5000031.2989
22.97934 1.76 1.94 5000031.2989
14.82888 1.62 1.94 5000017.7148
12.63288 1.52 1.94 5000014.0548
28.590239999999998 0.72 1.94 5000040.6504
20.4822 0.02 1.94 5000027.137
16.419959999999996 -0.06 1.94 5000020.3666
52.78302 -1.2 1.94 5000080.9717
17.06172 -2.42 1.94 5000021.4362
22.97934 -3.92 1.94 5000031.2989
21.64188 -3.94 1.94 5000029.0698
20.4822 -4.46 1.94 5000027.137
21.64188 -4.58 1.94 5000029.0698
19.467180000000003 -5.44 1.94 5000025.4453
19.467180000000003 -5.46 1.94 5000025.4453
19.467180000000003 -5.56 1.94 5000025.4453
19.467180000000003 -5.58 1.94 5000025.4453
19.467180000000003 -5.6 1.94 5000025.4453
18.57126 -6.68 1.94 5000023.9521
38.9826 5.56 1.92 5000057.971
34.65684 5.48 1.92 5000050.7614
34.65684 4.96 1.92 5000050.7614
34.65684 4.94 1.92 5000050.7614
31.28802 4.68 1.92 5000045.1467
24.53898 2.98 1.92 5000033.8983
22.97934 1.76 1.92 5000031.2989
22.97934 1.74 1.92 5000031.2989
18.57126 1.68 1.92 5000023.9521
20.4822 0.02 1.92 5000027.137
17.06172 -0.06 1.92 5000021.4362
17.06172 -0.08 1.92 5000021.4362
15.83916 -1.52 1.92 5000019.3986
17.06172 -3.26 1.92 5000021.4362
17.06172 -3.28 1.92 5000021.4362
22.97934 -3.88 1.92 5000031.2989
22.97934 -3.92 1.92 5000031.2989
21.64188 -3.94 1.92 5000029.0698
21.64188 -4.58 1.92 5000029.0698
19.467180000000003 -5.44 1.92 5000025.4453
19.467180000000003 -5.46 1.92 5000025.4453
19.467180000000003 -5.56 1.92 5000025.4453
19.467180000000003 -5.58 1.92 5000025.4453
18.57126 -6.68 1.92 5000023.9521
38.9826 5.56 1.9 5000057.971
34.65684 3.04 1.9 5000050.7614
22.97934 1.74 1.9 5000031.2989
22.97934 1.72 1.9 5000031.2989
18.57126 1.68 1.9 5000023.9521
20.4822 0.02 1.9 5000027.137
20.4822 0.0 1.9 5000027.137
19.467180000000003 -0.06 1.9 5000025.4453
19.467180000000003 -0.08 1.9 5000025.4453
17.06172 -1.44 1.9 5000021.4362
17.77464 -2.44 1.9 5000022.6244
17.77464 -2.46 1.9 5000022.6244
13.979940000000001 -2.56 1.9 5000016.2999
17.77464 -3.26 1.9 5000022.6244
17.77464 -3.28 1.9 5000022.6244
21.64188 -3.94 1.9 5000029.0698
21.64188 -4.58 1.9 5000029.0698
19.467180000000003 -5.44 1.9 5000025.4453
19.467180000000003 -5.46 1.9 5000025.4453
19.467180000000003 -5.56 1.9 5000025.4453
19.467180000000003 -5.58 1.9 5000025.4453
19.467180000000003 -5.6 1.9 5000025.4453
18.57126 -6.66 1.9 5000023.9521
18.57126 -6.68 1.9 5000023.9521
18.57126 -6.7 1.9 5000023.9521
34.65684 5.36 1.88 5000050.7614
31.28802 4.94 1.88 5000045.1467
20.4822 0.0 1.88 5000027.137
24.53898 -1.3 1.88 5000033.8983
24.53898 -1.32 1.88 5000033.8983
15.83916 -1.5 1.88 5000019.3986
17.77464 -2.42 1.88 5000022.6244
17.06172 -2.44 1.88 5000021.4362
17.06172 -2.46 1.88 5000021.4362
17.06172 -2.48 1.88 5000021.4362
17.77464 -3.26 1.88 5000022.6244
17.77464 -3.28 1.88 5000022.6244
21.64188 -3.94 1.88 5000029.0698
21.64188 -4.58 1.88 5000029.0698
19.467180000000003 -5.44 1.88 5000025.4453
19.467180000000003 -5.46 1.88 5000025.4453
19.467180000000003 -5.56 1.88 5000025.4453
19.467180000000003 -5.58 1.88 5000025.4453
18.57126 -6.68 1.88 5000023.9521
18.57126 -6.7 1.88 5000023.9521
31.28802 4.96 1.86 5000045.1467
12.08952 4.12 1.86 5000013.1492
20.4822 0.06 1.86 5000027.137
17.77464 0.0 1.86 5000022.6244
84.7368 -1.16 1.86 5000134.228
24.53898 -1.3 1.86 5000033.8983
24.53898 -1.32 1.86 5000033.8983
24.53898 -1.34 1.86 5000033.8983
17.06172 -2.44 1.86 5000021.4362
24.53898 -3.88 1.86 5000033.8983
21.64188 -3.94 1.86 5000029.0698
21.64188 -4.58 1.86 5000029.0698
19.467180000000003 -5.44 1.86 5000025.4453
19.467180000000003 -5.46 1.86 5000025.4453
19.467180000000003 -5.56 1.86 5000025.4453
19.467180000000003 -5.58 1.86 5000025.4453
19.467180000000003 -5.6 1.86 5000025.4453
18.57126 -6.68 1.86 5000023.9521
18.57126 -6.7 1.86 5000023.9521
34.65684 5.58 1.84 5000050.7614
31.28802 4.98 1.84 5000045.1467
31.28802 4.96 1.84 5000045.1467
31.28802 4.94 1.84 5000045.1467
20.4822 0.06 1.84 5000027.137
17.77464 0.0 1.84 5000022.6244
44.74056 -1.22 1.84 5000067.5676
38.9826 -1.24 1.84 5000057.971
24.53898 -1.32 1.84 5000033.8983
24.53898 -1.34 1.84 5000033.8983
24.53898 -3.88 1.84 5000033.8983
20.4822 -4.46 1.84 5000027.137
21.64188 -4.58 1.84 5000029.0698
24.53898 -5.1 1.84 5000033.8983
19.467180000000003 -5.44 1.84 5000025.4453
19.467180000000003 -5.46 1.84 5000025.4453
19.467180000000003 -5.56 1.84 5000025.4453
19.467180000000003 -5.58 1.84 5000025.4453
17.77464 -6.56 1.84 5000022.6244
18.57126 -6.68 1.84 5000023.9521
18.57126 -6.7 1.84 5000023.9521
34.65684 5.58 1.82 5000050.7614
34.65684 5.56 1.82 5000050.7614
26.38116 5.02 1.82 5000036.9686
31.28802 4.98 1.82 5000045.1467
31.28802 4.94 1.82 5000045.1467
24.53898 2.72 1.82 5000033.8983
22.97934 1.74 1.82 5000031.2989
17.77464 -0.02 1.82 5000022.6244
84.7368 -1.18 1.82 5000134.228
38.9826 -1.24 1.82 5000057.971
24.53898 -1.32 1.82 5000033.8983
24.53898 -1.34 1.82 5000033.8983
24.53898 -1.36 1.82 5000033.8983
17.77464 -2.46 1.82 5000022.6244
17.77464 -2.48 1.82 5000022.6244
17.06172 -2.58 1.82 5000021.4362
17.06172 -2.6 1.82 5000021.4362
21.64188 -3.24 1.82 5000029.0698
21.64188 -4.58 1.82 5000029.0698
19.467180000000003 -5.44 1.82 5000025.4453
19.467180000000003 -5.46 1.82 5000025.4453
19.467180000000003 -5.56 1.82 5000025.4453
19.467180000000003 -5.58 1.82 5000025.4453
17.77464 -6.56 1.82 5000022.6244
18.57126 -6.68 1.82 5000023.9521
18.57126 -6.7 1.82 5000023.9521
34.65684 5.58 1.8 5000050.7614
34.65684 5.56 1.8 5000050.7614
34.65684 4.94 1.8 5000050.7614
34.65684 4.92 1.8 5000050.7614
34.65684 4.68 1.8 5000050.7614
34.65684 2.12 1.8 5000050.7614
22.97934 1.7 1.8 5000031.2989
20.4822 0.04 1.8 5000027.137
14.386740000000001 -0.14 1.8 5000016.9779
64.806 -1.18 1.8 5000101.01
38.9826 -1.24 1.8 5000057.971
38.9826 -1.26 1.8 5000057.971
24.53898 -1.34 1.8 5000033.8983
24.53898 -1.36 1.8 5000033.8983
24.53898 -1.38 1.8 5000033.8983
17.77464 -2.44 1.8 5000022.6244
17.06172 -2.46 1.8 5000021.4362
17.06172 -2.48 1.8 5000021.4362
21.64188 -4.58 1.8 5000029.0698
24.53898 -5.12 1.8 5000033.8983
19.467180000000003 -5.44 1.8 5000025.4453
19.467180000000003 -5.46 1.8 5000025.4453
19.467180000000003 -5.56 1.8 5000025.4453
19.467180000000003 -5.58 1.8 5000025.4453
19.467180000000003 -5.6 1.8 5000025.4453
19.467180000000003 -5.62 1.8 5000025.4453
17.77464 -6.56 1.8 5000022.6244
18.57126 -6.68 1.8 5000023.9521
18.57126 -6.7 1.8 5000023.9521
34.65684 4.94 1.78 5000050.7614
34.65684 4.92 1.78 5000050.7614
12.08952 4.14 1.78 5000013.1492
38.9826 3.32 1.78 5000057.971
20.4822 3.02 1.78 5000027.137
20.4822 3.0 1.78 5000027.137
34.65684 2.16 1.78 5000050.7614
22.97934 1.82 1.78 5000031.2989
22.97934 1.8 1.78 5000031.2989
20.4822 0.02 1.78 5000027.137
14.386740000000001 -0.14 1.78 5000016.9779
17.77464 -2.44 1.78 5000022.6244
21.64188 -3.22 1.78 5000029.0698
21.64188 -4.58 1.78 5000029.0698
21.64188 -4.6 1.78 5000029.0698
24.53898 -5.12 1.78 5000033.8983
19.467180000000003 -5.44 1.78 5000025.4453
19.467180000000003 -5.46 1.78 5000025.4453
19.467180000000003 -5.56 1.78 5000025.4453
19.467180000000003 -5.58 1.78 5000025.4453
19.467180000000003 -5.6 1.78 5000025.4453
17.77464 -6.56 1.78 5000022.6244
18.57126 -6.68 1.78 5000023.9521
18.57126 -6.7 1.78 5000023.9521
34.65684 5.58 1.76 5000050.7614
34.65684 4.9 1.76 5000050.7614
34.65684 4.64 1.76 5000050.7614
12.08952 4.14 1.76 5000013.1492
12.08952 4.12 1.76 5000013.1492
20.4822 3.0 1.76 5000027.137
22.97934 1.8 1.76 5000031.2989
22.97934 1.78 1.76 5000031.2989
22.97934 1.76 1.76 5000031.2989
20.4822 0.02 1.76 5000027.137
20.4822 0.0 1.76 5000027.137
20.4822 -0.02 1.76 5000027.137
17.06172 -2.5 1.76 5000021.4362
17.06172 -2.52 1.76 5000021.4362
17.06172 -2.84 1.76 5000021.4362
17.06172 -3.32 1.76 5000021.4362
21.64188 -3.92 1.76 5000029.0698
21.64188 -3.94 1.76 5000029.0698
20.4822 -3.96 1.76 5000027.137
20.4822 -3.98 1.76 5000027.137
19.467180000000003 -4.0 1.76 5000025.4453
20.4822 -4.46 1.76 5000027.137
21.64188 -4.58 1.76 5000029.0698
21.64188 -4.6 1.76 5000029.0698
24.53898 -5.12 1.76 5000033.8983
24.53898 -5.14 1.76 5000033.8983
19.467180000000003 -5.44 1.76 5000025.4453
19.467180000000003 -5.46 1.76 5000025.4453
19.467180000000003 -5.56 1.76 5000025.4453
19.467180000000003 -5.58 1.76 5000025.4453
19.467180000000003 -5.6 1.76 5000025.4453
17.77464 -6.56 1.76 5000022.6244
18.57126 -6.68 1.76 5000023.9521
18.57126 -6.7 1.76 5000023.9521
34.65684 5.58 1.74 5000050.7614
34.65684 5.36 1.74 5000050.7614
12.3522 4.1 1.74 5000013.587
38.9826 3.1 1.74 5000057.971
38.9826 3.08 1.74 5000057.971
20.4822 0.0 1.74 5000027.137
20.4822 -0.02 1.74 5000027.137
17.06172 -2.26 1.74 5000021.4362
17.06172 -2.5 1.74 5000021.4362
17.06172 -2.52 1.74 5000021.4362
17.06172 -2.84 1.74 5000021.4362
21.64188 -3.92 1.74 5000029.0698
21.64188 -3.94 1.74 5000029.0698
21.64188 -3.96 1.74 5000029.0698
21.64188 -4.58 1.74 5000029.0698
19.467180000000003 -5.44 1.74 5000025.4453
19.467180000000003 -5.46 1.74 5000025.4453
19.467180000000003 -5.56 1.74 5000025.4453
19.467180000000003 -5.58 1.74 5000025.4453
17.77464 -6.54 1.74 5000022.6244
17.77464 -6.56 1.74 5000022.6244
18.57126 -6.66 1.74 5000023.9521
18.57126 -6.68 1.74 5000023.9521
34.65684 5.58 1.72 5000050.7614
34.65684 4.92 1.72 5000050.7614
12.3522 4.08 1.72 5000013.587
17.06172 -2.26 1.72 5000021.4362
17.06172 -2.5 1.72 5000021.4362
17.06172 -2.52 1.72 5000021.4362
15.3111 -2.58 1.72 5000018.5185
21.64188 -3.94 1.72 5000029.0698
21.64188 -4.58 1.72 5000029.0698
22.97934 -5.16 1.72 5000031.2989
19.467180000000003 -5.44 1.72 5000025.4453
19.467180000000003 -5.46 1.72 5000025.4453
19.467180000000003 -5.56 1.72 5000025.4453
19.467180000000003 -5.58 1.72 5000025.4453
19.467180000000003 -5.6 1.72 5000025.4453
34.65684 5.58 1.7 5000050.7614
34.65684 5.56 1.7 5000050.7614
34.65684 4.62 1.7 5000050.7614
12.3522 4.06 1.7 5000013.587
38.9826 3.24 1.7 5000057.971
24.53898 2.46 1.7 5000033.8983
15.3111 1.74 1.7 5000018.5185
8.347944 -0.66 1.7 5000006.91324
22.97934 -2.38 1.7 5000031.2989
17.06172 -3.3 1.7 5000021.4362
21.64188 -3.94 1.7 5000029.0698
21.64188 -4.58 1.7 5000029.0698
22.97934 -5.16 1.7 5000031.2989
22.97934 -5.18 1.7 5000031.2989
22.97934 -5.2 1.7 5000031.2989
19.467180000000003 -5.44 1.7 5000025.4453
19.467180000000003 -5.46 1.7 5000025.4453
19.467180000000003 -5.56 1.7 5000025.4453
19.467180000000003 -5.58 1.7 5000025.4453
34.65684 5.56 1.68 5000050.7614
34.65684 5.04 1.68 5000050.7614
34.65684 4.94 1.68 5000050.7614
12.3522 4.04 1.68 5000013.587
38.9826 3.24 1.68 5000057.971
38.9826 3.22 1.68 5000057.971
22.97934 1.88 1.68 5000031.2989
22.97934 1.86 1.68 5000031.2989
20.4822 0.06 1.68 5000027.137
20.4822 0.04 1.68 5000027.137
15.83916 -0.04 1.68 5000019.3986
16.419959999999996 -2.8 1.68 5000020.3666
16.419959999999996 -2.82 1.68 5000020.3666
17.06172 -3.32 1.68 5000021.4362
21.64188 -3.94 1.68 5000029.0698
21.64188 -4.58 1.68 5000029.0698
21.64188 -4.6 1.68 5000029.0698
22.97934 -5.18 1.68 5000031.2989
19.467180000000003 -5.44 1.68 5000025.4453
19.467180000000003 -5.46 1.68 5000025.4453
19.467180000000003 -5.56 1.68 5000025.4453
19.467180000000003 -5.58 1.68 5000025.4453
34.65684 5.56 1.66 5000050.7614
34.65684 5.54 1.66 5000050.7614
34.65684 5.04 1.66 5000050.7614
34.65684 5.02 1.66 5000050.7614
34.65684 4.94 1.66 5000050.7614
34.65684 4.92 1.66 5000050.7614
12.3522 4.02 1.66 5000013.587
38.9826 3.32 1.66 5000057.971
22.97934 1.86 1.66 5000031.2989
22.97934 1.82 1.66 5000031.2989
20.4822 0.04 1.66 5000027.137
17.77464 -2.52 1.66 5000022.6244
17.77464 -2.54 1.66 5000022.6244
21.64188 -3.94 1.66 5000029.0698
22.97934 -5.18 1.66 5000031.2989
22.97934 -5.2 1.66 5000031.2989
19.467180000000003 -5.44 1.66 5000025.4453
19.467180000000003 -5.46 1.66 5000025.4453
19.467180000000003 -5.56 1.66 5000025.4453
19.467180000000003 -5.58 1.66 5000025.4453
19.467180000000003 -5.6 1.66 5000025.4453
34.65684 5.62 1.64 5000050.7614
34.65684 5.54 1.64 5000050.7614
34.65684 5.38 1.64 5000050.7614
31.28802 5.04 1.64 5000045.1467
34.65684 4.92 1.64 5000050.7614
12.3522 4.0 1.64 5000013.587
38.9826 3.38 1.64 5000057.971
38.9826 3.36 1.64 5000057.971
38.9826 3.32 1.64 5000057.971
17.06172 2.98 1.64 5000021.4362
22.97934 1.86 1.64 5000031.2989
19.467180000000003 1.8 1.64 5000025.4453
14.82888 1.74 1.64 5000017.7148
14.82888 1.72 1.64 5000017.7148
28.590239999999998 1.14 1.64 5000040.6504
28.590239999999998 0.72 1.64 5000040.6504
28.590239999999998 0.7 1.64 5000040.6504
20.4822 0.04 1.64 5000027.137
26.38116 -2.38 1.64 5000036.9686
16.419959999999996 -2.44 1.64 5000020.3666
17.77464 -2.52 1.64 5000022.6244
17.77464 -2.54 1.64 5000022.6244
17.06172 -3.28 1.64 5000021.4362
22.97934 -3.94 1.64 5000031.2989
20.4822 -4.46 1.64 5000027.137
21.64188 -4.58 1.64 5000029.0698
21.64188 -4.6 1.64 5000029.0698
19.467180000000003 -5.44 1.64 5000025.4453
19.467180000000003 -5.46 1.64 5000025.4453
19.467180000000003 -5.56 1.64 5000025.4453
19.467180000000003 -5.58 1.64 5000025.4453
19.467180000000003 -5.6 1.64 5000025.4453
16.419959999999996 -5.66 1.64 5000020.3666
16.419959999999996 -5.68 1.64 5000020.3666
17.77464 -6.62 1.64 5000022.6244
15.83916 -6.7 1.64 5000019.3986
14.82888 -6.72 1.64 5000017.7148
14.82888 -6.74 1.64 5000017.7148
34.65684 5.62 1.62 5000050.7614
34.65684 5.58 1.62 5000050.7614
34.65684 5.54 1.62 5000050.7614
34.65684 5.38 1.62 5000050.7614
31.28802 5.04 1.62 5000045.1467
12.3522 3.98 1.62 5000013.587
38.9826 3.36 1.62 5000057.971
24.53898 2.46 1.62 5000033.8983
22.97934 1.86 1.62 5000031.2989
19.467180000000003 1.8 1.62 5000025.4453
14.82888 1.7 1.62 5000017.7148
28.590239999999998 0.72 1.62 5000040.6504
28.590239999999998 0.7 1.62 5000040.6504
20.4822 0.04 1.62 5000027.137
15.83916 -0.08 1.62 5000019.3986
11.61198 -0.28 1.62 5000012.3533
20.4822 -0.66 1.62 5000027.137
16.419959999999996 -2.44 1.62 5000020.3666
16.419959999999996 -2.46 1.62 5000020.3666
17.77464 -2.98 1.62 5000022.6244
17.06172 -3.0 1.62 5000021.4362
17.06172 -3.02 1.62 5000021.4362
17.06172 -3.3 1.62 5000021.4362
17.06172 -3.32 1.62 5000021.4362
22.97934 -3.94 1.62 5000031.2989
21.64188 -4.58 1.62 5000029.0698
21.64188 -4.6 1.62 5000029.0698
22.97934 -5.08 1.62 5000031.2989
19.467180000000003 -5.44 1.62 5000025.4453
19.467180000000003 -5.46 1.62 5000025.4453
19.467180000000003 -5.56 1.62 5000025.4453
19.467180000000003 -5.58 1.62 5000025.4453
19.467180000000003 -5.6 1.62 5000025.4453
18.57126 -5.62 1.62 5000023.9521
20.4822 -6.56 1.62 5000027.137
17.77464 -6.62 1.62 5000022.6244
17.77464 -6.64 1.62 5000022.6244
17.77464 -6.66 1.62 5000022.6244
34.65684 5.62 1.6 5000050.7614
34.65684 5.6 1.6 5000050.7614
34.65684 5.58 1.6 5000050.7614
34.65684 5.54 1.6 5000050.7614
34.65684 5.38 1.6 5000050.7614
31.28802 5.04 1.6 5000045.1467
31.28802 5.02 1.6 5000045.1467
38.9826 3.5 1.6 5000057.971
38.9826 3.46 1.6 5000057.971
34.65684 3.08 1.6 5000050.7614
34.65684 3.04 1.6 5000050.7614
26.38116 2.92 1.6 5000036.9686
22.97934 1.86 1.6 5000031.2989
22.97934 1.84 1.6 5000031.2989
14.386740000000001 1.68 1.6 5000016.9779
12.3522 1.6 1.6 5000013.587
26.38116 0.66 1.6 5000036.9686
20.4822 0.02 1.6 5000027.137
15.83916 -0.08 1.6 5000019.3986
11.61198 -0.28 1.6 5000012.3533
18.57126 -2.94 1.6 5000023.9521
22.97934 -3.94 1.6 5000031.2989
20.4822 -4.46 1.6 5000027.137
21.64188 -4.58 1.6 5000029.0698
19.467180000000003 -5.44 1.6 5000025.4453
19.467180000000003 -5.46 1.6 5000025.4453
19.467180000000003 -5.56 1.6 5000025.4453
19.467180000000003 -5.58 1.6 5000025.4453
20.4822 -6.56 1.6 5000027.137
17.77464 -6.62 1.6 5000022.6244
17.77464 -6.64 1.6 5000022.6244
34.65684 5.6 1.58 5000050.7614
38.9826 5.52 1.58 5000057.971
34.65684 5.38 1.58 5000050.7614
31.28802 5.04 1.58 5000045.1467
31.28802 5.02 1.58 5000045.1467
38.9826 3.5 1.58 5000057.971
22.97934 1.84 1.58 5000031.2989
20.4822 0.02 1.58 5000027.137
20.4822 0.0 1.58 5000027.137
15.83916 -0.08 1.58 5000019.3986
20.4822 -0.64 1.58 5000027.137
22.97934 -3.94 1.58 5000031.2989
21.64188 -4.58 1.58 5000029.0698
21.64188 -4.6 1.58 5000029.0698
31.28802 -5.38 1.58 5000045.1467
20.4822 -6.56 1.58 5000027.137
17.77464 -6.62 1.58 5000022.6244
17.77464 -6.64 1.58 5000022.6244
34.65684 5.6 1.56 5000050.7614
34.65684 5.58 1.56 5000050.7614
34.65684 4.98 1.56 5000050.7614
22.97934 1.84 1.56 5000031.2989
22.97934 1.82 1.56 5000031.2989
22.97934 1.78 1.56 5000031.2989
20.4822 0.02 1.56 5000027.137
20.4822 0.0 1.56 5000027.137
20.4822 -0.02 1.56 5000027.137
20.4822 -0.64 1.56 5000027.137
20.4822 -0.66 1.56 5000027.137
17.06172 -2.44 1.56 5000021.4362
17.06172 -2.46 1.56 5000021.4362
19.467180000000003 -2.9 1.56 5000025.4453
17.06172 -3.28 1.56 5000021.4362
22.97934 -3.94 1.56 5000031.2989
21.64188 -4.58 1.56 5000029.0698
