VERSION .7
FIELDS x y z rgb
SIZE 4 4 4 4
TYPE F F F F
COUNT 1 1 1 1
WIDTH 1332
HEIGHT 1
VIEWPOINT 0 0 0 1 0 0 0
POINTS 1332
DATA ascii
20.4822 -4.3 0.3 5000027.137
20.4822 -4.32 0.3 5000027.137
19.467180000000003 -4.86 0.3 5000025.4453
19.467180000000003 -4.88 0.3 5000025.4453
19.467180000000003 -4.94 0.3 5000025.4453
19.467180000000003 -4.96 0.3 5000025.4453
17.77464 -5.98 0.3 5000022.6244
18.57126 -6.0 0.3 5000023.9521
64.806 5.58 0.28 5000101.01
52.78302 5.44 0.28 5000080.9717
52.78302 5.28 0.28 5000080.9717
64.806 4.72 0.28 5000101.01
44.74056 3.4 0.28 5000067.5676
44.74056 3.36 0.28 5000067.5676
44.74056 3.28 0.28 5000067.5676
26.38116 2.62 0.28 5000036.9686
31.28802 1.92 0.28 5000045.1467
31.28802 1.76 0.28 5000045.1467
34.65684 1.56 0.28 5000050.7614
31.28802 1.44 0.28 5000045.1467
31.28802 0.74 0.28 5000045.1467
28.590239999999998 0.58 0.28 5000040.6504
31.28802 0.4 0.28 5000045.1467
19.467180000000003 -0.5 0.28 5000025.4453
14.82888 -0.62 0.28 5000017.7148
17.06172 -3.14 0.28 5000021.4362
17.06172 -3.16 0.28 5000021.4362
16.419959999999996 -3.34 0.28 5000020.3666
20.4822 -4.3 0.28 5000027.137
20.4822 -4.32 0.28 5000027.137
20.4822 -4.34 0.28 5000027.137
19.467180000000003 -4.86 0.28 5000025.4453
19.467180000000003 -4.88 0.28 5000025.4453
19.467180000000003 -4.94 0.28 5000025.4453
19.467180000000003 -4.96 0.28 5000025.4453
18.57126 -5.94 0.28 5000023.9521
17.77464 -5.98 0.28 5000022.6244
18.57126 -6.0 0.28 5000023.9521
64.806 5.58 0.26 5000101.01
52.78302 5.32 0.26 5000080.9717
52.78302 3.52 0.26 5000080.9717
44.74056 3.4 0.26 5000067.5676
44.74056 3.28 0.26 5000067.5676
26.38116 2.62 0.26 5000036.9686
34.65684 1.56 0.26 5000050.7614
24.53898 1.44 0.26 5000033.8983
22.97934 1.14 0.26 5000031.2989
31.28802 1.06 0.26 5000045.1467
28.590239999999998 0.96 0.26 5000040.6504
28.590239999999998 0.92 0.26 5000040.6504
31.28802 0.74 0.26 5000045.1467
19.467180000000003 -0.5 0.26 5000025.4453
19.467180000000003 -0.52 0.26 5000025.4453
14.82888 -0.62 0.26 5000017.7148
16.419959999999996 -3.16 0.26 5000020.3666
16.419959999999996 -3.18 0.26 5000020.3666
16.419959999999996 -3.34 0.26 5000020.3666
20.4822 -4.3 0.26 5000027.137
20.4822 -4.32 0.26 5000027.137
20.4822 -4.34 0.26 5000027.137
19.467180000000003 -4.86 0.26 5000025.4453
19.467180000000003 -4.96 0.26 5000025.4453
17.77464 -5.98 0.26 5000022.6244
18.57126 -6.0 0.26 5000023.9521
38.9826 5.92 0.24 5000057.971
64.806 5.82 0.24 5000101.01
52.78302 5.32 0.24 5000080.9717
52.78302 3.52 0.24 5000080.9717
44.74056 3.4 0.24 5000067.5676
26.38116 2.62 0.24 5000036.9686
26.38116 2.6 0.24 5000036.9686
34.65684 2.28 0.24 5000050.7614
24.53898 2.1 0.24 5000033.8983
24.53898 1.48 0.24 5000033.8983
24.53898 1.44 0.24 5000033.8983
22.97934 1.14 0.24 5000031.2989
31.28802 1.06 0.24 5000045.1467
28.590239999999998 0.92 0.24 5000040.6504
19.467180000000003 -0.5 0.24 5000025.4453
19.467180000000003 -0.52 0.24 5000025.4453
14.82888 -0.62 0.24 5000017.7148
16.419959999999996 -3.16 0.24 5000020.3666
16.419959999999996 -3.18 0.24 5000020.3666
16.419959999999996 -3.34 0.24 5000020.3666
20.4822 -4.3 0.24 5000027.137
20.4822 -4.32 0.24 5000027.137
20.4822 -4.34 0.24 5000027.137
19.467180000000003 -4.86 0.24 5000025.4453
19.467180000000003 -4.94 0.24 5000025.4453
19.467180000000003 -4.96 0.24 5000025.4453
19.467180000000003 -4.98 0.24 5000025.4453
17.77464 -5.98 0.24 5000022.6244
18.57126 -6.0 0.24 5000023.9521
64.806 5.82 0.22 5000101.01
44.74056 4.78 0.22 5000067.5676
52.78302 4.7 0.22 5000080.9717
26.38116 2.62 0.22 5000036.9686
26.38116 2.6 0.22 5000036.9686
24.53898 2.5 0.22 5000033.8983
34.65684 2.28 0.22 5000050.7614
24.53898 2.1 0.22 5000033.8983
24.53898 1.72 0.22 5000033.8983
34.65684 1.56 0.22 5000050.7614
24.53898 1.48 0.22 5000033.8983
24.53898 1.44 0.22 5000033.8983
31.28802 1.26 0.22 5000045.1467
31.28802 1.06 0.22 5000045.1467
19.467180000000003 -0.52 0.22 5000025.4453
14.82888 -0.62 0.22 5000017.7148
16.419959999999996 -3.18 0.22 5000020.3666
16.419959999999996 -3.2 0.22 5000020.3666
16.419959999999996 -3.34 0.22 5000020.3666
20.4822 -4.3 0.22 5000027.137
20.4822 -4.32 0.22 5000027.137
20.4822 -4.34 0.22 5000027.137
19.467180000000003 -4.86 0.22 5000025.4453
19.467180000000003 -4.88 0.22 5000025.4453
19.467180000000003 -4.96 0.22 5000025.4453
19.467180000000003 -4.98 0.22 5000025.4453
17.77464 -5.98 0.22 5000022.6244
18.57126 -6.0 0.22 5000023.9521
44.74056 4.78 0.2 5000067.5676
52.78302 4.7 0.2 5000080.9717
52.78302 4.68 0.2 5000080.9717
34.65684 2.44 0.2 5000050.7614
24.53898 2.1 0.2 5000033.8983
24.53898 2.08 0.2 5000033.8983
34.65684 1.56 0.2 5000050.7614
34.65684 1.54 0.2 5000050.7614
24.53898 1.44 0.2 5000033.8983
28.590239999999998 0.5 0.2 5000040.6504
28.590239999999998 0.48 0.2 5000040.6504
21.64188 0.42 0.2 5000029.0698
19.467180000000003 -0.5 0.2 5000025.4453
19.467180000000003 -0.52 0.2 5000025.4453
14.82888 -0.62 0.2 5000017.7148
14.82888 -0.64 0.2 5000017.7148
16.419959999999996 -3.18 0.2 5000020.3666
16.419959999999996 -3.2 0.2 5000020.3666
16.419959999999996 -3.34 0.2 5000020.3666
20.4822 -4.3 0.2 5000027.137
20.4822 -4.32 0.2 5000027.137
20.4822 -4.34 0.2 5000027.137
19.467180000000003 -4.94 0.2 5000025.4453
19.467180000000003 -4.96 0.2 5000025.4453
19.467180000000003 -4.98 0.2 5000025.4453
17.77464 -5.98 0.2 5000022.6244
18.57126 -6.0 0.2 5000023.9521
64.806 5.86 0.18 5000101.01
44.74056 4.78 0.18 5000067.5676
52.78302 4.7 0.18 5000080.9717
34.65684 3.88 0.18 5000050.7614
34.65684 3.84 0.18 5000050.7614
26.38116 2.62 0.18 5000036.9686
24.53898 2.1 0.18 5000033.8983
24.53898 2.08 0.18 5000033.8983
31.28802 1.9 0.18 5000045.1467
34.65684 1.64 0.18 5000050.7614
34.65684 1.54 0.18 5000050.7614
22.97934 1.38 0.18 5000031.2989
28.590239999999998 0.5 0.18 5000040.6504
28.590239999999998 0.48 0.18 5000040.6504
21.64188 0.42 0.18 5000029.0698
21.64188 0.4 0.18 5000029.0698
28.590239999999998 0.3 0.18 5000040.6504
20.4822 -0.5 0.18 5000027.137
20.4822 -0.52 0.18 5000027.137
15.3111 -0.62 0.18 5000018.5185
15.3111 -0.64 0.18 5000018.5185
16.419959999999996 -3.18 0.18 5000020.3666
16.419959999999996 -3.2 0.18 5000020.3666
16.419959999999996 -3.34 0.18 5000020.3666
20.4822 -4.3 0.18 5000027.137
20.4822 -4.32 0.18 5000027.137
20.4822 -4.34 0.18 5000027.137
19.467180000000003 -4.36 0.18 5000025.4453
19.467180000000003 -4.94 0.18 5000025.4453
19.467180000000003 -4.96 0.18 5000025.4453
19.467180000000003 -4.98 0.18 5000025.4453
18.57126 -5.94 0.18 5000023.9521
17.77464 -5.98 0.18 5000022.6244
18.57126 -6.0 0.18 5000023.9521
52.78302 5.94 0.16 5000080.9717
64.806 5.88 0.16 5000101.01
64.806 5.86 0.16 5000101.01
24.53898 2.62 0.16 5000033.8983
24.53898 2.1 0.16 5000033.8983
24.53898 2.08 0.16 5000033.8983
31.28802 1.92 0.16 5000045.1467
31.28802 1.9 0.16 5000045.1467
21.64188 1.84 0.16 5000029.0698
34.65684 1.76 0.16 5000050.7614
22.97934 1.4 0.16 5000031.2989
22.97934 1.38 0.16 5000031.2989
16.419959999999996 1.3 0.16 5000020.3666
28.590239999999998 0.48 0.16 5000040.6504
21.64188 0.42 0.16 5000029.0698
20.4822 -0.5 0.16 5000027.137
20.4822 -0.52 0.16 5000027.137
15.3111 -0.64 0.16 5000018.5185
16.419959999999996 -3.18 0.16 5000020.3666
16.419959999999996 -3.2 0.16 5000020.3666
16.419959999999996 -3.34 0.16 5000020.3666
19.467180000000003 -4.94 0.16 5000025.4453
19.467180000000003 -4.96 0.16 5000025.4453
19.467180000000003 -4.98 0.16 5000025.4453
17.77464 -5.98 0.16 5000022.6244
18.57126 -6.0 0.16 5000023.9521
64.806 5.86 0.14 5000101.01
52.78302 5.3 0.14 5000080.9717
64.806 4.92 0.14 5000101.01
38.9826 4.56 0.14 5000057.971
44.74056 4.52 0.14 5000067.5676
44.74056 4.48 0.14 5000067.5676
44.74056 4.46 0.14 5000067.5676
84.7368 4.1 0.14 5000134.228
84.7368 4.08 0.14 5000134.228
34.65684 3.84 0.14 5000050.7614
26.38116 2.62 0.14 5000036.9686
26.38116 2.6 0.14 5000036.9686
24.53898 2.1 0.14 5000033.8983
22.97934 1.4 0.14 5000031.2989
28.590239999999998 0.48 0.14 5000040.6504
28.590239999999998 0.28 0.14 5000040.6504
20.4822 -0.5 0.14 5000027.137
15.3111 -0.64 0.14 5000018.5185
16.419959999999996 -3.16 0.14 5000020.3666
16.419959999999996 -3.18 0.14 5000020.3666
16.419959999999996 -3.34 0.14 5000020.3666
19.467180000000003 -4.96 0.14 5000025.4453
19.467180000000003 -4.98 0.14 5000025.4453
18.57126 -5.94 0.14 5000023.9521
17.77464 -5.98 0.14 5000022.6244
18.57126 -6.0 0.14 5000023.9521
38.9826 4.58 0.12 5000057.971
44.74056 4.46 0.12 5000067.5676
84.7368 4.08 0.12 5000134.228
31.28802 3.84 0.12 5000045.1467
26.38116 2.6 0.12 5000036.9686
24.53898 2.52 0.12 5000033.8983
24.53898 2.1 0.12 5000033.8983
28.590239999999998 1.24 0.12 5000040.6504
28.590239999999998 0.48 0.12 5000040.6504
28.590239999999998 0.28 0.12 5000040.6504
20.4822 -0.48 0.12 5000027.137
20.4822 -0.5 0.12 5000027.137
19.467180000000003 -0.56 0.12 5000025.4453
19.467180000000003 -0.64 0.12 5000025.4453
16.419959999999996 -3.16 0.12 5000020.3666
16.419959999999996 -3.18 0.12 5000020.3666
16.419959999999996 -3.34 0.12 5000020.3666
16.419959999999996 -3.36 0.12 5000020.3666
19.467180000000003 -4.96 0.12 5000025.4453
19.467180000000003 -4.98 0.12 5000025.4453
17.77464 -5.98 0.12 5000022.6244
18.57126 -6.0 0.12 5000023.9521
64.806 5.82 0.1 5000101.01
52.78302 4.64 0.1 5000080.9717
38.9826 4.58 0.1 5000057.971
26.38116 2.6 0.1 5000036.9686
34.65684 1.5 0.1 5000050.7614
28.590239999999998 1.26 0.1 5000040.6504
28.590239999999998 1.24 0.1 5000040.6504
28.590239999999998 0.48 0.1 5000040.6504
28.590239999999998 0.28 0.1 5000040.6504
20.4822 -0.48 0.1 5000027.137
20.4822 -0.5 0.1 5000027.137
16.419959999999996 -0.56 0.1 5000020.3666
19.467180000000003 -0.64 0.1 5000025.4453
17.06172 -3.16 0.1 5000021.4362
16.419959999999996 -3.34 0.1 5000020.3666
19.467180000000003 -4.86 0.1 5000025.4453
19.467180000000003 -4.96 0.1 5000025.4453
19.467180000000003 -4.98 0.1 5000025.4453
17.77464 -5.98 0.1 5000022.6244
18.57126 -6.0 0.1 5000023.9521
64.806 5.82 0.08 5000101.01
26.38116 2.6 0.08 5000036.9686
34.65684 1.5 0.08 5000050.7614
28.590239999999998 1.24 0.08 5000040.6504
31.28802 0.48 0.08 5000045.1467
20.4822 -0.48 0.08 5000027.137
16.419959999999996 -0.56 0.08 5000020.3666
13.979940000000001 -0.64 0.08 5000016.2999
17.06172 -3.16 0.08 5000021.4362
17.06172 -3.18 0.08 5000021.4362
19.467180000000003 -4.3 0.08 5000025.4453
19.467180000000003 -4.32 0.08 5000025.4453
19.467180000000003 -4.86 0.08 5000025.4453
19.467180000000003 -4.88 0.08 5000025.4453
19.467180000000003 -4.94 0.08 5000025.4453
19.467180000000003 -4.96 0.08 5000025.4453
19.467180000000003 -4.98 0.08 5000025.4453
17.77464 -5.98 0.08 5000022.6244
17.77464 -6.0 0.08 5000022.6244
64.806 5.8 0.06 5000101.01
44.74056 4.48 0.06 5000067.5676
44.74056 3.26 0.06 5000067.5676
26.38116 2.6 0.06 5000036.9686
26.38116 2.58 0.06 5000036.9686
34.65684 1.78 0.06 5000050.7614
34.65684 1.5 0.06 5000050.7614
28.590239999999998 1.24 0.06 5000040.6504
31.28802 0.48 0.06 5000045.1467
20.4822 -0.48 0.06 5000027.137
13.979940000000001 -0.62 0.06 5000016.2999
13.979940000000001 -0.64 0.06 5000016.2999
16.419959999999996 -3.16 0.06 5000020.3666
16.419959999999996 -3.18 0.06 5000020.3666
17.06172 -3.34 0.06 5000021.4362
17.06172 -3.36 0.06 5000021.4362
19.467180000000003 -4.3 0.06 5000025.4453
19.467180000000003 -4.32 0.06 5000025.4453
19.467180000000003 -4.34 0.06 5000025.4453
19.467180000000003 -4.86 0.06 5000025.4453
19.467180000000003 -4.88 0.06 5000025.4453
19.467180000000003 -4.94 0.06 5000025.4453
19.467180000000003 -4.96 0.06 5000025.4453
19.467180000000003 -4.98 0.06 5000025.4453
17.77464 -5.98 0.06 5000022.6244
17.77464 -6.0 0.06 5000022.6244
64.806 5.8 0.04 5000101.01
26.38116 2.6 0.04 5000036.9686
26.38116 2.58 0.04 5000036.9686
24.53898 2.5 0.04 5000033.8983
34.65684 1.78 0.04 5000050.7614
34.65684 1.76 0.04 5000050.7614
34.65684 1.5 0.04 5000050.7614
28.590239999999998 1.24 0.04 5000040.6504
31.28802 0.48 0.04 5000045.1467
19.467180000000003 -0.46 0.04 5000025.4453
19.467180000000003 -0.48 0.04 5000025.4453
13.979940000000001 -0.62 0.04 5000016.2999
13.979940000000001 -0.64 0.04 5000016.2999
16.419959999999996 -3.18 0.04 5000020.3666
17.06172 -3.36 0.04 5000021.4362
20.4822 -4.3 0.04 5000027.137
20.4822 -4.32 0.04 5000027.137
20.4822 -4.34 0.04 5000027.137
19.467180000000003 -4.86 0.04 5000025.4453
19.467180000000003 -4.96 0.04 5000025.4453
19.467180000000003 -4.98 0.04 5000025.4453
17.77464 -6.0 0.04 5000022.6244
52.78302 5.34 0.02 5000080.9717
44.74056 5.18 0.02 5000067.5676
26.38116 2.6 0.02 5000036.9686
26.38116 2.58 0.02 5000036.9686
24.53898 2.5 0.02 5000033.8983
34.65684 1.5 0.02 5000050.7614
28.590239999999998 1.24 0.02 5000040.6504
31.28802 0.48 0.02 5000045.1467
15.83916 0.3 0.02 5000019.3986
19.467180000000003 -0.46 0.02 5000025.4453
19.467180000000003 -0.48 0.02 5000025.4453
13.979940000000001 -0.62 0.02 5000016.2999
13.979940000000001 -0.64 0.02 5000016.2999
19.467180000000003 -3.1 0.02 5000025.4453
16.419959999999996 -3.18 0.02 5000020.3666
17.06172 -3.36 0.02 5000021.4362
20.4822 -4.3 0.02 5000027.137
20.4822 -4.32 0.02 5000027.137
20.4822 -4.34 0.02 5000027.137
19.467180000000003 -4.86 0.02 5000025.4453
19.467180000000003 -4.88 0.02 5000025.4453
19.467180000000003 -4.94 0.02 5000025.4453
19.467180000000003 -4.96 0.02 5000025.4453
19.467180000000003 -4.98 0.02 5000025.4453
17.77464 -5.98 0.02 5000022.6244
17.77464 -6.0 0.02 5000022.6244
64.806 5.82 0.0 5000101.01
26.38116 2.6 0.0 5000036.9686
24.53898 2.5 0.0 5000033.8983
34.65684 1.5 0.0 5000050.7614
28.590239999999998 1.24 0.0 5000040.6504
31.28802 0.48 0.0 5000045.1467
31.28802 0.44 0.0 5000045.1467
15.83916 0.3 0.0 5000019.3986
19.467180000000003 -0.48 0.0 5000025.4453
19.467180000000003 -0.5 0.0 5000025.4453
13.979940000000001 -0.62 0.0 5000016.2999
19.467180000000003 -3.1 0.0 5000025.4453
16.419959999999996 -3.16 0.0 5000020.3666
16.419959999999996 -3.18 0.0 5000020.3666
17.06172 -3.36 0.0 5000021.4362
17.06172 -3.38 0.0 5000021.4362
20.4822 -4.3 0.0 5000027.137
20.4822 -4.32 0.0 5000027.137
20.4822 -4.34 0.0 5000027.137
19.467180000000003 -4.86 0.0 5000025.4453
19.467180000000003 -4.96 0.0 5000025.4453
19.467180000000003 -4.98 0.0 5000025.4453
17.77464 -5.98 0.0 5000022.6244
17.77464 -6.0 0.0 5000022.6244
64.806 5.82 -0.02 5000101.01
26.38116 2.6 -0.02 5000036.9686
24.53898 2.5 -0.02 5000033.8983
38.9826 1.94 -0.02 5000057.971
34.65684 1.78 -0.02 5000050.7614
34.65684 1.76 -0.02 5000050.7614
34.65684 1.5 -0.02 5000050.7614
17.06172 1.38 -0.02 5000021.4362
31.28802 1.24 -0.02 5000045.1467
15.83916 0.3 -0.02 5000019.3986
19.467180000000003 -0.48 -0.02 5000025.4453
19.467180000000003 -0.5 -0.02 5000025.4453
14.386740000000001 -0.62 -0.02 5000016.9779
16.419959999999996 -3.16 -0.02 5000020.3666
16.419959999999996 -3.18 -0.02 5000020.3666
17.06172 -3.36 -0.02 5000021.4362
17.06172 -3.38 -0.02 5000021.4362
20.4822 -4.32 -0.02 5000027.137
20.4822 -4.34 -0.02 5000027.137
19.467180000000003 -4.86 -0.02 5000025.4453
19.467180000000003 -4.88 -0.02 5000025.4453
19.467180000000003 -4.96 -0.02 5000025.4453
19.467180000000003 -4.98 -0.02 5000025.4453
18.57126 -5.94 -0.02 5000023.9521
17.77464 -5.98 -0.02 5000022.6244
18.57126 -6.0 -0.02 5000023.9521
64.806 5.82 -0.04 5000101.01
34.65684 5.68 -0.04 5000050.7614
34.65684 5.14 -0.04 5000050.7614
34.65684 5.12 -0.04 5000050.7614
26.38116 2.6 -0.04 5000036.9686
24.53898 2.5 -0.04 5000033.8983
38.9826 1.94 -0.04 5000057.971
34.65684 1.76 -0.04 5000050.7614
34.65684 1.5 -0.04 5000050.7614
31.28802 1.24 -0.04 5000045.1467
28.590239999999998 0.48 -0.04 5000040.6504
28.590239999999998 0.46 -0.04 5000040.6504
28.590239999999998 0.44 -0.04 5000040.6504
15.83916 0.3 -0.04 5000019.3986
15.83916 0.28 -0.04 5000019.3986
19.467180000000003 -0.5 -0.04 5000025.4453
14.386740000000001 -0.62 -0.04 5000016.9779
16.419959999999996 -3.16 -0.04 5000020.3666
16.419959999999996 -3.18 -0.04 5000020.3666
19.467180000000003 -3.28 -0.04 5000025.4453
17.06172 -3.36 -0.04 5000021.4362
17.06172 -3.38 -0.04 5000021.4362
20.4822 -4.32 -0.04 5000027.137
20.4822 -4.34 -0.04 5000027.137
19.467180000000003 -4.86 -0.04 5000025.4453
19.467180000000003 -4.94 -0.04 5000025.4453
19.467180000000003 -4.96 -0.04 5000025.4453
19.467180000000003 -4.98 -0.04 5000025.4453
38.9826 5.88 -0.06 5000057.971
64.806 5.86 -0.06 5000101.01
64.806 5.82 -0.06 5000101.01
34.65684 5.46 -0.06 5000050.7614
34.65684 5.12 -0.06 5000050.7614
24.53898 2.5 -0.06 5000033.8983
34.65684 1.76 -0.06 5000050.7614
31.28802 1.24 -0.06 5000045.1467
28.590239999999998 0.48 -0.06 5000040.6504
28.590239999999998 0.46 -0.06 5000040.6504
20.4822 -0.48 -0.06 5000027.137
20.4822 -0.5 -0.06 5000027.137
18.57126 -0.62 -0.06 5000023.9521
16.419959999999996 -3.14 -0.06 5000020.3666
16.419959999999996 -3.16 -0.06 5000020.3666
19.467180000000003 -3.26 -0.06 5000025.4453
19.467180000000003 -3.28 -0.06 5000025.4453
16.419959999999996 -3.36 -0.06 5000020.3666
16.419959999999996 -3.38 -0.06 5000020.3666
19.467180000000003 -4.32 -0.06 5000025.4453
19.467180000000003 -4.34 -0.06 5000025.4453
19.467180000000003 -4.86 -0.06 5000025.4453
19.467180000000003 -4.94 -0.06 5000025.4453
19.467180000000003 -4.96 -0.06 5000025.4453
19.467180000000003 -4.98 -0.06 5000025.4453
34.65684 5.48 -0.08 5000050.7614
34.65684 5.46 -0.08 5000050.7614
34.65684 5.1 -0.08 5000050.7614
34.65684 1.76 -0.08 5000050.7614
34.65684 -0.48 -0.08 5000050.7614
34.65684 -0.5 -0.08 5000050.7614
18.57126 -0.62 -0.08 5000023.9521
18.57126 -0.64 -0.08 5000023.9521
16.419959999999996 -3.14 -0.08 5000020.3666
16.419959999999996 -3.16 -0.08 5000020.3666
16.419959999999996 -3.18 -0.08 5000020.3666
16.419959999999996 -3.36 -0.08 5000020.3666
16.419959999999996 -3.38 -0.08 5000020.3666
19.467180000000003 -4.32 -0.08 5000025.4453
19.467180000000003 -4.34 -0.08 5000025.4453
19.467180000000003 -4.86 -0.08 5000025.4453
19.467180000000003 -4.88 -0.08 5000025.4453
34.65684 5.48 -0.1 5000050.7614
34.65684 5.46 -0.1 5000050.7614
34.65684 5.1 -0.1 5000050.7614
34.65684 1.82 -0.1 5000050.7614
34.65684 1.76 -0.1 5000050.7614
38.9826 -0.48 -0.1 5000057.971
38.9826 -0.5 -0.1 5000057.971
19.467180000000003 -0.62 -0.1 5000025.4453
19.467180000000003 -0.64 -0.1 5000025.4453
16.419959999999996 -3.16 -0.1 5000020.3666
16.419959999999996 -3.18 -0.1 5000020.3666
17.06172 -3.38 -0.1 5000021.4362
19.467180000000003 -4.32 -0.1 5000025.4453
19.467180000000003 -4.34 -0.1 5000025.4453
19.467180000000003 -4.36 -0.1 5000025.4453
19.467180000000003 -4.86 -0.1 5000025.4453
19.467180000000003 -4.88 -0.1 5000025.4453
34.65684 5.48 -0.12 5000050.7614
34.65684 5.14 -0.12 5000050.7614
34.65684 5.1 -0.12 5000050.7614
24.53898 2.58 -0.12 5000033.8983
34.65684 1.76 -0.12 5000050.7614
38.9826 -0.34 -0.12 5000057.971
124.19999999999999 -0.4 -0.12 5000200.0
38.9826 -0.48 -0.12 5000057.971
19.467180000000003 -0.62 -0.12 5000025.4453
19.467180000000003 -0.64 -0.12 5000025.4453
11.843340000000001 -0.88 -0.12 5000012.7389
22.97934 -3.02 -0.12 5000031.2989
22.97934 -3.04 -0.12 5000031.2989
19.467180000000003 -4.32 -0.12 5000025.4453
19.467180000000003 -4.34 -0.12 5000025.4453
19.467180000000003 -4.36 -0.12 5000025.4453
19.467180000000003 -4.86 -0.12 5000025.4453
19.467180000000003 -4.88 -0.12 5000025.4453
17.77464 -5.98 -0.12 5000022.6244
18.57126 -6.0 -0.12 5000023.9521
38.9826 5.8 -0.14 5000057.971
34.65684 5.48 -0.14 5000050.7614
34.65684 5.4 -0.14 5000050.7614
34.65684 5.1 -0.14 5000050.7614
34.65684 5.08 -0.14 5000050.7614
24.53898 2.58 -0.14 5000033.8983
124.19999999999999 -0.26 -0.14 5000200.0
38.9826 -0.48 -0.14 5000057.971
19.467180000000003 -0.62 -0.14 5000025.4453
22.97934 -2.46 -0.14 5000031.2989
22.97934 -3.02 -0.14 5000031.2989
22.97934 -3.04 -0.14 5000031.2989
20.4822 -3.42 -0.14 5000027.137
21.64188 -3.44 -0.14 5000029.0698
20.4822 -4.3 -0.14 5000027.137
19.467180000000003 -4.32 -0.14 5000025.4453
19.467180000000003 -4.34 -0.14 5000025.4453
19.467180000000003 -4.86 -0.14 5000025.4453
19.467180000000003 -4.88 -0.14 5000025.4453
18.57126 -4.96 -0.14 5000023.9521
18.57126 -5.9 -0.14 5000023.9521
18.57126 -5.92 -0.14 5000023.9521
18.57126 -5.94 -0.14 5000023.9521
17.77464 -5.98 -0.14 5000022.6244
18.57126 -6.0 -0.14 5000023.9521
18.57126 -6.02 -0.14 5000023.9521
15.3111 -6.08 -0.14 5000018.5185
15.3111 -6.1 -0.14 5000018.5185
38.9826 5.82 -0.16 5000057.971
34.65684 5.56 -0.16 5000050.7614
34.65684 5.48 -0.16 5000050.7614
34.65684 5.4 -0.16 5000050.7614
34.65684 5.08 -0.16 5000050.7614
38.9826 -0.46 -0.16 5000057.971
19.467180000000003 -0.62 -0.16 5000025.4453
22.97934 -1.94 -0.16 5000031.2989
22.97934 -1.96 -0.16 5000031.2989
21.64188 -2.3 -0.16 5000029.0698
22.97934 -2.44 -0.16 5000031.2989
22.97934 -2.46 -0.16 5000031.2989
22.97934 -2.48 -0.16 5000031.2989
20.4822 -2.84 -0.16 5000027.137
22.97934 -3.02 -0.16 5000031.2989
22.97934 -3.04 -0.16 5000031.2989
17.77464 -3.12 -0.16 5000022.6244
17.77464 -3.14 -0.16 5000022.6244
21.64188 -3.42 -0.16 5000029.0698
21.64188 -3.44 -0.16 5000029.0698
19.467180000000003 -4.86 -0.16 5000025.4453
19.467180000000003 -4.88 -0.16 5000025.4453
19.467180000000003 -4.94 -0.16 5000025.4453
18.57126 -4.96 -0.16 5000023.9521
18.57126 -4.98 -0.16 5000023.9521
18.57126 -5.88 -0.16 5000023.9521
18.57126 -5.9 -0.16 5000023.9521
18.57126 -5.92 -0.16 5000023.9521
18.57126 -5.94 -0.16 5000023.9521
17.77464 -5.98 -0.16 5000022.6244
18.57126 -6.0 -0.16 5000023.9521
18.57126 -6.02 -0.16 5000023.9521
15.3111 -6.08 -0.16 5000018.5185
15.3111 -6.1 -0.16 5000018.5185
38.9826 5.82 -0.18 5000057.971
38.9826 -0.46 -0.18 5000057.971
19.467180000000003 -0.62 -0.18 5000025.4453
24.53898 -1.32 -0.18 5000033.8983
38.9826 -1.84 -0.18 5000057.971
22.97934 -1.92 -0.18 5000031.2989
22.97934 -1.94 -0.18 5000031.2989
22.97934 -1.96 -0.18 5000031.2989
31.28802 -2.24 -0.18 5000045.1467
22.97934 -2.28 -0.18 5000031.2989
21.64188 -2.3 -0.18 5000029.0698
22.97934 -2.44 -0.18 5000031.2989
22.97934 -2.46 -0.18 5000031.2989
22.97934 -2.56 -0.18 5000031.2989
28.590239999999998 -2.68 -0.18 5000040.6504
24.53898 -2.7 -0.18 5000033.8983
21.64188 -2.74 -0.18 5000029.0698
21.64188 -2.76 -0.18 5000029.0698
20.4822 -2.84 -0.18 5000027.137
20.4822 -2.86 -0.18 5000027.137
22.97934 -3.02 -0.18 5000031.2989
22.97934 -3.04 -0.18 5000031.2989
21.64188 -3.42 -0.18 5000029.0698
21.64188 -3.44 -0.18 5000029.0698
19.467180000000003 -4.86 -0.18 5000025.4453
19.467180000000003 -4.88 -0.18 5000025.4453
19.467180000000003 -4.94 -0.18 5000025.4453
19.467180000000003 -4.96 -0.18 5000025.4453
19.467180000000003 -4.98 -0.18 5000025.4453
18.57126 -5.0 -0.18 5000023.9521
84.7368 -5.54 -0.18 5000134.228
18.57126 -5.92 -0.18 5000023.9521
18.57126 -5.94 -0.18 5000023.9521
18.57126 -6.0 -0.18 5000023.9521
18.57126 -6.02 -0.18 5000023.9521
24.53898 2.74 -0.2 5000033.8983
24.53898 2.72 -0.2 5000033.8983
24.53898 2.7 -0.2 5000033.8983
19.467180000000003 -0.62 -0.2 5000025.4453
24.53898 -1.32 -0.2 5000033.8983
24.53898 -1.34 -0.2 5000033.8983
31.28802 -2.2 -0.2 5000045.1467
22.97934 -2.28 -0.2 5000031.2989
21.64188 -2.3 -0.2 5000029.0698
22.97934 -2.56 -0.2 5000031.2989
28.590239999999998 -2.68 -0.2 5000040.6504
21.64188 -2.74 -0.2 5000029.0698
21.64188 -2.76 -0.2 5000029.0698
20.4822 -2.84 -0.2 5000027.137
21.64188 -3.42 -0.2 5000029.0698
21.64188 -3.44 -0.2 5000029.0698
28.590239999999998 -4.8 -0.2 5000040.6504
19.467180000000003 -4.82 -0.2 5000025.4453
19.467180000000003 -4.86 -0.2 5000025.4453
19.467180000000003 -4.88 -0.2 5000025.4453
19.467180000000003 -4.94 -0.2 5000025.4453
19.467180000000003 -4.96 -0.2 5000025.4453
19.467180000000003 -4.98 -0.2 5000025.4453
18.57126 -5.92 -0.2 5000023.9521
18.57126 -5.94 -0.2 5000023.9521
18.57126 -6.0 -0.2 5000023.9521
18.57126 -6.02 -0.2 5000023.9521
34.65684 5.78 -0.22 5000050.7614
31.28802 5.18 -0.22 5000045.1467
31.28802 4.74 -0.22 5000045.1467
28.590239999999998 4.64 -0.22 5000040.6504
31.28802 4.48 -0.22 5000045.1467
31.28802 4.46 -0.22 5000045.1467
22.97934 2.7 -0.22 5000031.2989
24.53898 2.42 -0.22 5000033.8983
24.53898 2.4 -0.22 5000033.8983
24.53898 2.38 -0.22 5000033.8983
19.467180000000003 1.82 -0.22 5000025.4453
26.38116 1.8 -0.22 5000036.9686
28.590239999999998 0.9 -0.22 5000040.6504
24.53898 -1.32 -0.22 5000033.8983
24.53898 -1.34 -0.22 5000033.8983
18.57126 -1.4 -0.22 5000023.9521
31.28802 -2.2 -0.22 5000045.1467
124.19999999999999 -2.5 -0.22 5000200.0
22.97934 -2.56 -0.22 5000031.2989
28.590239999999998 -2.68 -0.22 5000040.6504
21.64188 -2.74 -0.22 5000029.0698
21.64188 -2.76 -0.22 5000029.0698
18.57126 -3.9 -0.22 5000023.9521
19.467180000000003 -4.86 -0.22 5000025.4453
19.467180000000003 -4.88 -0.22 5000025.4453
19.467180000000003 -4.96 -0.22 5000025.4453
17.77464 -5.94 -0.22 5000022.6244
18.57126 -6.0 -0.22 5000023.9521
34.65684 5.78 -0.24 5000050.7614
31.28802 5.54 -0.24 5000045.1467
31.28802 5.18 -0.24 5000045.1467
31.28802 4.74 -0.24 5000045.1467
31.28802 4.48 -0.24 5000045.1467
34.65684 4.0 -0.24 5000050.7614
34.65684 3.98 -0.24 5000050.7614
24.53898 2.38 -0.24 5000033.8983
22.97934 1.78 -0.24 5000031.2989
21.64188 1.76 -0.24 5000029.0698
21.64188 1.74 -0.24 5000029.0698
21.64188 1.72 -0.24 5000029.0698
84.7368 -1.12 -0.24 5000134.228
24.53898 -1.32 -0.24 5000033.8983
22.97934 -2.56 -0.24 5000031.2989
20.4822 -2.96 -0.24 5000027.137
18.57126 -3.9 -0.24 5000023.9521
84.7368 -5.64 -0.24 5000134.228
13.979940000000001 -5.8 -0.24 5000016.2999
13.979940000000001 -5.82 -0.24 5000016.2999
13.979940000000001 -5.84 -0.24 5000016.2999
13.6044 -5.86 -0.24 5000015.674
18.57126 -6.0 -0.24 5000023.9521
18.57126 -6.02 -0.24 5000023.9521
31.28802 4.74 -0.26 5000045.1467
31.28802 4.48 -0.26 5000045.1467
22.97934 2.7 -0.26 5000031.2989
21.64188 1.72 -0.26 5000029.0698
21.64188 1.7 -0.26 5000029.0698
26.38116 -0.26 -0.26 5000036.9686
84.7368 -1.12 -0.26 5000134.228
20.4822 -2.96 -0.26 5000027.137
31.28802 -3.2 -0.26 5000045.1467
17.06172 -3.26 -0.26 5000021.4362
17.06172 -3.28 -0.26 5000021.4362
19.467180000000003 -4.32 -0.26 5000025.4453
19.467180000000003 -4.34 -0.26 5000025.4453
19.467180000000003 -4.36 -0.26 5000025.4453
124.19999999999999 -5.42 -0.26 5000200.0
124.19999999999999 -5.44 -0.26 5000200.0
124.19999999999999 -5.5 -0.26 5000200.0
124.19999999999999 -5.52 -0.26 5000200.0
84.7368 -5.56 -0.26 5000134.228
84.7368 -5.6 -0.26 5000134.228
14.386740000000001 -5.78 -0.26 5000016.9779
13.979940000000001 -5.8 -0.26 5000016.2999
13.979940000000001 -5.82 -0.26 5000016.2999
13.979940000000001 -5.84 -0.26 5000016.2999
13.6044 -5.86 -0.26 5000015.674
17.77464 -5.94 -0.26 5000022.6244
18.57126 -6.0 -0.26 5000023.9521
18.57126 -6.02 -0.26 5000023.9521
34.65684 5.78 -0.28 5000050.7614
34.65684 5.76 -0.28 5000050.7614
31.28802 4.74 -0.28 5000045.1467
31.28802 4.72 -0.28 5000045.1467
31.28802 4.48 -0.28 5000045.1467
31.28802 4.46 -0.28 5000045.1467
28.590239999999998 4.32 -0.28 5000040.6504
28.590239999999998 3.88 -0.28 5000040.6504
24.53898 2.56 -0.28 5000033.8983
24.53898 2.54 -0.28 5000033.8983
21.64188 1.72 -0.28 5000029.0698
22.97934 1.36 -0.28 5000031.2989
22.97934 1.34 -0.28 5000031.2989
24.53898 -2.04 -0.28 5000033.8983
24.53898 -2.06 -0.28 5000033.8983
15.83916 -2.2 -0.28 5000019.3986
15.83916 -2.22 -0.28 5000019.3986
20.4822 -4.3 -0.28 5000027.137
19.467180000000003 -4.32 -0.28 5000025.4453
19.467180000000003 -4.34 -0.28 5000025.4453
19.467180000000003 -4.36 -0.28 5000025.4453
17.77464 -5.94 -0.28 5000022.6244
18.57126 -6.0 -0.28 5000023.9521
18.57126 -6.02 -0.28 5000023.9521
34.65684 5.76 -0.3 5000050.7614
34.65684 5.52 -0.3 5000050.7614
31.28802 5.4 -0.3 5000045.1467
31.28802 5.06 -0.3 5000045.1467
31.28802 4.74 -0.3 5000045.1467
31.28802 4.72 -0.3 5000045.1467
28.590239999999998 4.34 -0.3 5000040.6504
26.38116 3.56 -0.3 5000036.9686
28.590239999999998 3.44 -0.3 5000040.6504
24.53898 2.56 -0.3 5000033.8983
24.53898 2.54 -0.3 5000033.8983
16.419959999999996 -1.82 -0.3 5000020.3666
16.419959999999996 -1.84 -0.3 5000020.3666
15.83916 -2.2 -0.3 5000019.3986
15.83916 -2.22 -0.3 5000019.3986
34.65684 5.76 -0.32 5000050.7614
34.65684 5.6 -0.32 5000050.7614
34.65684 5.52 -0.32 5000050.7614
31.28802 5.16 -0.32 5000045.1467
28.590239999999998 4.56 -0.32 5000040.6504
28.590239999999998 4.4 -0.32 5000040.6504
28.590239999999998 3.42 -0.32 5000040.6504
22.97934 2.66 -0.32 5000031.2989
24.53898 2.56 -0.32 5000033.8983
24.53898 2.54 -0.32 5000033.8983
21.64188 1.68 -0.32 5000029.0698
52.78302 -1.02 -0.32 5000080.9717
24.53898 -1.14 -0.32 5000033.8983
16.419959999999996 -1.82 -0.32 5000020.3666
16.419959999999996 -1.84 -0.32 5000020.3666
15.83916 -2.2 -0.32 5000019.3986
15.83916 -2.22 -0.32 5000019.3986
13.979940000000001 -2.28 -0.32 5000016.2999
19.467180000000003 -2.48 -0.32 5000025.4453
16.419959999999996 -2.54 -0.32 5000020.3666
16.419959999999996 -2.56 -0.32 5000020.3666
16.419959999999996 -2.58 -0.32 5000020.3666
34.65684 5.8 -0.34 5000050.7614
34.65684 5.74 -0.34 5000050.7614
34.65684 5.6 -0.34 5000050.7614
34.65684 5.52 -0.34 5000050.7614
31.28802 5.16 -0.34 5000045.1467
28.590239999999998 4.44 -0.34 5000040.6504
22.97934 2.64 -0.34 5000031.2989
21.64188 1.76 -0.34 5000029.0698
21.64188 1.54 -0.34 5000029.0698
21.64188 1.52 -0.34 5000029.0698
21.64188 1.28 -0.34 5000029.0698
15.83916 -2.2 -0.34 5000019.3986
15.83916 -2.22 -0.34 5000019.3986
13.979940000000001 -2.28 -0.34 5000016.2999
16.419959999999996 -2.54 -0.34 5000020.3666
16.419959999999996 -2.56 -0.34 5000020.3666
16.419959999999996 -2.58 -0.34 5000020.3666
13.979940000000001 -4.8 -0.34 5000016.2999
13.979940000000001 -4.82 -0.34 5000016.2999
13.6044 -4.9 -0.34 5000015.674
13.6044 -5.96 -0.34 5000015.674
13.25658 -5.98 -0.34 5000015.0943
13.25658 -6.0 -0.34 5000015.0943
12.933599999999998 -6.02 -0.34 5000014.556
12.933599999999998 -6.04 -0.34 5000014.556
12.63288 -6.06 -0.34 5000014.0548
38.9826 5.9 -0.36 5000057.971
34.65684 5.74 -0.36 5000050.7614
34.65684 5.6 -0.36 5000050.7614
31.28802 5.14 -0.36 5000045.1467
28.590239999999998 5.1 -0.36 5000040.6504
22.97934 2.62 -0.36 5000031.2989
21.64188 1.76 -0.36 5000029.0698
21.64188 1.54 -0.36 5000029.0698
21.64188 1.52 -0.36 5000029.0698
16.419959999999996 -3.26 -0.36 5000020.3666
13.6044 -5.96 -0.36 5000015.674
13.25658 -5.98 -0.36 5000015.0943
13.25658 -6.0 -0.36 5000015.0943
12.933599999999998 -6.02 -0.36 5000014.556
13.6044 -6.24 -0.36 5000015.674
38.9826 5.9 -0.38 5000057.971
34.65684 5.6 -0.38 5000050.7614
28.590239999999998 5.1 -0.38 5000040.6504
31.28802 4.64 -0.38 5000045.1467
26.38116 3.46 -0.38 5000036.9686
26.38116 3.44 -0.38 5000036.9686
22.97934 3.24 -0.38 5000031.2989
22.97934 3.22 -0.38 5000031.2989
22.97934 2.6 -0.38 5000031.2989
21.64188 1.76 -0.38 5000029.0698
21.64188 1.54 -0.38 5000029.0698
21.64188 1.52 -0.38 5000029.0698
124.19999999999999 -1.12 -0.38 5000200.0
16.419959999999996 -2.4 -0.38 5000020.3666
16.419959999999996 -2.42 -0.38 5000020.3666
22.97934 -3.12 -0.38 5000031.2989
13.979940000000001 -4.78 -0.38 5000016.2999
13.6044 -5.38 -0.38 5000015.674
13.6044 -5.4 -0.38 5000015.674
17.77464 -5.8 -0.38 5000022.6244
17.77464 -5.82 -0.38 5000022.6244
13.979940000000001 -5.9 -0.38 5000016.2999
13.6044 -5.92 -0.38 5000015.674
13.6044 -5.94 -0.38 5000015.674
13.25658 -5.96 -0.38 5000015.0943
13.25658 -5.98 -0.38 5000015.0943
13.25658 -6.0 -0.38 5000015.0943
13.6044 -6.22 -0.38 5000015.674
13.6044 -6.24 -0.38 5000015.674
28.590239999999998 5.1 -0.4 5000040.6504
26.38116 4.08 -0.4 5000036.9686
24.53898 3.38 -0.4 5000033.8983
22.97934 3.22 -0.4 5000031.2989
22.97934 3.2 -0.4 5000031.2989
24.53898 2.68 -0.4 5000033.8983
22.97934 2.58 -0.4 5000031.2989
21.64188 2.14 -0.4 5000029.0698
21.64188 1.76 -0.4 5000029.0698
21.64188 1.52 -0.4 5000029.0698
18.57126 0.5 -0.4 5000023.9521
18.57126 0.48 -0.4 5000023.9521
24.53898 -0.12 -0.4 5000033.8983
124.19999999999999 -1.12 -0.4 5000200.0
124.19999999999999 -1.14 -0.4 5000200.0
26.38116 -1.46 -0.4 5000036.9686
64.806 -1.6 -0.4 5000101.01
19.467180000000003 -1.84 -0.4 5000025.4453
15.83916 -1.9 -0.4 5000019.3986
15.83916 -1.92 -0.4 5000019.3986
52.78302 -2.08 -0.4 5000080.9717
52.78302 -2.1 -0.4 5000080.9717
52.78302 -2.12 -0.4 5000080.9717
16.419959999999996 -2.38 -0.4 5000020.3666
16.419959999999996 -2.4 -0.4 5000020.3666
15.83916 -2.42 -0.4 5000019.3986
15.83916 -2.44 -0.4 5000019.3986
15.3111 -2.46 -0.4 5000018.5185
22.97934 -3.12 -0.4 5000031.2989
16.419959999999996 -3.28 -0.4 5000020.3666
13.979940000000001 -4.78 -0.4 5000016.2999
13.6044 -5.38 -0.4 5000015.674
13.6044 -5.4 -0.4 5000015.674
13.25658 -5.52 -0.4 5000015.0943
13.6044 -5.94 -0.4 5000015.674
13.25658 -5.96 -0.4 5000015.0943
13.25658 -5.98 -0.4 5000015.0943
34.65684 5.78 -0.42 5000050.7614
34.65684 5.76 -0.42 5000050.7614
34.65684 5.56 -0.42 5000050.7614
34.65684 5.22 -0.42 5000050.7614
28.590239999999998 5.08 -0.42 5000040.6504
28.590239999999998 4.84 -0.42 5000040.6504
31.28802 4.7 -0.42 5000045.1467
28.590239999999998 4.68 -0.42 5000040.6504
28.590239999999998 4.44 -0.42 5000040.6504
28.590239999999998 4.42 -0.42 5000040.6504
26.38116 4.06 -0.42 5000036.9686
26.38116 4.04 -0.42 5000036.9686
22.97934 3.2 -0.42 5000031.2989
24.53898 2.68 -0.42 5000033.8983
24.53898 2.66 -0.42 5000033.8983
22.97934 2.64 -0.42 5000031.2989
22.97934 2.62 -0.42 5000031.2989
15.83916 2.52 -0.42 5000019.3986
21.64188 2.26 -0.42 5000029.0698
21.64188 2.24 -0.42 5000029.0698
21.64188 1.52 -0.42 5000029.0698
21.64188 1.5 -0.42 5000029.0698
18.57126 0.46 -0.42 5000023.9521
124.19999999999999 -0.74 -0.42 5000200.0
34.65684 -0.82 -0.42 5000050.7614
34.65684 -0.86 -0.42 5000050.7614
124.19999999999999 -1.12 -0.42 5000200.0
124.19999999999999 -1.14 -0.42 5000200.0
18.57126 -1.82 -0.42 5000023.9521
18.57126 -1.84 -0.42 5000023.9521
15.83916 -1.9 -0.42 5000019.3986
16.419959999999996 -2.38 -0.42 5000020.3666
16.419959999999996 -2.4 -0.42 5000020.3666
15.83916 -2.42 -0.42 5000019.3986
15.83916 -2.44 -0.42 5000019.3986
15.3111 -2.46 -0.42 5000018.5185
16.419959999999996 -3.28 -0.42 5000020.3666
16.419959999999996 -3.3 -0.42 5000020.3666
18.57126 -3.98 -0.42 5000023.9521
13.979940000000001 -4.76 -0.42 5000016.2999
13.979940000000001 -4.78 -0.42 5000016.2999
13.6044 -5.38 -0.42 5000015.674
13.6044 -5.4 -0.42 5000015.674
13.25658 -5.84 -0.42 5000015.0943
13.25658 -5.86 -0.42 5000015.0943
13.25658 -5.96 -0.42 5000015.0943
13.25658 -5.98 -0.42 5000015.0943
13.25658 -6.0 -0.42 5000015.0943
34.65684 5.76 -0.44 5000050.7614
34.65684 5.56 -0.44 5000050.7614
34.65684 5.22 -0.44 5000050.7614
28.590239999999998 5.08 -0.44 5000040.6504
28.590239999999998 4.84 -0.44 5000040.6504
28.590239999999998 4.42 -0.44 5000040.6504
26.38116 4.04 -0.44 5000036.9686
26.38116 3.5 -0.44 5000036.9686
22.97934 2.62 -0.44 5000031.2989
11.843340000000001 2.4 -0.44 5000012.7389
21.64188 2.26 -0.44 5000029.0698
21.64188 2.24 -0.44 5000029.0698
21.64188 1.52 -0.44 5000029.0698
18.57126 0.44 -0.44 5000023.9521
18.57126 0.42 -0.44 5000023.9521
26.38116 -0.36 -0.44 5000036.9686
19.467180000000003 -0.44 -0.44 5000025.4453
19.467180000000003 -0.48 -0.44 5000025.4453
84.7368 -0.74 -0.44 5000134.228
34.65684 -0.82 -0.44 5000050.7614
31.28802 -0.86 -0.44 5000045.1467
24.53898 -0.92 -0.44 5000033.8983
17.77464 -0.98 -0.44 5000022.6244
124.19999999999999 -1.12 -0.44 5000200.0
31.28802 -1.24 -0.44 5000045.1467
18.57126 -1.82 -0.44 5000023.9521
15.83916 -1.9 -0.44 5000019.3986
15.83916 -2.44 -0.44 5000019.3986
15.83916 -2.46 -0.44 5000019.3986
18.57126 -3.98 -0.44 5000023.9521
18.57126 -4.0 -0.44 5000023.9521
16.419959999999996 -4.44 -0.44 5000020.3666
16.419959999999996 -4.46 -0.44 5000020.3666
16.419959999999996 -4.5 -0.44 5000020.3666
16.419959999999996 -4.52 -0.44 5000020.3666
13.979940000000001 -4.74 -0.44 5000016.2999
13.979940000000001 -4.76 -0.44 5000016.2999
13.979940000000001 -4.78 -0.44 5000016.2999
13.6044 -5.28 -0.44 5000015.674
13.25658 -5.38 -0.44 5000015.0943
13.25658 -5.4 -0.44 5000015.0943
13.25658 -5.86 -0.44 5000015.0943
13.25658 -5.88 -0.44 5000015.0943
34.65684 5.58 -0.46 5000050.7614
34.65684 5.24 -0.46 5000050.7614
34.65684 5.22 -0.46 5000050.7614
28.590239999999998 5.08 -0.46 5000040.6504
31.28802 4.9 -0.46 5000045.1467
28.590239999999998 4.88 -0.46 5000040.6504
28.590239999999998 4.84 -0.46 5000040.6504
26.38116 3.5 -0.46 5000036.9686
26.38116 3.48 -0.46 5000036.9686
22.97934 2.62 -0.46 5000031.2989
22.97934 2.6 -0.46 5000031.2989
18.57126 0.42 -0.46 5000023.9521
18.57126 0.4 -0.46 5000023.9521
24.53898 -0.1 -0.46 5000033.8983
26.38116 -0.36 -0.46 5000036.9686
19.467180000000003 -0.44 -0.46 5000025.4453
19.467180000000003 -0.48 -0.46 5000025.4453
64.806 -0.62 -0.46 5000101.01
84.7368 -0.72 -0.46 5000134.228
84.7368 -0.74 -0.46 5000134.228
31.28802 -0.82 -0.46 5000045.1467
24.53898 -0.88 -0.46 5000033.8983
24.53898 -0.92 -0.46 5000033.8983
17.77464 -0.98 -0.46 5000022.6244
124.19999999999999 -1.12 -0.46 5000200.0
26.38116 -1.24 -0.46 5000036.9686
24.53898 -1.28 -0.46 5000033.8983
19.467180000000003 -1.82 -0.46 5000025.4453
15.83916 -1.88 -0.46 5000019.3986
15.83916 -1.9 -0.46 5000019.3986
15.83916 -2.44 -0.46 5000019.3986
15.83916 -2.46 -0.46 5000019.3986
21.64188 -2.84 -0.46 5000029.0698
21.64188 -2.86 -0.46 5000029.0698
19.467180000000003 -3.12 -0.46 5000025.4453
18.57126 -3.36 -0.46 5000023.9521
18.57126 -3.38 -0.46 5000023.9521
16.419959999999996 -4.46 -0.46 5000020.3666
16.419959999999996 -4.52 -0.46 5000020.3666
13.979940000000001 -4.74 -0.46 5000016.2999
13.979940000000001 -4.76 -0.46 5000016.2999
13.25658 -5.38 -0.46 5000015.0943
13.25658 -5.4 -0.46 5000015.0943
13.25658 -5.54 -0.46 5000015.0943
12.933599999999998 -5.86 -0.46 5000014.556
12.933599999999998 -5.88 -0.46 5000014.556
13.25658 -6.0 -0.46 5000015.0943
13.25658 -6.02 -0.46 5000015.0943
12.933599999999998 -6.04 -0.46 5000014.556
31.28802 5.46 -0.48 5000045.1467
31.28802 5.44 -0.48 5000045.1467
34.65684 5.24 -0.48 5000050.7614
34.65684 5.22 -0.48 5000050.7614
28.590239999999998 5.08 -0.48 5000040.6504
28.590239999999998 5.06 -0.48 5000040.6504
31.28802 4.9 -0.48 5000045.1467
28.590239999999998 4.88 -0.48 5000040.6504
28.590239999999998 4.5 -0.48 5000040.6504
28.590239999999998 4.48 -0.48 5000040.6504
21.64188 1.52 -0.48 5000029.0698
28.590239999999998 1.4 -0.48 5000040.6504
21.64188 1.34 -0.48 5000029.0698
18.57126 0.4 -0.48 5000023.9521
18.57126 0.38 -0.48 5000023.9521
24.53898 -0.08 -0.48 5000033.8983
38.9826 -0.3 -0.48 5000057.971
26.38116 -0.36 -0.48 5000036.9686
19.467180000000003 -0.44 -0.48 5000025.4453
17.06172 -0.52 -0.48 5000021.4362
84.7368 -0.74 -0.48 5000134.228
26.38116 -0.84 -0.48 5000036.9686
24.53898 -0.88 -0.48 5000033.8983
124.19999999999999 -1.12 -0.48 5000200.0
124.19999999999999 -1.14 -0.48 5000200.0
24.53898 -1.24 -0.48 5000033.8983
24.53898 -1.28 -0.48 5000033.8983
21.64188 -1.3 -0.48 5000029.0698
18.57126 -1.82 -0.48 5000023.9521
15.83916 -1.88 -0.48 5000019.3986
38.9826 -2.2 -0.48 5000057.971
13.979940000000001 -2.26 -0.48 5000016.2999
17.77464 -2.38 -0.48 5000022.6244
15.83916 -2.44 -0.48 5000019.3986
15.83916 -2.46 -0.48 5000019.3986
21.64188 -2.84 -0.48 5000029.0698
19.467180000000003 -3.0 -0.48 5000025.4453
18.57126 -3.36 -0.48 5000023.9521
18.57126 -3.38 -0.48 5000023.9521
19.467180000000003 -3.46 -0.48 5000025.4453
18.57126 -3.86 -0.48 5000023.9521
13.979940000000001 -4.72 -0.48 5000016.2999
13.979940000000001 -4.74 -0.48 5000016.2999
13.25658 -5.4 -0.48 5000015.0943
13.25658 -5.54 -0.48 5000015.0943
13.25658 -5.88 -0.48 5000015.0943
13.25658 -5.9 -0.48 5000015.0943
13.25658 -6.0 -0.48 5000015.0943
13.25658 -6.02 -0.48 5000015.0943
12.933599999999998 -6.04 -0.48 5000014.556
31.28802 5.44 -0.5 5000045.1467
34.65684 5.24 -0.5 5000050.7614
34.65684 5.22 -0.5 5000050.7614
31.28802 4.88 -0.5 5000045.1467
28.590239999999998 4.82 -0.5 5000040.6504
26.38116 3.48 -0.5 5000036.9686
22.97934 2.62 -0.5 5000031.2989
20.4822 1.58 -0.5 5000027.137
21.64188 1.52 -0.5 5000029.0698
28.590239999999998 1.4 -0.5 5000040.6504
21.64188 1.34 -0.5 5000029.0698
21.64188 1.32 -0.5 5000029.0698
20.4822 1.26 -0.5 5000027.137
18.57126 0.36 -0.5 5000023.9521
18.57126 0.34 -0.5 5000023.9521
19.467180000000003 -0.44 -0.5 5000025.4453
84.7368 -0.74 -0.5 5000134.228
24.53898 -0.84 -0.5 5000033.8983
24.53898 -0.88 -0.5 5000033.8983
24.53898 -1.24 -0.5 5000033.8983
22.97934 -1.28 -0.5 5000031.2989
21.64188 -1.3 -0.5 5000029.0698
21.64188 -1.32 -0.5 5000029.0698
14.82888 -1.46 -0.5 5000017.7148
14.82888 -1.48 -0.5 5000017.7148
18.57126 -1.8 -0.5 5000023.9521
15.83916 -1.88 -0.5 5000019.3986
17.77464 -2.38 -0.5 5000022.6244
15.83916 -2.44 -0.5 5000019.3986
15.83916 -2.46 -0.5 5000019.3986
21.64188 -2.84 -0.5 5000029.0698
19.467180000000003 -3.0 -0.5 5000025.4453
19.467180000000003 -3.14 -0.5 5000025.4453
19.467180000000003 -3.16 -0.5 5000025.4453
18.57126 -3.38 -0.5 5000023.9521
19.467180000000003 -3.46 -0.5 5000025.4453
18.57126 -3.86 -0.5 5000023.9521
16.419959999999996 -4.16 -0.5 5000020.3666
16.419959999999996 -4.18 -0.5 5000020.3666
13.979940000000001 -4.28 -0.5 5000016.2999
13.979940000000001 -4.3 -0.5 5000016.2999
14.82888 -4.68 -0.5 5000017.7148
13.979940000000001 -4.74 -0.5 5000016.2999
13.25658 -5.4 -0.5 5000015.0943
13.25658 -5.88 -0.5 5000015.0943
12.933599999999998 -6.04 -0.5 5000014.556
12.933599999999998 -6.06 -0.5 5000014.556
12.933599999999998 -6.08 -0.5 5000014.556
24.53898 2.62 -0.52 5000033.8983
22.97934 2.6 -0.52 5000031.2989
22.97934 2.58 -0.52 5000031.2989
21.64188 2.56 -0.52 5000029.0698
52.78302 -0.64 -0.52 5000080.9717
84.7368 -0.74 -0.52 5000134.228
24.53898 -0.84 -0.52 5000033.8983
24.53898 -0.88 -0.52 5000033.8983
24.53898 -0.92 -0.52 5000033.8983
44.74056 -1.12 -0.52 5000067.5676
44.74056 -1.14 -0.52 5000067.5676
24.53898 -1.24 -0.52 5000033.8983
21.64188 -1.28 -0.52 5000029.0698
20.4822 -1.3 -0.52 5000027.137
20.4822 -1.32 -0.52 5000027.137
18.57126 -1.8 -0.52 5000023.9521
16.419959999999996 -1.88 -0.52 5000020.3666
38.9826 -2.18 -0.52 5000057.971
17.77464 -2.34 -0.52 5000022.6244
17.77464 -2.38 -0.52 5000022.6244
15.3111 -2.44 -0.52 5000018.5185
15.3111 -2.46 -0.52 5000018.5185
22.97934 -2.72 -0.52 5000031.2989
22.97934 -2.74 -0.52 5000031.2989
17.77464 -2.84 -0.52 5000022.6244
17.77464 -2.86 -0.52 5000022.6244
19.467180000000003 -3.14 -0.52 5000025.4453
19.467180000000003 -3.16 -0.52 5000025.4453
19.467180000000003 -3.46 -0.52 5000025.4453
13.979940000000001 -4.28 -0.52 5000016.2999
13.979940000000001 -4.3 -0.52 5000016.2999
15.3111 -4.64 -0.52 5000018.5185
14.82888 -4.66 -0.52 5000017.7148
13.979940000000001 -4.72 -0.52 5000016.2999
13.25658 -5.4 -0.52 5000015.0943
13.25658 -5.86 -0.52 5000015.0943
12.933599999999998 -6.06 -0.52 5000014.556
12.933599999999998 -6.08 -0.52 5000014.556
13.6044 -6.34 -0.52 5000015.674
31.28802 5.12 -0.54 5000045.1467
24.53898 3.0 -0.54 5000033.8983
22.97934 2.4 -0.54 5000031.2989
20.4822 1.48 -0.54 5000027.137
20.4822 1.3 -0.54 5000027.137
20.4822 1.28 -0.54 5000027.137
18.57126 0.28 -0.54 5000023.9521
18.57126 0.26 -0.54 5000023.9521
84.7368 -0.7 -0.54 5000134.228
84.7368 -0.74 -0.54 5000134.228
24.53898 -0.84 -0.54 5000033.8983
24.53898 -0.88 -0.54 5000033.8983
44.74056 -1.14 -0.54 5000067.5676
44.74056 -1.16 -0.54 5000067.5676
20.4822 -1.3 -0.54 5000027.137
15.3111 -1.44 -0.54 5000018.5185
18.57126 -1.8 -0.54 5000023.9521
16.419959999999996 -1.86 -0.54 5000020.3666
16.419959999999996 -1.88 -0.54 5000020.3666
13.979940000000001 -1.94 -0.54 5000016.2999
38.9826 -2.18 -0.54 5000057.971
19.467180000000003 -2.32 -0.54 5000025.4453
18.57126 -2.34 -0.54 5000023.9521
18.57126 -2.36 -0.54 5000023.9521
18.57126 -2.38 -0.54 5000023.9521
15.3111 -2.44 -0.54 5000018.5185
15.3111 -2.46 -0.54 5000018.5185
12.3522 -2.62 -0.54 5000013.587
22.97934 -2.74 -0.54 5000031.2989
19.467180000000003 -3.14 -0.54 5000025.4453
19.467180000000003 -3.16 -0.54 5000025.4453
13.979940000000001 -4.26 -0.54 5000016.2999
13.979940000000001 -4.28 -0.54 5000016.2999
13.979940000000001 -4.3 -0.54 5000016.2999
15.3111 -4.62 -0.54 5000018.5185
13.979940000000001 -4.72 -0.54 5000016.2999
13.6044 -4.84 -0.54 5000015.674
13.25658 -5.4 -0.54 5000015.0943
13.25658 -6.06 -0.54 5000015.0943
12.933599999999998 -6.08 -0.54 5000014.556
12.933599999999998 -6.1 -0.54 5000014.556
31.28802 4.84 -0.56 5000045.1467
26.38116 3.96 -0.56 5000036.9686
24.53898 3.02 -0.56 5000033.8983
24.53898 3.0 -0.56 5000033.8983
22.97934 2.68 -0.56 5000031.2989
20.4822 1.48 -0.56 5000027.137
20.4822 1.46 -0.56 5000027.137
19.467180000000003 1.18 -0.56 5000025.4453
19.467180000000003 1.16 -0.56 5000025.4453
19.467180000000003 1.14 -0.56 5000025.4453
18.57126 0.28 -0.56 5000023.9521
18.57126 0.26 -0.56 5000023.9521
18.57126 0.24 -0.56 5000023.9521
14.386740000000001 0.16 -0.56 5000016.9779
14.82888 0.12 -0.56 5000017.7148
18.57126 0.1 -0.56 5000023.9521
20.4822 -0.48 -0.56 5000027.137
20.4822 -0.5 -0.56 5000027.137
19.467180000000003 -1.8 -0.56 5000025.4453
16.419959999999996 -1.86 -0.56 5000020.3666
16.419959999999996 -1.88 -0.56 5000020.3666
18.57126 -2.38 -0.56 5000023.9521
15.83916 -2.46 -0.56 5000019.3986
15.83916 -2.82 -0.56 5000019.3986
19.467180000000003 -3.7 -0.56 5000025.4453
19.467180000000003 -3.72 -0.56 5000025.4453
28.590239999999998 -4.0 -0.56 5000040.6504
13.979940000000001 -4.24 -0.56 5000016.2999
13.979940000000001 -4.26 -0.56 5000016.2999
13.979940000000001 -4.28 -0.56 5000016.2999
13.979940000000001 -4.38 -0.56 5000016.2999
13.979940000000001 -4.4 -0.56 5000016.2999
15.83916 -4.58 -0.56 5000019.3986
15.3111 -4.6 -0.56 5000018.5185
13.979940000000001 -4.7 -0.56 5000016.2999
13.979940000000001 -4.72 -0.56 5000016.2999
13.6044 -4.84 -0.56 5000015.674
13.25658 -5.4 -0.56 5000015.0943
13.25658 -5.42 -0.56 5000015.0943
12.933599999999998 -6.08 -0.56 5000014.556
12.933599999999998 -6.1 -0.56 5000014.556
12.933599999999998 -6.12 -0.56 5000014.556
31.28802 4.84 -0.58 5000045.1467
26.38116 3.96 -0.58 5000036.9686
26.38116 3.64 -0.58 5000036.9686
22.97934 2.68 -0.58 5000031.2989
20.4822 1.84 -0.58 5000027.137
28.590239999999998 0.36 -0.58 5000040.6504
18.57126 0.26 -0.58 5000023.9521
18.57126 0.24 -0.58 5000023.9521
14.386740000000001 0.16 -0.58 5000016.9779
14.82888 0.12 -0.58 5000017.7148
18.57126 0.1 -0.58 5000023.9521
18.57126 0.02 -0.58 5000023.9521
18.57126 0.0 -0.58 5000023.9521
20.4822 -0.48 -0.58 5000027.137
20.4822 -0.5 -0.58 5000027.137
20.4822 -0.52 -0.58 5000027.137
18.57126 -0.56 -0.58 5000023.9521
38.9826 -0.64 -0.58 5000057.971
64.806 -0.8 -0.58 5000101.01
20.4822 -0.98 -0.58 5000027.137
84.7368 -1.08 -0.58 5000134.228
84.7368 -1.1 -0.58 5000134.228
34.65684 -1.22 -0.58 5000050.7614
17.06172 -1.34 -0.58 5000021.4362
15.83916 -1.42 -0.58 5000019.3986
19.467180000000003 -1.78 -0.58 5000025.4453
16.419959999999996 -1.86 -0.58 5000020.3666
16.419959999999996 -1.88 -0.58 5000020.3666
18.57126 -2.38 -0.58 5000023.9521
15.83916 -2.46 -0.58 5000019.3986
15.83916 -2.48 -0.58 5000019.3986
22.97934 -2.76 -0.58 5000031.2989
15.83916 -2.82 -0.58 5000019.3986
24.53898 -3.04 -0.58 5000033.8983
17.06172 -3.22 -0.58 5000021.4362
14.386740000000001 -4.14 -0.58 5000016.9779
13.979940000000001 -4.16 -0.58 5000016.2999
13.979940000000001 -4.18 -0.58 5000016.2999
13.6044 -4.2 -0.58 5000015.674
13.979940000000001 -4.34 -0.58 5000016.2999
13.979940000000001 -4.36 -0.58 5000016.2999
13.979940000000001 -4.38 -0.58 5000016.2999
13.979940000000001 -4.4 -0.58 5000016.2999
15.83916 -4.56 -0.58 5000019.3986
12.933599999999998 -6.08 -0.58 5000014.556
12.933599999999998 -6.1 -0.58 5000014.556
12.933599999999998 -6.12 -0.58 5000014.556
12.933599999999998 -6.14 -0.58 5000014.556
11.843340000000001 -6.2 -0.58 5000012.7389
11.843340000000001 -6.22 -0.58 5000012.7389
13.25658 -6.32 -0.58 5000015.0943
13.6044 -6.34 -0.58 5000015.674
15.83916 -6.66 -0.58 5000019.3986
28.590239999999998 4.5 -0.6 5000040.6504
28.590239999999998 4.48 -0.6 5000040.6504
28.590239999999998 4.38 -0.6 5000040.6504
28.590239999999998 4.2 -0.6 5000040.6504
26.38116 3.96 -0.6 5000036.9686
24.53898 3.7 -0.6 5000033.8983
26.38116 3.64 -0.6 5000036.9686
24.53898 3.36 -0.6 5000033.8983
22.97934 2.9 -0.6 5000031.2989
22.97934 2.68 -0.6 5000031.2989
21.64188 1.66 -0.6 5000029.0698
20.4822 1.38 -0.6 5000027.137
18.57126 0.0 -0.6 5000023.9521
124.19999999999999 -0.28 -0.6 5000200.0
20.4822 -1.0 -0.6 5000027.137
84.7368 -1.1 -0.6 5000134.228
16.419959999999996 -1.38 -0.6 5000020.3666
16.419959999999996 -1.4 -0.6 5000020.3666
13.25658 -1.5 -0.6 5000015.0943
13.6044 -1.52 -0.6 5000015.674
12.933599999999998 -1.56 -0.6 5000014.556
