VERSION .7
FIELDS x y z rgb
SIZE 4 4 4 4
TYPE F F F F
COUNT 1 1 1 1
WIDTH 832
HEIGHT 1
VIEWPOINT 0 0 0 1 0 0 0
POINTS 832
DATA ascii
10.904566666666666 -3.9 2.0 5000027.137
10.904566666666666 -3.933333333333333 2.0 5000027.137
10.904566666666666 -4.7 2.0 5000027.137
10.904566666666666 -4.733333333333333 2.0 5000027.137
10.848176666666667 -4.833333333333333 2.0 5000025.4453
10.848176666666667 -4.866666666666666 2.0 5000025.4453
11.232286666666667 -5.866666666666666 2.0 5000036.9686
10.754146666666667 -6.0 2.0 5000022.6244
10.798403333333333 -6.666666666666667 2.0 5000023.9521
10.798403333333333 -6.7 2.0 5000023.9521
10.798403333333333 -6.733333333333333 2.0 5000023.9521
10.848176666666667 -7.0 2.0 5000025.4453
10.848176666666667 -7.033333333333333 2.0 5000025.4453
10.754146666666667 -7.2 2.0 5000022.6244
10.754146666666667 -7.233333333333333 2.0 5000022.6244
10.848176666666667 -7.866666666666666 2.0 5000025.4453
10.848176666666667 -7.9 2.0 5000025.4453
10.522466666666666 -8.133333333333333 2.0 5000015.674
10.590493333333333 -11.333333333333334 2.0 5000017.7148
10.848176666666667 -12.066666666666666 2.0 5000025.4453
10.54333 -12.833333333333334 2.0 5000016.2999
10.54333 -12.866666666666667 2.0 5000016.2999
10.522466666666666 -12.933333333333334 2.0 5000015.674
10.503143333333334 -12.966666666666667 2.0 5000015.0943
10.522466666666666 -13.866666666666667 2.0 5000015.674
10.522466666666666 -13.9 2.0 5000015.674
10.468493333333333 -16.5 2.0 5000014.0548
10.468493333333333 -16.533333333333335 2.0 5000014.0548
10.4529 -17.7 2.0 5000013.587
10.968993333333334 -2.8666666666666667 1.9666666666666666 5000029.0698
10.968993333333334 -2.9 1.9666666666666666 5000029.0698
10.904566666666666 -3.9 1.9666666666666666 5000027.137
10.848176666666667 -4.866666666666666 1.9666666666666666 5000025.4453
11.232286666666667 -5.833333333333333 1.9666666666666666 5000036.9686
11.232286666666667 -5.866666666666666 1.9666666666666666 5000036.9686
10.798403333333333 -5.9 1.9666666666666666 5000023.9521
10.754146666666667 -6.0 1.9666666666666666 5000022.6244
10.754146666666667 -6.033333333333333 1.9666666666666666 5000022.6244
10.798403333333333 -6.666666666666667 1.9666666666666666 5000023.9521
10.798403333333333 -6.7 1.9666666666666666 5000023.9521
10.798403333333333 -6.733333333333333 1.9666666666666666 5000023.9521
10.798403333333333 -7.0 1.9666666666666666 5000023.9521
10.848176666666667 -7.033333333333333 1.9666666666666666 5000025.4453
10.848176666666667 -7.066666666666666 1.9666666666666666 5000025.4453
10.754146666666667 -7.2 1.9666666666666666 5000022.6244
10.754146666666667 -7.233333333333333 1.9666666666666666 5000022.6244
10.848176666666667 -7.833333333333333 1.9666666666666666 5000025.4453
10.848176666666667 -7.866666666666666 1.9666666666666666 5000025.4453
10.590493333333333 -11.133333333333333 1.9666666666666666 5000017.7148
10.617283333333333 -11.166666666666666 1.9666666666666666 5000018.5185
10.590493333333333 -11.833333333333334 1.9666666666666666 5000017.7148
10.590493333333333 -11.866666666666667 1.9666666666666666 5000017.7148
10.848176666666667 -12.066666666666666 1.9666666666666666 5000025.4453
10.848176666666667 -12.1 1.9666666666666666 5000025.4453
11.129943333333333 -12.366666666666667 1.9666666666666666 5000033.8983
10.54333 -12.833333333333334 1.9666666666666666 5000016.2999
10.54333 -12.866666666666667 1.9666666666666666 5000016.2999
10.522466666666666 -12.933333333333334 1.9666666666666666 5000015.674
10.503143333333334 -12.966666666666667 1.9666666666666666 5000015.0943
10.522466666666666 -13.733333333333333 1.9666666666666666 5000015.674
10.4529 -17.833333333333332 1.9666666666666666 5000013.587
10.468493333333333 -17.866666666666667 1.9666666666666666 5000014.0548
10.468493333333333 -17.9 1.9666666666666666 5000014.0548
10.968993333333334 -2.8666666666666667 1.9333333333333333 5000029.0698
10.904566666666666 -3.9 1.9333333333333333 5000027.137
10.904566666666666 -3.933333333333333 1.9333333333333333 5000027.137
10.678886666666667 -4.033333333333333 1.9333333333333333 5000020.3666
10.848176666666667 -4.866666666666666 1.9333333333333333 5000025.4453
11.232286666666667 -5.833333333333333 1.9333333333333333 5000036.9686
11.232286666666667 -5.866666666666666 1.9333333333333333 5000036.9686
10.798403333333333 -5.966666666666667 1.9333333333333333 5000023.9521
10.754146666666667 -6.0 1.9333333333333333 5000022.6244
10.754146666666667 -6.033333333333333 1.9333333333333333 5000022.6244
10.798403333333333 -6.066666666666666 1.9333333333333333 5000023.9521
10.798403333333333 -6.7 1.9333333333333333 5000023.9521
10.798403333333333 -7.0 1.9333333333333333 5000023.9521
10.798403333333333 -7.033333333333333 1.9333333333333333 5000023.9521
10.754146666666667 -7.166666666666667 1.9333333333333333 5000022.6244
10.754146666666667 -7.2 1.9333333333333333 5000022.6244
10.754146666666667 -7.233333333333333 1.9333333333333333 5000022.6244
10.848176666666667 -7.833333333333333 1.9333333333333333 5000025.4453
10.848176666666667 -7.866666666666666 1.9333333333333333 5000025.4453
10.468493333333333 -8.2 1.9333333333333333 5000014.0548
11.043296666666667 -8.8 1.9333333333333333 5000031.2989
10.64662 -9.0 1.9333333333333333 5000019.3986
10.64662 -9.033333333333333 1.9333333333333333 5000019.3986
10.438306666666668 -9.333333333333334 1.9333333333333333 5000013.1492
10.590493333333333 -11.133333333333333 1.9333333333333333 5000017.7148
10.590493333333333 -11.166666666666666 1.9333333333333333 5000017.7148
10.590493333333333 -11.2 1.9333333333333333 5000017.7148
10.590493333333333 -11.833333333333334 1.9333333333333333 5000017.7148
10.590493333333333 -11.866666666666667 1.9333333333333333 5000017.7148
10.798403333333333 -11.966666666666667 1.9333333333333333 5000023.9521
10.798403333333333 -12.233333333333333 1.9333333333333333 5000023.9521
11.129943333333333 -12.366666666666667 1.9333333333333333 5000033.8983
11.129943333333333 -12.4 1.9333333333333333 5000033.8983
10.54333 -12.833333333333334 1.9333333333333333 5000016.2999
10.904566666666666 -3.7333333333333334 1.9 5000027.137
10.904566666666666 -3.8666666666666667 1.9 5000027.137
10.904566666666666 -3.9 1.9 5000027.137
10.848176666666667 -4.866666666666666 1.9 5000025.4453
10.848176666666667 -4.9 1.9 5000025.4453
11.355013333333334 -5.833333333333333 1.9 5000040.6504
11.355013333333334 -5.866666666666666 1.9 5000040.6504
10.754146666666667 -6.033333333333333 1.9 5000022.6244
10.798403333333333 -6.066666666666666 1.9 5000023.9521
10.754146666666667 -6.633333333333334 1.9 5000022.6244
10.798403333333333 -6.933333333333334 1.9 5000023.9521
10.754146666666667 -7.2 1.9 5000022.6244
10.848176666666667 -7.866666666666666 1.9 5000025.4453
10.848176666666667 -7.9 1.9 5000025.4453
10.468493333333333 -8.2 1.9 5000014.0548
10.468493333333333 -8.233333333333333 1.9 5000014.0548
11.043296666666667 -8.8 1.9 5000031.2989
10.678886666666667 -8.933333333333334 1.9 5000020.3666
10.678886666666667 -8.966666666666667 1.9 5000020.3666
10.64662 -9.0 1.9 5000019.3986
10.64662 -9.033333333333333 1.9 5000019.3986
10.503143333333334 -9.166666666666666 1.9 5000015.0943
10.4852 -9.2 1.9 5000014.556
10.4529 -9.233333333333333 1.9 5000013.587
10.590493333333333 -11.4 1.9 5000017.7148
10.590493333333333 -11.866666666666667 1.9 5000017.7148
10.754146666666667 -12.033333333333333 1.9 5000022.6244
10.54333 -13.033333333333333 1.9 5000016.2999
10.522466666666666 -13.066666666666666 1.9 5000015.674
10.522466666666666 -13.1 1.9 5000015.674
10.503143333333334 -13.133333333333333 1.9 5000015.0943
10.4852 -13.166666666666666 1.9 5000014.556
10.468493333333333 -13.2 1.9 5000014.0548
10.468493333333333 -13.233333333333333 1.9 5000014.0548
10.468493333333333 -13.266666666666667 1.9 5000014.0548
10.904566666666666 -3.8333333333333335 1.8666666666666667 5000027.137
10.904566666666666 -3.8666666666666667 1.8666666666666667 5000027.137
10.904566666666666 -3.9 1.8666666666666667 5000027.137
11.232286666666667 -4.733333333333333 1.8666666666666667 5000036.9686
10.848176666666667 -4.833333333333333 1.8666666666666667 5000025.4453
10.848176666666667 -4.866666666666666 1.8666666666666667 5000025.4453
10.848176666666667 -4.9 1.8666666666666667 5000025.4453
11.355013333333334 -5.866666666666666 1.8666666666666667 5000040.6504
10.754146666666667 -6.033333333333333 1.8666666666666667 5000022.6244
10.798403333333333 -6.066666666666666 1.8666666666666667 5000023.9521
10.754146666666667 -7.166666666666667 1.8666666666666667 5000022.6244
10.754146666666667 -7.2 1.8666666666666667 5000022.6244
10.848176666666667 -7.866666666666666 1.8666666666666667 5000025.4453
10.848176666666667 -7.9 1.8666666666666667 5000025.4453
10.468493333333333 -8.2 1.8666666666666667 5000014.0548
10.468493333333333 -8.233333333333333 1.8666666666666667 5000014.0548
10.678886666666667 -8.933333333333334 1.8666666666666667 5000020.3666
10.678886666666667 -8.966666666666667 1.8666666666666667 5000020.3666
10.64662 -9.0 1.8666666666666667 5000019.3986
10.4529 -9.233333333333333 1.8666666666666667 5000013.587
10.438306666666668 -9.266666666666667 1.8666666666666667 5000013.1492
11.355013333333334 -10.933333333333334 1.8666666666666667 5000040.6504
11.50489 -10.966666666666667 1.8666666666666667 5000045.1467
10.590493333333333 -11.333333333333334 1.8666666666666667 5000017.7148
10.590493333333333 -11.366666666666667 1.8666666666666667 5000017.7148
10.590493333333333 -11.4 1.8666666666666667 5000017.7148
10.590493333333333 -11.433333333333334 1.8666666666666667 5000017.7148
10.56593 -12.766666666666667 1.8666666666666667 5000016.9779
10.522466666666666 -13.066666666666666 1.8666666666666667 5000015.674
10.522466666666666 -13.1 1.8666666666666667 5000015.674
10.503143333333334 -13.133333333333333 1.8666666666666667 5000015.0943
10.4852 -13.166666666666666 1.8666666666666667 5000014.556
10.468493333333333 -13.2 1.8666666666666667 5000014.0548
10.4529 -17.9 1.8666666666666667 5000013.587
11.232286666666667 -4.7 1.8333333333333333 5000036.9686
10.848176666666667 -4.833333333333333 1.8333333333333333 5000025.4453
10.848176666666667 -4.866666666666666 1.8333333333333333 5000025.4453
11.355013333333334 -5.866666666666666 1.8333333333333333 5000040.6504
10.798403333333333 -6.033333333333333 1.8333333333333333 5000023.9521
10.357653333333333 -7.7 1.8333333333333333 5000010.7296
10.4529 -8.233333333333333 1.8333333333333333 5000013.587
10.678886666666667 -8.9 1.8333333333333333 5000020.3666
10.678886666666667 -8.933333333333334 1.8333333333333333 5000020.3666
10.678886666666667 -8.966666666666667 1.8333333333333333 5000020.3666
10.438306666666668 -9.266666666666667 1.8333333333333333 5000013.1492
10.42463 -9.3 1.8333333333333333 5000012.7389
10.617283333333333 -10.766666666666667 1.8333333333333333 5000018.5185
10.617283333333333 -10.8 1.8333333333333333 5000018.5185
10.590493333333333 -10.833333333333334 1.8333333333333333 5000017.7148
10.590493333333333 -10.866666666666667 1.8333333333333333 5000017.7148
11.50489 -10.966666666666667 1.8333333333333333 5000045.1467
11.355013333333334 -11.0 1.8333333333333333 5000040.6504
10.590493333333333 -11.4 1.8333333333333333 5000017.7148
10.64662 -12.066666666666666 1.8333333333333333 5000019.3986
10.56593 -12.966666666666667 1.8333333333333333 5000016.9779
10.54333 -13.0 1.8333333333333333 5000016.2999
10.54333 -13.033333333333333 1.8333333333333333 5000016.2999
10.522466666666666 -13.066666666666666 1.8333333333333333 5000015.674
10.522466666666666 -13.1 1.8333333333333333 5000015.674
10.503143333333334 -13.133333333333333 1.8333333333333333 5000015.0943
10.522466666666666 -13.666666666666666 1.8333333333333333 5000015.674
10.503143333333334 -16.433333333333334 1.8333333333333333 5000015.0943
10.503143333333334 -16.466666666666665 1.8333333333333333 5000015.0943
10.468493333333333 -16.5 1.8333333333333333 5000014.0548
10.4529 -16.533333333333335 1.8333333333333333 5000013.587
10.4529 -16.566666666666666 1.8333333333333333 5000013.587
10.4529 -17.9 1.8333333333333333 5000013.587
10.848176666666667 -4.833333333333333 1.8 5000025.4453
10.848176666666667 -4.866666666666666 1.8 5000025.4453
10.617283333333333 -5.033333333333333 1.8 5000018.5185
11.232286666666667 -5.633333333333334 1.8 5000036.9686
11.232286666666667 -5.7 1.8 5000036.9686
11.232286666666667 -5.8 1.8 5000036.9686
11.232286666666667 -5.833333333333333 1.8 5000036.9686
10.798403333333333 -6.033333333333333 1.8 5000023.9521
10.798403333333333 -6.066666666666666 1.8 5000023.9521
10.848176666666667 -7.1 1.8 5000025.4453
10.357653333333333 -7.7 1.8 5000010.7296
10.798403333333333 -7.9 1.8 5000023.9521
10.678886666666667 -8.9 1.8 5000020.3666
10.678886666666667 -8.933333333333334 1.8 5000020.3666
10.411776666666666 -9.3 1.8 5000012.3533
10.3775 -9.4 1.8 5000011.325
10.36731 -9.433333333333334 1.8 5000011.0193
10.617283333333333 -10.733333333333333 1.8 5000018.5185
10.617283333333333 -10.766666666666667 1.8 5000018.5185
10.617283333333333 -10.8 1.8 5000018.5185
10.590493333333333 -11.066666666666666 1.8 5000017.7148
10.590493333333333 -11.1 1.8 5000017.7148
10.590493333333333 -11.133333333333333 1.8 5000017.7148
10.54333 -12.933333333333334 1.8 5000016.2999
10.54333 -12.966666666666667 1.8 5000016.2999
10.54333 -13.0 1.8 5000016.2999
10.522466666666666 -13.033333333333333 1.8 5000015.674
10.522466666666666 -13.7 1.8 5000015.674
10.522466666666666 -16.4 1.8 5000015.674
10.848176666666667 -4.8 1.7666666666666666 5000025.4453
10.848176666666667 -4.833333333333333 1.7666666666666666 5000025.4453
10.798403333333333 -4.933333333333334 1.7666666666666666 5000023.9521
10.617283333333333 -4.966666666666667 1.7666666666666666 5000018.5185
10.968993333333334 -5.6 1.7666666666666666 5000029.0698
11.232286666666667 -5.633333333333334 1.7666666666666666 5000036.9686
11.232286666666667 -5.666666666666667 1.7666666666666666 5000036.9686
11.129943333333333 -5.8 1.7666666666666666 5000033.8983
11.129943333333333 -5.833333333333333 1.7666666666666666 5000033.8983
11.129943333333333 -5.866666666666666 1.7666666666666666 5000033.8983
10.798403333333333 -6.033333333333333 1.7666666666666666 5000023.9521
11.932366666666667 -6.766666666666667 1.7666666666666666 5000057.971
11.932366666666667 -6.8 1.7666666666666666 5000057.971
10.848176666666667 -7.066666666666666 1.7666666666666666 5000025.4453
10.848176666666667 -7.1 1.7666666666666666 5000025.4453
10.357653333333333 -7.7 1.7666666666666666 5000010.7296
10.678886666666667 -8.9 1.7666666666666666 5000020.3666
10.54333 -9.066666666666666 1.7666666666666666 5000016.2999
10.39968 -9.333333333333334 1.7666666666666666 5000011.9904
10.357653333333333 -9.466666666666667 1.7666666666666666 5000010.7296
10.617283333333333 -10.7 1.7666666666666666 5000018.5185
10.617283333333333 -10.733333333333333 1.7666666666666666 5000018.5185
10.617283333333333 -10.766666666666667 1.7666666666666666 5000018.5185
10.590493333333333 -11.066666666666666 1.7666666666666666 5000017.7148
10.590493333333333 -11.1 1.7666666666666666 5000017.7148
10.590493333333333 -11.133333333333333 1.7666666666666666 5000017.7148
10.56593 -11.2 1.7666666666666666 5000016.9779
10.56593 -11.233333333333333 1.7666666666666666 5000016.9779
10.4852 -11.266666666666667 1.7666666666666666 5000014.556
10.4852 -11.3 1.7666666666666666 5000014.556
10.261438 -11.7 1.7666666666666666 5000007.84314
10.617283333333333 -12.066666666666666 1.7666666666666666 5000018.5185
10.617283333333333 -12.1 1.7666666666666666 5000018.5185
10.56593 -12.9 1.7666666666666666 5000016.9779
10.54333 -12.933333333333334 1.7666666666666666 5000016.2999
10.54333 -12.966666666666667 1.7666666666666666 5000016.2999
10.54333 -13.0 1.7666666666666666 5000016.2999
10.522466666666666 -13.733333333333333 1.7666666666666666 5000015.674
10.522466666666666 -16.333333333333332 1.7666666666666666 5000015.674
10.4529 -16.533333333333335 1.7666666666666666 5000013.587
10.4529 -16.566666666666666 1.7666666666666666 5000013.587
10.4529 -16.6 1.7666666666666666 5000013.587
10.42463 -16.633333333333333 1.7666666666666666 5000012.7389
11.232286666666667 -5.633333333333334 1.7333333333333334 5000036.9686
10.798403333333333 -5.766666666666667 1.7333333333333334 5000023.9521
10.798403333333333 -5.8 1.7333333333333334 5000023.9521
10.798403333333333 -5.833333333333333 1.7333333333333334 5000023.9521
11.129943333333333 -5.866666666666666 1.7333333333333334 5000033.8983
10.798403333333333 -6.0 1.7333333333333334 5000023.9521
10.798403333333333 -6.033333333333333 1.7333333333333334 5000023.9521
10.56593 -6.166666666666667 1.7333333333333334 5000016.9779
10.904566666666666 -6.733333333333333 1.7333333333333334 5000027.137
10.904566666666666 -6.8 1.7333333333333334 5000027.137
10.798403333333333 -7.066666666666666 1.7333333333333334 5000023.9521
10.798403333333333 -7.1 1.7333333333333334 5000023.9521
10.968993333333334 -8.666666666666666 1.7333333333333334 5000029.0698
10.968993333333334 -8.766666666666667 1.7333333333333334 5000029.0698
10.678886666666667 -8.866666666666667 1.7333333333333334 5000020.3666
10.678886666666667 -8.9 1.7333333333333334 5000020.3666
10.54333 -9.0 1.7333333333333334 5000016.2999
10.54333 -9.066666666666666 1.7333333333333334 5000016.2999
10.64662 -9.2 1.7333333333333334 5000019.3986
10.39968 -9.333333333333334 1.7333333333333334 5000011.9904
10.3775 -9.366666666666667 1.7333333333333334 5000011.325
10.617283333333333 -10.7 1.7333333333333334 5000018.5185
10.617283333333333 -10.733333333333333 1.7333333333333334 5000018.5185
10.590493333333333 -11.133333333333333 1.7333333333333334 5000017.7148
10.4852 -11.266666666666667 1.7333333333333334 5000014.556
10.64662 -12.066666666666666 1.7333333333333334 5000019.3986
10.64662 -12.1 1.7333333333333334 5000019.3986
10.798403333333333 -12.633333333333333 1.7333333333333334 5000023.9521
10.56593 -12.9 1.7333333333333334 5000016.9779
10.54333 -12.933333333333334 1.7333333333333334 5000016.2999
10.54333 -12.966666666666667 1.7333333333333334 5000016.2999
10.54333 -13.0 1.7333333333333334 5000016.2999
10.438306666666668 -13.2 1.7333333333333334 5000013.1492
10.522466666666666 -13.766666666666667 1.7333333333333334 5000015.674
10.4529 -17.166666666666668 1.7333333333333334 5000013.587
10.4529 -17.2 1.7333333333333334 5000013.587
10.798403333333333 -5.833333333333333 1.7 5000023.9521
11.129943333333333 -5.866666666666666 1.7 5000033.8983
10.798403333333333 -5.966666666666667 1.7 5000023.9521
10.798403333333333 -6.0 1.7 5000023.9521
10.798403333333333 -6.033333333333333 1.7 5000023.9521
10.590493333333333 -6.133333333333334 1.7 5000017.7148
10.56593 -6.166666666666667 1.7 5000016.9779
10.56593 -6.233333333333333 1.7 5000016.9779
10.848176666666667 -6.733333333333333 1.7 5000025.4453
10.848176666666667 -6.766666666666667 1.7 5000025.4453
10.848176666666667 -6.833333333333333 1.7 5000025.4453
10.798403333333333 -7.066666666666666 1.7 5000023.9521
10.798403333333333 -7.1 1.7 5000023.9521
10.56593 -7.3 1.7 5000016.9779
10.4529 -7.433333333333334 1.7 5000013.587
10.968993333333334 -8.7 1.7 5000029.0698
11.50489 -8.866666666666667 1.7 5000045.1467
11.50489 -8.9 1.7 5000045.1467
10.64662 -8.966666666666667 1.7 5000019.3986
10.54333 -9.0 1.7 5000016.2999
10.64662 -9.166666666666666 1.7 5000019.3986
10.64662 -9.2 1.7 5000019.3986
10.64662 -9.233333333333333 1.7 5000019.3986
10.3775 -9.333333333333334 1.7 5000011.325
10.3775 -9.366666666666667 1.7 5000011.325
10.617283333333333 -10.666666666666666 1.7 5000018.5185
10.617283333333333 -10.7 1.7 5000018.5185
10.617283333333333 -10.933333333333334 1.7 5000018.5185
10.798403333333333 -10.966666666666667 1.7 5000023.9521
10.590493333333333 -11.166666666666666 1.7 5000017.7148
10.617283333333333 -12.066666666666666 1.7 5000018.5185
10.617283333333333 -12.1 1.7 5000018.5185
10.798403333333333 -12.633333333333333 1.7 5000023.9521
10.54333 -12.9 1.7 5000016.2999
10.54333 -12.933333333333334 1.7 5000016.2999
10.503143333333334 -13.8 1.7 5000015.0943
10.468493333333333 -16.433333333333334 1.7 5000014.0548
10.4529 -16.466666666666665 1.7 5000013.587
10.4529 -17.233333333333334 1.7 5000013.587
10.4852 -17.9 1.7 5000014.556
10.798403333333333 -1.2666666666666666 1.6666666666666667 5000023.9521
10.798403333333333 -1.3 1.6666666666666667 5000023.9521
10.798403333333333 -5.966666666666667 1.6666666666666667 5000023.9521
10.798403333333333 -6.0 1.6666666666666667 5000023.9521
10.590493333333333 -6.133333333333334 1.6666666666666667 5000017.7148
10.411776666666666 -6.366666666666666 1.6666666666666667 5000012.3533
10.848176666666667 -6.766666666666667 1.6666666666666667 5000025.4453
10.848176666666667 -6.8 1.6666666666666667 5000025.4453
10.754146666666667 -7.033333333333333 1.6666666666666667 5000022.6244
10.754146666666667 -7.066666666666666 1.6666666666666667 5000022.6244
10.4529 -7.433333333333334 1.6666666666666667 5000013.587
10.968993333333334 -8.7 1.6666666666666667 5000029.0698
11.50489 -8.866666666666667 1.6666666666666667 5000045.1467
10.56593 -9.0 1.6666666666666667 5000016.9779
10.522466666666666 -9.333333333333334 1.6666666666666667 5000015.674
10.617283333333333 -10.666666666666666 1.6666666666666667 5000018.5185
10.617283333333333 -10.7 1.6666666666666667 5000018.5185
10.64662 -10.966666666666667 1.6666666666666667 5000019.3986
10.617283333333333 -11.0 1.6666666666666667 5000018.5185
10.590493333333333 -11.166666666666666 1.6666666666666667 5000017.7148
10.617283333333333 -12.066666666666666 1.6666666666666667 5000018.5185
10.617283333333333 -12.1 1.6666666666666667 5000018.5185
10.590493333333333 -12.666666666666666 1.6666666666666667 5000017.7148
10.54333 -12.866666666666667 1.6666666666666667 5000016.2999
10.54333 -12.9 1.6666666666666667 5000016.2999
10.54333 -12.933333333333334 1.6666666666666667 5000016.2999
10.4529 -17.2 1.6666666666666667 5000013.587
10.4529 -17.233333333333334 1.6666666666666667 5000013.587
10.438306666666668 -17.266666666666666 1.6666666666666667 5000013.1492
10.848176666666667 -6.766666666666667 1.6333333333333333 5000025.4453
10.848176666666667 -6.8 1.6333333333333333 5000025.4453
10.503143333333334 -7.033333333333333 1.6333333333333333 5000015.0943
10.56593 -7.233333333333333 1.6333333333333333 5000016.9779
11.692046666666666 -8.866666666666667 1.6333333333333333 5000050.7614
10.64662 -9.233333333333333 1.6333333333333333 5000019.3986
10.522466666666666 -9.366666666666667 1.6333333333333333 5000015.674
10.617283333333333 -10.666666666666666 1.6333333333333333 5000018.5185
10.503143333333334 -10.8 1.6333333333333333 5000015.0943
10.503143333333334 -10.833333333333334 1.6333333333333333 5000015.0943
10.503143333333334 -10.866666666666667 1.6333333333333333 5000015.0943
10.590493333333333 -11.066666666666666 1.6333333333333333 5000017.7148
10.56593 -11.2 1.6333333333333333 5000016.9779
10.617283333333333 -12.1 1.6333333333333333 5000018.5185
10.590493333333333 -12.7 1.6333333333333333 5000017.7148
10.54333 -12.866666666666667 1.6333333333333333 5000016.2999
10.54333 -12.9 1.6333333333333333 5000016.2999
10.54333 -12.933333333333334 1.6333333333333333 5000016.2999
10.54333 -13.5 1.6333333333333333 5000016.2999
10.4852 -16.2 1.6333333333333333 5000014.556
10.4852 -16.233333333333334 1.6333333333333333 5000014.556
10.4529 -17.266666666666666 1.6333333333333333 5000013.587
10.438306666666668 -17.3 1.6333333333333333 5000013.1492
13.367 -8.433333333333334 1.6 5000101.01
12.699056666666667 -8.533333333333333 1.6 5000080.9717
10.968993333333334 -8.733333333333333 1.6 5000029.0698
11.692046666666666 -8.866666666666667 1.6 5000050.7614
11.355013333333334 -8.966666666666667 1.6 5000040.6504
10.64662 -9.2 1.6 5000019.3986
10.64662 -9.233333333333333 1.6 5000019.3986
10.64662 -9.266666666666667 1.6 5000019.3986
10.522466666666666 -9.366666666666667 1.6 5000015.674
10.617283333333333 -10.666666666666666 1.6 5000018.5185
10.503143333333334 -10.833333333333334 1.6 5000015.0943
10.590493333333333 -11.033333333333333 1.6 5000017.7148
10.590493333333333 -11.066666666666666 1.6 5000017.7148
10.590493333333333 -11.1 1.6 5000017.7148
10.590493333333333 -11.233333333333333 1.6 5000017.7148
16.666666666666668 -12.3 1.6 5000200.0
16.666666666666668 -12.333333333333334 1.6 5000200.0
16.666666666666668 -12.4 1.6 5000200.0
10.56593 -12.7 1.6 5000016.9779
10.56593 -12.733333333333333 1.6 5000016.9779
10.54333 -13.533333333333333 1.6 5000016.2999
10.54333 -13.566666666666666 1.6 5000016.2999
10.4852 -16.166666666666668 1.6 5000014.556
10.4852 -16.2 1.6 5000014.556
10.4529 -17.3 1.6 5000013.587
10.438306666666668 -17.333333333333332 1.6 5000013.1492
12.699056666666667 -8.533333333333333 1.5666666666666667 5000080.9717
13.367 -8.766666666666667 1.5666666666666667 5000101.01
11.355013333333334 -8.9 1.5666666666666667 5000040.6504
10.678886666666667 -9.166666666666666 1.5666666666666667 5000020.3666
10.64662 -9.2 1.5666666666666667 5000019.3986
10.522466666666666 -9.366666666666667 1.5666666666666667 5000015.674
10.617283333333333 -10.666666666666666 1.5666666666666667 5000018.5185
10.503143333333334 -10.8 1.5666666666666667 5000015.0943
10.590493333333333 -11.033333333333333 1.5666666666666667 5000017.7148
10.590493333333333 -11.1 1.5666666666666667 5000017.7148
10.4852 -11.266666666666667 1.5666666666666667 5000014.556
10.64662 -12.566666666666666 1.5666666666666667 5000019.3986
10.64662 -12.6 1.5666666666666667 5000019.3986
10.64662 -12.633333333333333 1.5666666666666667 5000019.3986
10.54333 -13.166666666666666 1.5666666666666667 5000016.2999
10.54333 -13.2 1.5666666666666667 5000016.2999
10.54333 -13.266666666666667 1.5666666666666667 5000016.2999
10.522466666666666 -13.3 1.5666666666666667 5000015.674
10.468493333333333 -13.4 1.5666666666666667 5000014.0548
10.522466666666666 -13.433333333333334 1.5666666666666667 5000015.674
10.54333 -13.566666666666666 1.5666666666666667 5000016.2999
10.522466666666666 -13.6 1.5666666666666667 5000015.674
10.4852 -16.133333333333333 1.5666666666666667 5000014.556
10.4852 -16.166666666666668 1.5666666666666667 5000014.556
10.4529 -17.333333333333332 1.5666666666666667 5000013.587
10.438306666666668 -17.366666666666667 1.5666666666666667 5000013.1492
11.355013333333334 -8.9 1.5333333333333334 5000040.6504
10.678886666666667 -9.2 1.5333333333333334 5000020.3666
10.64662 -9.233333333333333 1.5333333333333334 5000019.3986
10.522466666666666 -9.366666666666667 1.5333333333333334 5000015.674
10.617283333333333 -10.766666666666667 1.5333333333333334 5000018.5185
10.617283333333333 -10.8 1.5333333333333334 5000018.5185
10.590493333333333 -11.1 1.5333333333333334 5000017.7148
10.617283333333333 -11.466666666666667 1.5333333333333334 5000018.5185
10.617283333333333 -11.5 1.5333333333333334 5000018.5185
10.64662 -12.566666666666666 1.5333333333333334 5000019.3986
10.64662 -12.6 1.5333333333333334 5000019.3986
10.617283333333333 -13.066666666666666 1.5333333333333334 5000018.5185
10.617283333333333 -13.1 1.5333333333333334 5000018.5185
10.54333 -13.166666666666666 1.5333333333333334 5000016.2999
10.54333 -13.2 1.5333333333333334 5000016.2999
10.54333 -13.233333333333333 1.5333333333333334 5000016.2999
10.54333 -13.266666666666667 1.5333333333333334 5000016.2999
10.522466666666666 -13.3 1.5333333333333334 5000015.674
10.522466666666666 -13.333333333333334 1.5333333333333334 5000015.674
10.468493333333333 -13.4 1.5333333333333334 5000014.0548
10.468493333333333 -13.433333333333334 1.5333333333333334 5000014.0548
10.522466666666666 -13.466666666666667 1.5333333333333334 5000015.674
10.522466666666666 -13.566666666666666 1.5333333333333334 5000015.674
10.522466666666666 -13.6 1.5333333333333334 5000015.674
10.4852 -16.133333333333333 1.5333333333333334 5000014.556
10.4529 -17.333333333333332 1.5333333333333334 5000013.587
10.4529 -17.366666666666667 1.5333333333333334 5000013.587
11.355013333333334 -8.9 1.5 5000040.6504
11.043296666666667 -8.933333333333334 1.5 5000031.2989
10.678886666666667 -9.133333333333333 1.5 5000020.3666
10.678886666666667 -9.2 1.5 5000020.3666
10.64662 -9.233333333333333 1.5 5000019.3986
10.617283333333333 -10.766666666666667 1.5 5000018.5185
13.367 -10.9 1.5 5000101.01
10.590493333333333 -11.066666666666666 1.5 5000017.7148
10.590493333333333 -11.1 1.5 5000017.7148
10.590493333333333 -11.133333333333333 1.5 5000017.7148
10.617283333333333 -11.433333333333334 1.5 5000018.5185
10.617283333333333 -11.466666666666667 1.5 5000018.5185
10.617283333333333 -12.0 1.5 5000018.5185
10.617283333333333 -12.033333333333333 1.5 5000018.5185
10.617283333333333 -13.1 1.5 5000018.5185
10.590493333333333 -13.133333333333333 1.5 5000017.7148
10.54333 -13.2 1.5 5000016.2999
10.54333 -13.233333333333333 1.5 5000016.2999
10.522466666666666 -13.633333333333333 1.5 5000015.674
10.468493333333333 -16.633333333333333 1.5 5000014.0548
10.678886666666667 -8.933333333333334 1.4666666666666666 5000020.3666
10.64662 -9.133333333333333 1.4666666666666666 5000019.3986
10.503143333333334 -9.333333333333334 1.4666666666666666 5000015.0943
10.503143333333334 -9.366666666666667 1.4666666666666666 5000015.0943
11.232286666666667 -9.5 1.4666666666666666 5000036.9686
11.232286666666667 -9.533333333333333 1.4666666666666666 5000036.9686
10.754146666666667 -9.733333333333333 1.4666666666666666 5000022.6244
10.71454 -9.766666666666667 1.4666666666666666 5000021.4362
10.71454 -9.8 1.4666666666666666 5000021.4362
10.617283333333333 -10.766666666666667 1.4666666666666666 5000018.5185
10.64662 -11.0 1.4666666666666666 5000019.3986
10.590493333333333 -11.1 1.4666666666666666 5000017.7148
10.522466666666666 -11.2 1.4666666666666666 5000015.674
10.522466666666666 -11.233333333333333 1.4666666666666666 5000015.674
10.617283333333333 -12.0 1.4666666666666666 5000018.5185
10.617283333333333 -12.033333333333333 1.4666666666666666 5000018.5185
10.522466666666666 -13.6 1.4666666666666666 5000015.674
10.522466666666666 -13.633333333333333 1.4666666666666666 5000015.674
10.4852 -16.066666666666666 1.4666666666666666 5000014.556
10.4852 -16.1 1.4666666666666666 5000014.556
10.4852 -16.133333333333333 1.4666666666666666 5000014.556
10.4852 -16.966666666666665 1.4666666666666666 5000014.556
10.468493333333333 -17.0 1.4666666666666666 5000014.0548
10.468493333333333 -17.033333333333335 1.4666666666666666 5000014.0548
11.355013333333334 -8.833333333333334 1.4333333333333333 5000040.6504
10.678886666666667 -8.933333333333334 1.4333333333333333 5000020.3666
10.678886666666667 -8.966666666666667 1.4333333333333333 5000020.3666
10.678886666666667 -9.133333333333333 1.4333333333333333 5000020.3666
10.617283333333333 -9.166666666666666 1.4333333333333333 5000018.5185
10.617283333333333 -9.2 1.4333333333333333 5000018.5185
10.503143333333334 -9.333333333333334 1.4333333333333333 5000015.0943
10.503143333333334 -9.366666666666667 1.4333333333333333 5000015.0943
11.232286666666667 -9.5 1.4333333333333333 5000036.9686
11.232286666666667 -9.533333333333333 1.4333333333333333 5000036.9686
11.232286666666667 -9.566666666666666 1.4333333333333333 5000036.9686
10.71454 -9.766666666666667 1.4333333333333333 5000021.4362
10.71454 -9.8 1.4333333333333333 5000021.4362
10.71454 -9.833333333333334 1.4333333333333333 5000021.4362
10.71454 -10.066666666666666 1.4333333333333333 5000021.4362
10.678886666666667 -10.1 1.4333333333333333 5000020.3666
10.678886666666667 -10.133333333333333 1.4333333333333333 5000020.3666
10.968993333333334 -10.7 1.4333333333333333 5000029.0698
10.617283333333333 -10.733333333333333 1.4333333333333333 5000018.5185
10.617283333333333 -10.766666666666667 1.4333333333333333 5000018.5185
10.617283333333333 -10.8 1.4333333333333333 5000018.5185
10.590493333333333 -11.033333333333333 1.4333333333333333 5000017.7148
10.590493333333333 -11.1 1.4333333333333333 5000017.7148
10.617283333333333 -11.5 1.4333333333333333 5000018.5185
10.617283333333333 -11.533333333333333 1.4333333333333333 5000018.5185
10.617283333333333 -12.0 1.4333333333333333 5000018.5185
10.617283333333333 -12.033333333333333 1.4333333333333333 5000018.5185
11.355013333333334 -12.266666666666667 1.4333333333333333 5000040.6504
10.522466666666666 -13.1 1.4333333333333333 5000015.674
10.54333 -13.433333333333334 1.4333333333333333 5000016.2999
10.522466666666666 -13.6 1.4333333333333333 5000015.674
10.522466666666666 -13.633333333333333 1.4333333333333333 5000015.674
16.666666666666668 -15.833333333333334 1.4333333333333333 5000200.0
10.4852 -16.033333333333335 1.4333333333333333 5000014.556
10.4852 -16.066666666666666 1.4333333333333333 5000014.556
10.4852 -16.1 1.4333333333333333 5000014.556
10.798403333333333 -16.333333333333332 1.4333333333333333 5000023.9521
10.848176666666667 -16.366666666666667 1.4333333333333333 5000025.4453
10.468493333333333 -16.8 1.4333333333333333 5000014.0548
10.468493333333333 -16.833333333333332 1.4333333333333333 5000014.0548
10.468493333333333 -16.866666666666667 1.4333333333333333 5000014.0548
10.468493333333333 -17.0 1.4333333333333333 5000014.0548
10.468493333333333 -17.033333333333335 1.4333333333333333 5000014.0548
10.468493333333333 -17.066666666666666 1.4333333333333333 5000014.0548
10.678886666666667 -8.966666666666667 1.4 5000020.3666
10.503143333333334 -9.133333333333333 1.4 5000015.0943
10.503143333333334 -9.166666666666666 1.4 5000015.0943
10.503143333333334 -9.4 1.4 5000015.0943
11.232286666666667 -9.533333333333333 1.4 5000036.9686
11.232286666666667 -9.566666666666666 1.4 5000036.9686
10.71454 -9.8 1.4 5000021.4362
10.71454 -9.833333333333334 1.4 5000021.4362
10.289226333333334 -9.9 1.4 5000008.67679
10.678886666666667 -10.066666666666666 1.4 5000020.3666
10.678886666666667 -10.1 1.4 5000020.3666
10.678886666666667 -10.133333333333333 1.4 5000020.3666
10.4529 -10.166666666666666 1.4 5000013.587
10.438306666666668 -10.2 1.4 5000013.1492
10.411776666666666 -10.233333333333333 1.4 5000012.3533
11.232286666666667 -10.433333333333334 1.4 5000036.9686
10.617283333333333 -10.766666666666667 1.4 5000018.5185
10.617283333333333 -10.8 1.4 5000018.5185
10.617283333333333 -11.033333333333333 1.4 5000018.5185
10.590493333333333 -11.066666666666666 1.4 5000017.7148
10.590493333333333 -11.1 1.4 5000017.7148
10.64662 -11.5 1.4 5000019.3986
10.64662 -11.533333333333333 1.4 5000019.3986
10.64662 -11.566666666666666 1.4 5000019.3986
10.617283333333333 -12.0 1.4 5000018.5185
11.355013333333334 -12.3 1.4 5000040.6504
11.232286666666667 -12.333333333333334 1.4 5000036.9686
10.64662 -12.4 1.4 5000019.3986
11.232286666666667 -12.966666666666667 1.4 5000036.9686
11.232286666666667 -13.0 1.4 5000036.9686
10.522466666666666 -13.1 1.4 5000015.674
10.54333 -13.466666666666667 1.4 5000016.2999
10.54333 -13.5 1.4 5000016.2999
10.522466666666666 -13.633333333333333 1.4 5000015.674
10.4529 -16.833333333333332 1.4 5000013.587
10.468493333333333 -16.866666666666667 1.4 5000014.0548
10.468493333333333 -17.033333333333335 1.4 5000014.0548
10.468493333333333 -17.066666666666666 1.4 5000014.0548
10.468493333333333 -17.1 1.4 5000014.0548
10.289226333333334 -9.9 1.3666666666666667 5000008.67679
10.242777333333333 -9.933333333333334 1.3666666666666667 5000007.28332
10.242777333333333 -9.966666666666667 1.3666666666666667 5000007.28332
10.617283333333333 -10.8 1.3666666666666667 5000018.5185
10.617283333333333 -11.033333333333333 1.3666666666666667 5000018.5185
10.590493333333333 -11.066666666666666 1.3666666666666667 5000017.7148
10.590493333333333 -11.1 1.3666666666666667 5000017.7148
10.64662 -11.5 1.3666666666666667 5000019.3986
10.64662 -11.533333333333333 1.3666666666666667 5000019.3986
10.64662 -11.566666666666666 1.3666666666666667 5000019.3986
10.617283333333333 -11.966666666666667 1.3666666666666667 5000018.5185
10.64662 -12.4 1.3666666666666667 5000019.3986
10.904566666666666 -12.733333333333333 1.3666666666666667 5000027.137
10.968993333333334 -12.766666666666667 1.3666666666666667 5000029.0698
10.968993333333334 -12.8 1.3666666666666667 5000029.0698
10.54333 -13.1 1.3666666666666667 5000016.2999
10.54333 -13.466666666666667 1.3666666666666667 5000016.2999
10.54333 -13.5 1.3666666666666667 5000016.2999
10.522466666666666 -13.633333333333333 1.3666666666666667 5000015.674
10.522466666666666 -13.666666666666666 1.3666666666666667 5000015.674
10.848176666666667 -16.233333333333334 1.3666666666666667 5000025.4453
10.848176666666667 -16.266666666666666 1.3666666666666667 5000025.4453
10.798403333333333 -16.333333333333332 1.3666666666666667 5000023.9521
10.848176666666667 -16.366666666666667 1.3666666666666667 5000025.4453
10.4852 -16.5 1.3666666666666667 5000014.556
10.468493333333333 -16.566666666666666 1.3666666666666667 5000014.0548
10.468493333333333 -16.6 1.3666666666666667 5000014.0548
10.468493333333333 -16.666666666666668 1.3666666666666667 5000014.0548
10.4529 -16.7 1.3666666666666667 5000013.587
10.468493333333333 -16.733333333333334 1.3666666666666667 5000014.0548
10.468493333333333 -17.1 1.3666666666666667 5000014.0548
10.4529 -17.133333333333333 1.3666666666666667 5000013.587
10.242777333333333 -10.0 1.3333333333333333 5000007.28332
10.904566666666666 -10.833333333333334 1.3333333333333333 5000027.137
10.64662 -10.966666666666667 1.3333333333333333 5000019.3986
10.617283333333333 -11.0 1.3333333333333333 5000018.5185
10.617283333333333 -11.033333333333333 1.3333333333333333 5000018.5185
10.590493333333333 -11.066666666666666 1.3333333333333333 5000017.7148
10.64662 -11.533333333333333 1.3333333333333333 5000019.3986
10.64662 -11.566666666666666 1.3333333333333333 5000019.3986
10.617283333333333 -11.966666666666667 1.3333333333333333 5000018.5185
10.71454 -12.6 1.3333333333333333 5000021.4362
10.71454 -12.666666666666666 1.3333333333333333 5000021.4362
10.968993333333334 -12.7 1.3333333333333333 5000029.0698
10.54333 -12.866666666666667 1.3333333333333333 5000016.2999
10.54333 -12.9 1.3333333333333333 5000016.2999
10.54333 -12.933333333333334 1.3333333333333333 5000016.2999
10.54333 -13.133333333333333 1.3333333333333333 5000016.2999
10.54333 -13.166666666666666 1.3333333333333333 5000016.2999
10.54333 -13.233333333333333 1.3333333333333333 5000016.2999
10.54333 -13.266666666666667 1.3333333333333333 5000016.2999
10.54333 -13.466666666666667 1.3333333333333333 5000016.2999
10.54333 -13.5 1.3333333333333333 5000016.2999
10.522466666666666 -13.633333333333333 1.3333333333333333 5000015.674
10.468493333333333 -16.466666666666665 1.3333333333333333 5000014.0548
10.468493333333333 -16.5 1.3333333333333333 5000014.0548
10.468493333333333 -16.566666666666666 1.3333333333333333 5000014.0548
10.468493333333333 -16.6 1.3333333333333333 5000014.0548
10.468493333333333 -16.633333333333333 1.3333333333333333 5000014.0548
10.4529 -16.7 1.3333333333333333 5000013.587
10.42463 -16.733333333333334 1.3333333333333333 5000012.7389
10.42463 -16.766666666666666 1.3333333333333333 5000012.7389
10.42463 -16.8 1.3333333333333333 5000012.7389
10.522466666666666 -16.966666666666665 1.3333333333333333 5000015.674
10.468493333333333 -17.1 1.3333333333333333 5000014.0548
10.468493333333333 -17.133333333333333 1.3333333333333333 5000014.0548
10.617283333333333 -10.966666666666667 1.3 5000018.5185
10.617283333333333 -11.0 1.3 5000018.5185
10.617283333333333 -11.033333333333333 1.3 5000018.5185
10.316105666666667 -11.733333333333333 1.3 5000009.48317
10.54333 -12.9 1.3 5000016.2999
10.54333 -12.933333333333334 1.3 5000016.2999
10.54333 -13.1 1.3 5000016.2999
10.54333 -13.433333333333334 1.3 5000016.2999
10.522466666666666 -13.6 1.3 5000015.674
10.522466666666666 -13.633333333333333 1.3 5000015.674
10.4529 -13.733333333333333 1.3 5000013.587
10.468493333333333 -16.466666666666665 1.3 5000014.0548
10.468493333333333 -16.6 1.3 5000014.0548
10.468493333333333 -16.633333333333333 1.3 5000014.0548
10.468493333333333 -17.1 1.3 5000014.0548
10.468493333333333 -17.133333333333333 1.3 5000014.0548
10.4529 -17.3 1.3 5000013.587
10.64662 -11.866666666666667 1.2666666666666666 5000019.3986
10.617283333333333 -12.233333333333333 1.2666666666666666 5000018.5185
10.54333 -13.133333333333333 1.2666666666666666 5000016.2999
10.522466666666666 -13.566666666666666 1.2666666666666666 5000015.674
10.522466666666666 -13.6 1.2666666666666666 5000015.674
10.522466666666666 -13.633333333333333 1.2666666666666666 5000015.674
10.468493333333333 -16.466666666666665 1.2666666666666666 5000014.0548
10.468493333333333 -17.133333333333333 1.2666666666666666 5000014.0548
10.468493333333333 -17.166666666666668 1.2666666666666666 5000014.0548
11.355013333333334 -12.833333333333334 1.2333333333333334 5000040.6504
10.522466666666666 -13.133333333333333 1.2333333333333334 5000015.674
10.522466666666666 -13.166666666666666 1.2333333333333334 5000015.674
10.522466666666666 -13.233333333333333 1.2333333333333334 5000015.674
10.468493333333333 -13.266666666666667 1.2333333333333334 5000014.0548
10.54333 -13.533333333333333 1.2333333333333334 5000016.2999
10.522466666666666 -13.566666666666666 1.2333333333333334 5000015.674
10.522466666666666 -13.6 1.2333333333333334 5000015.674
10.522466666666666 -13.633333333333333 1.2333333333333334 5000015.674
10.56593 -13.833333333333334 1.2333333333333334 5000016.9779
10.56593 -13.866666666666667 1.2333333333333334 5000016.9779
10.56593 -13.9 1.2333333333333334 5000016.9779
16.666666666666668 -15.933333333333334 1.2333333333333334 5000200.0
10.468493333333333 -16.466666666666665 1.2333333333333334 5000014.0548
10.590493333333333 -16.766666666666666 1.2333333333333334 5000017.7148
10.590493333333333 -16.8 1.2333333333333334 5000017.7148
10.56593 -16.833333333333332 1.2333333333333334 5000016.9779
10.503143333333334 -16.866666666666667 1.2333333333333334 5000015.0943
10.4852 -16.9 1.2333333333333334 5000014.556
10.468493333333333 -16.933333333333334 1.2333333333333334 5000014.0548
10.468493333333333 -16.966666666666665 1.2333333333333334 5000014.0548
10.468493333333333 -17.0 1.2333333333333334 5000014.0548
10.468493333333333 -17.133333333333333 1.2333333333333334 5000014.0548
10.468493333333333 -17.166666666666668 1.2333333333333334 5000014.0548
10.590493333333333 -11.666666666666666 1.2 5000017.7148
11.355013333333334 -12.9 1.2 5000040.6504
11.129943333333333 -12.933333333333334 1.2 5000033.8983
10.54333 -13.033333333333333 1.2 5000016.2999
10.54333 -13.066666666666666 1.2 5000016.2999
10.522466666666666 -13.166666666666666 1.2 5000015.674
10.522466666666666 -13.533333333333333 1.2 5000015.674
10.522466666666666 -13.566666666666666 1.2 5000015.674
10.522466666666666 -13.6 1.2 5000015.674
10.56593 -13.833333333333334 1.2 5000016.9779
10.56593 -13.866666666666667 1.2 5000016.9779
10.56593 -13.9 1.2 5000016.9779
10.56593 -14.433333333333334 1.2 5000016.9779
10.56593 -14.466666666666667 1.2 5000016.9779
10.56593 -14.5 1.2 5000016.9779
10.56593 -14.533333333333333 1.2 5000016.9779
10.590493333333333 -14.8 1.2 5000017.7148
10.590493333333333 -14.833333333333334 1.2 5000017.7148
10.56593 -14.866666666666667 1.2 5000016.9779
10.56593 -14.9 1.2 5000016.9779
10.56593 -14.933333333333334 1.2 5000016.9779
10.56593 -14.966666666666667 1.2 5000016.9779
10.56593 -15.033333333333333 1.2 5000016.9779
11.232286666666667 -16.133333333333333 1.2 5000036.9686
11.043296666666667 -16.233333333333334 1.2 5000031.2989
10.468493333333333 -16.433333333333334 1.2 5000014.0548
10.468493333333333 -16.466666666666665 1.2 5000014.0548
10.4852 -16.9 1.2 5000014.556
10.468493333333333 -16.933333333333334 1.2 5000014.0548
10.468493333333333 -16.966666666666665 1.2 5000014.0548
10.468493333333333 -17.0 1.2 5000014.0548
10.468493333333333 -17.133333333333333 1.2 5000014.0548
10.468493333333333 -17.166666666666668 1.2 5000014.0548
10.56593 -13.0 1.1666666666666667 5000016.9779
10.54333 -13.033333333333333 1.1666666666666667 5000016.2999
10.54333 -13.066666666666666 1.1666666666666667 5000016.2999
10.54333 -13.1 1.1666666666666667 5000016.2999
10.522466666666666 -13.2 1.1666666666666667 5000015.674
10.468493333333333 -13.233333333333333 1.1666666666666667 5000014.0548
10.54333 -13.466666666666667 1.1666666666666667 5000016.2999
10.54333 -13.5 1.1666666666666667 5000016.2999
10.522466666666666 -13.533333333333333 1.1666666666666667 5000015.674
10.522466666666666 -13.566666666666666 1.1666666666666667 5000015.674
10.54333 -13.733333333333333 1.1666666666666667 5000016.2999
10.590493333333333 -13.766666666666667 1.1666666666666667 5000017.7148
10.56593 -13.9 1.1666666666666667 5000016.9779
10.56593 -13.933333333333334 1.1666666666666667 5000016.9779
10.56593 -14.466666666666667 1.1666666666666667 5000016.9779
10.56593 -14.5 1.1666666666666667 5000016.9779
16.666666666666668 -15.9 1.1666666666666667 5000200.0
10.468493333333333 -16.433333333333334 1.1666666666666667 5000014.0548
10.4852 -16.466666666666665 1.1666666666666667 5000014.556
10.468493333333333 -16.933333333333334 1.1666666666666667 5000014.0548
10.468493333333333 -16.966666666666665 1.1666666666666667 5000014.0548
10.4529 -17.133333333333333 1.1666666666666667 5000013.587
10.4529 -17.166666666666668 1.1666666666666667 5000013.587
10.56593 -10.2 1.1333333333333333 5000016.9779
10.54333 -13.033333333333333 1.1333333333333333 5000016.2999
10.54333 -13.066666666666666 1.1333333333333333 5000016.2999
10.54333 -13.1 1.1333333333333333 5000016.2999
10.468493333333333 -13.266666666666667 1.1333333333333333 5000014.0548
10.590493333333333 -13.333333333333334 1.1333333333333333 5000017.7148
10.590493333333333 -13.366666666666667 1.1333333333333333 5000017.7148
10.56593 -13.4 1.1333333333333333 5000016.9779
10.56593 -13.433333333333334 1.1333333333333333 5000016.9779
10.54333 -13.466666666666667 1.1333333333333333 5000016.2999
10.522466666666666 -13.5 1.1333333333333333 5000015.674
10.522466666666666 -13.533333333333333 1.1333333333333333 5000015.674
10.522466666666666 -13.566666666666666 1.1333333333333333 5000015.674
10.54333 -13.733333333333333 1.1333333333333333 5000016.2999
10.56593 -13.8 1.1333333333333333 5000016.9779
10.56593 -13.933333333333334 1.1333333333333333 5000016.9779
10.54333 -13.966666666666667 1.1333333333333333 5000016.2999
10.590493333333333 -14.4 1.1333333333333333 5000017.7148
10.56593 -14.433333333333334 1.1333333333333333 5000016.9779
10.56593 -14.666666666666666 1.1333333333333333 5000016.9779
10.4852 -16.466666666666665 1.1333333333333333 5000014.556
10.468493333333333 -16.533333333333335 1.1333333333333333 5000014.0548
10.468493333333333 -16.566666666666666 1.1333333333333333 5000014.0548
10.4529 -17.133333333333333 1.1333333333333333 5000013.587
10.4529 -17.166666666666668 1.1333333333333333 5000013.587
10.56593 -13.4 1.1 5000016.9779
10.468493333333333 -16.533333333333335 1.1 5000014.0548
10.468493333333333 -16.566666666666666 1.1 5000014.0548
10.468493333333333 -16.6 1.1 5000014.0548
10.468493333333333 -16.666666666666668 1.1 5000014.0548
10.4529 -16.9 1.1 5000013.587
10.468493333333333 -16.933333333333334 1.1 5000014.0548
10.4529 -17.1 1.1 5000013.587
10.4529 -17.133333333333333 1.1 5000013.587
10.4529 -17.166666666666668 1.1 5000013.587
10.54333 -10.633333333333333 1.0666666666666667 5000016.2999
10.54333 -10.666666666666666 1.0666666666666667 5000016.2999
10.56593 -14.633333333333333 1.0666666666666667 5000016.9779
10.56593 -14.666666666666666 1.0666666666666667 5000016.9779
10.54333 -14.766666666666667 1.0666666666666667 5000016.2999
10.54333 -15.366666666666667 1.0666666666666667 5000016.2999
10.54333 -15.4 1.0666666666666667 5000016.2999
10.468493333333333 -16.466666666666665 1.0666666666666667 5000014.0548
10.468493333333333 -16.5 1.0666666666666667 5000014.0548
10.468493333333333 -16.933333333333334 1.0666666666666667 5000014.0548
10.468493333333333 -16.966666666666665 1.0666666666666667 5000014.0548
10.468493333333333 -17.066666666666666 1.0666666666666667 5000014.0548
10.468493333333333 -17.1 1.0666666666666667 5000014.0548
10.4529 -17.133333333333333 1.0666666666666667 5000013.587
10.4529 -17.166666666666668 1.0666666666666667 5000013.587
10.54333 -10.633333333333333 1.0333333333333334 5000016.2999
10.54333 -15.333333333333334 1.0333333333333334 5000016.2999
10.54333 -15.366666666666667 1.0333333333333334 5000016.2999
10.54333 -15.4 1.0333333333333334 5000016.2999
10.522466666666666 -15.433333333333334 1.0333333333333334 5000015.674
