VERSION .7
FIELDS x y z rgb
SIZE 4 4 4 4
TYPE F F F F
COUNT 1 1 1 1
WIDTH 1693
HEIGHT 1
VIEWPOINT 0 0 0 1 0 0 0
POINTS 1693
DATA ascii
17.77464 0.06 0.66 22.6244
26.38116 -0.14 0.66 36.9686
19.467180000000003 -0.26 0.66 25.4453
19.467180000000003 -0.32 0.66 25.4453
19.467180000000003 -0.34 0.66 25.4453
26.38116 -0.44 0.66 36.9686
26.38116 -0.46 0.66 36.9686
17.77464 -1.3 0.66 22.6244
17.77464 -1.32 0.66 22.6244
14.386740000000001 -1.44 0.66 16.9779
14.82888 -4.36 0.66 17.7148
14.82888 -4.38 0.66 17.7148
14.386740000000001 -4.48 0.66 16.9779
14.386740000000001 -4.5 0.66 16.9779
14.82888 -4.58 0.66 17.7148
14.82888 -4.6 0.66 17.7148
17.77464 -5.58 0.66 22.6244
17.77464 -5.6 0.66 22.6244
28.590239999999998 -5.86 0.66 40.6504
28.590239999999998 -5.88 0.66 40.6504
17.06172 -6.28 0.66 21.4362
17.06172 -6.4 0.66 21.4362
64.806 5.5 0.64 101.01
84.7368 5.2 0.64 134.228
64.806 4.96 0.64 101.01
64.806 4.94 0.64 101.01
84.7368 4.78 0.64 134.228
34.65684 4.72 0.64 50.7614
28.590239999999998 3.4 0.64 40.6504
24.53898 2.16 0.64 33.8983
24.53898 2.14 0.64 33.8983
24.53898 1.98 0.64 33.8983
22.97934 1.9 0.64 31.2989
34.65684 1.26 0.64 50.7614
34.65684 1.1 0.64 50.7614
34.65684 1.08 0.64 50.7614
31.28802 0.86 0.64 45.1467
31.28802 0.82 0.64 45.1467
21.64188 0.76 0.64 29.0698
21.64188 0.74 0.64 29.0698
15.3111 0.64 0.64 18.5185
28.590239999999998 0.56 0.64 40.6504
28.590239999999998 0.2 0.64 40.6504
28.590239999999998 0.18 0.64 40.6504
17.77464 0.06 0.64 22.6244
26.38116 -0.12 0.64 36.9686
26.38116 -0.14 0.64 36.9686
26.38116 -0.44 0.64 36.9686
19.467180000000003 -1.3 0.64 25.4453
19.467180000000003 -1.32 0.64 25.4453
17.77464 -1.44 0.64 22.6244
17.77464 -1.46 0.64 22.6244
14.82888 -4.34 0.64 17.7148
14.82888 -4.36 0.64 17.7148
14.82888 -4.38 0.64 17.7148
14.82888 -4.58 0.64 17.7148
17.77464 -5.6 0.64 22.6244
28.590239999999998 -5.86 0.64 40.6504
28.590239999999998 -5.88 0.64 40.6504
17.06172 -6.28 0.64 21.4362
17.06172 -6.38 0.64 21.4362
17.06172 -6.4 0.64 21.4362
64.806 5.5 0.62 101.01
84.7368 5.2 0.62 134.228
64.806 4.94 0.62 101.01
84.7368 4.78 0.62 134.228
124.19999999999999 2.06 0.62 200.0
24.53898 2.0 0.62 33.8983
34.65684 1.1 0.62 50.7614
34.65684 1.08 0.62 50.7614
21.64188 0.74 0.62 29.0698
28.590239999999998 0.52 0.62 40.6504
17.77464 0.4 0.62 22.6244
28.590239999999998 0.18 0.62 40.6504
26.38116 -0.14 0.62 36.9686
19.467180000000003 -0.32 0.62 25.4453
26.38116 -0.44 0.62 36.9686
28.590239999999998 -1.3 0.62 40.6504
28.590239999999998 -1.32 0.62 40.6504
17.77464 -1.44 0.62 22.6244
17.77464 -1.46 0.62 22.6244
14.82888 -4.36 0.62 17.7148
14.82888 -4.38 0.62 17.7148
14.82888 -4.58 0.62 17.7148
17.77464 -5.6 0.62 22.6244
17.77464 -5.62 0.62 22.6244
28.590239999999998 -5.88 0.62 40.6504
17.06172 -6.28 0.62 21.4362
17.06172 -6.4 0.62 21.4362
84.7368 5.56 0.6 134.228
84.7368 5.2 0.6 134.228
64.806 4.94 0.6 101.01
84.7368 4.78 0.6 134.228
38.9826 4.7 0.6 57.971
28.590239999999998 3.36 0.6 40.6504
38.9826 3.06 0.6 57.971
24.53898 2.0 0.6 33.8983
24.53898 1.94 0.6 33.8983
34.65684 1.68 0.6 50.7614
31.28802 1.6 0.6 45.1467
34.65684 1.56 0.6 50.7614
28.590239999999998 0.52 0.6 40.6504
17.77464 0.4 0.6 22.6244
31.28802 0.18 0.6 45.1467
26.38116 -0.14 0.6 36.9686
26.38116 -0.22 0.6 36.9686
19.467180000000003 -0.32 0.6 25.4453
26.38116 -0.44 0.6 36.9686
26.38116 -0.46 0.6 36.9686
28.590239999999998 -1.3 0.6 40.6504
28.590239999999998 -1.32 0.6 40.6504
17.77464 -1.44 0.6 22.6244
14.82888 -4.36 0.6 17.7148
14.82888 -4.38 0.6 17.7148
14.82888 -4.58 0.6 17.7148
14.82888 -4.6 0.6 17.7148
17.77464 -5.6 0.6 22.6244
17.77464 -5.62 0.6 22.6244
28.590239999999998 -5.88 0.6 40.6504
17.06172 -6.28 0.6 21.4362
17.06172 -6.4 0.6 21.4362
84.7368 5.56 0.58 134.228
84.7368 5.2 0.58 134.228
64.806 4.94 0.58 101.01
38.9826 4.74 0.58 57.971
38.9826 3.1 0.58 57.971
38.9826 3.06 0.58 57.971
24.53898 2.0 0.58 33.8983
19.467180000000003 1.94 0.58 25.4453
34.65684 1.68 0.58 50.7614
34.65684 1.56 0.58 50.7614
34.65684 1.14 0.58 50.7614
34.65684 0.84 0.58 50.7614
21.64188 0.76 0.58 29.0698
28.590239999999998 0.52 0.58 40.6504
17.77464 0.38 0.58 22.6244
28.590239999999998 0.24 0.58 40.6504
31.28802 0.18 0.58 45.1467
17.06172 0.06 0.58 21.4362
17.06172 0.04 0.58 21.4362
26.38116 -0.14 0.58 36.9686
52.78302 -0.32 0.58 80.9717
26.38116 -0.44 0.58 36.9686
26.38116 -0.46 0.58 36.9686
28.590239999999998 -1.3 0.58 40.6504
28.590239999999998 -1.32 0.58 40.6504
17.77464 -1.44 0.58 22.6244
14.82888 -4.36 0.58 17.7148
14.82888 -4.38 0.58 17.7148
14.82888 -4.4 0.58 17.7148
14.82888 -4.58 0.58 17.7148
18.57126 -5.6 0.58 23.9521
18.57126 -5.62 0.58 23.9521
28.590239999999998 -5.88 0.58 40.6504
17.06172 -6.28 0.58 21.4362
17.06172 -6.4 0.58 21.4362
84.7368 5.56 0.56 134.228
84.7368 5.2 0.56 134.228
38.9826 4.74 0.56 57.971
38.9826 3.1 0.56 57.971
24.53898 2.0 0.56 33.8983
24.53898 1.98 0.56 33.8983
19.467180000000003 1.92 0.56 25.4453
38.9826 1.84 0.56 57.971
22.97934 1.76 0.56 31.2989
34.65684 1.68 0.56 50.7614
24.53898 1.62 0.56 33.8983
34.65684 1.56 0.56 50.7614
34.65684 0.84 0.56 50.7614
34.65684 0.82 0.56 50.7614
21.64188 0.76 0.56 29.0698
15.3111 0.64 0.56 18.5185
28.590239999999998 0.6 0.56 40.6504
28.590239999999998 0.56 0.56 40.6504
28.590239999999998 0.52 0.56 40.6504
28.590239999999998 0.38 0.56 40.6504
28.590239999999998 0.36 0.56 40.6504
28.590239999999998 0.24 0.56 40.6504
31.28802 0.18 0.56 45.1467
17.06172 0.04 0.56 21.4362
26.38116 -0.14 0.56 36.9686
26.38116 -0.24 0.56 36.9686
52.78302 -0.32 0.56 80.9717
52.78302 -0.34 0.56 80.9717
26.38116 -0.44 0.56 36.9686
26.38116 -0.46 0.56 36.9686
28.590239999999998 -1.3 0.56 40.6504
28.590239999999998 -1.32 0.56 40.6504
17.77464 -1.44 0.56 22.6244
14.82888 -4.38 0.56 17.7148
14.82888 -4.4 0.56 17.7148
14.82888 -4.58 0.56 17.7148
14.82888 -4.6 0.56 17.7148
18.57126 -5.6 0.56 23.9521
18.57126 -5.62 0.56 23.9521
17.06172 -6.28 0.56 21.4362
17.06172 -6.4 0.56 21.4362
84.7368 5.56 0.54 134.228
38.9826 4.74 0.54 57.971
38.9826 4.72 0.54 57.971
44.74056 3.1 0.54 67.5676
26.38116 2.0 0.54 36.9686
19.467180000000003 1.92 0.54 25.4453
38.9826 1.84 0.54 57.971
34.65684 1.56 0.54 50.7614
31.28802 0.84 0.54 45.1467
31.28802 0.82 0.54 45.1467
21.64188 0.76 0.54 29.0698
21.64188 0.74 0.54 29.0698
28.590239999999998 0.56 0.54 40.6504
21.64188 0.46 0.54 29.0698
21.64188 0.44 0.54 29.0698
28.590239999999998 0.36 0.54 40.6504
28.590239999999998 0.34 0.54 40.6504
31.28802 0.18 0.54 45.1467
17.06172 0.04 0.54 21.4362
21.64188 -0.06 0.54 29.0698
26.38116 -0.14 0.54 36.9686
52.78302 -0.32 0.54 80.9717
52.78302 -0.34 0.54 80.9717
26.38116 -0.44 0.54 36.9686
26.38116 -0.46 0.54 36.9686
38.9826 -1.24 0.54 57.971
17.77464 -1.42 0.54 22.6244
17.77464 -1.44 0.54 22.6244
14.82888 -4.38 0.54 17.7148
14.82888 -4.4 0.54 17.7148
14.82888 -4.58 0.54 17.7148
14.82888 -4.6 0.54 17.7148
18.57126 -5.6 0.54 23.9521
18.57126 -5.62 0.54 23.9521
28.590239999999998 -5.88 0.54 40.6504
17.06172 -6.28 0.54 21.4362
17.06172 -6.4 0.54 21.4362
52.78302 4.8 0.52 80.9717
38.9826 4.72 0.52 57.971
38.9826 4.7 0.52 57.971
44.74056 3.1 0.52 67.5676
19.467180000000003 1.92 0.52 25.4453
34.65684 1.56 0.52 50.7614
34.65684 1.12 0.52 50.7614
34.65684 1.1 0.52 50.7614
31.28802 0.82 0.52 45.1467
22.97934 0.76 0.52 31.2989
28.590239999999998 0.56 0.52 40.6504
21.64188 0.44 0.52 29.0698
31.28802 0.18 0.52 45.1467
31.28802 0.04 0.52 45.1467
21.64188 -0.06 0.52 29.0698
26.38116 -0.12 0.52 36.9686
26.38116 -0.14 0.52 36.9686
52.78302 -0.32 0.52 80.9717
52.78302 -0.34 0.52 80.9717
26.38116 -0.44 0.52 36.9686
26.38116 -0.46 0.52 36.9686
38.9826 -1.24 0.52 57.971
17.77464 -1.44 0.52 22.6244
14.82888 -4.36 0.52 17.7148
14.82888 -4.38 0.52 17.7148
14.82888 -4.58 0.52 17.7148
14.82888 -4.6 0.52 17.7148
18.57126 -5.6 0.52 23.9521
18.57126 -5.62 0.52 23.9521
28.590239999999998 -5.88 0.52 40.6504
17.06172 -6.28 0.52 21.4362
17.06172 -6.38 0.52 21.4362
17.06172 -6.4 0.52 21.4362
124.19999999999999 5.56 0.5 200.0
64.806 5.14 0.5 101.01
64.806 5.12 0.5 101.01
52.78302 4.68 0.5 80.9717
44.74056 3.1 0.5 67.5676
38.9826 2.14 0.5 57.971
24.53898 2.08 0.5 33.8983
28.590239999999998 1.98 0.5 40.6504
19.467180000000003 1.92 0.5 25.4453
34.65684 1.1 0.5 50.7614
31.28802 0.82 0.5 45.1467
22.97934 0.76 0.5 31.2989
28.590239999999998 0.56 0.5 40.6504
21.64188 0.44 0.5 29.0698
31.28802 0.18 0.5 45.1467
31.28802 0.04 0.5 45.1467
31.28802 0.02 0.5 45.1467
21.64188 -0.04 0.5 29.0698
26.38116 -0.14 0.5 36.9686
52.78302 -0.32 0.5 80.9717
26.38116 -0.44 0.5 36.9686
26.38116 -0.46 0.5 36.9686
38.9826 -1.22 0.5 57.971
38.9826 -1.24 0.5 57.971
17.77464 -1.44 0.5 22.6244
14.82888 -4.58 0.5 17.7148
14.82888 -4.6 0.5 17.7148
18.57126 -5.6 0.5 23.9521
18.57126 -5.62 0.5 23.9521
17.06172 -6.28 0.5 21.4362
17.06172 -6.4 0.5 21.4362
64.806 5.14 0.48 101.01
64.806 5.12 0.48 101.01
44.74056 3.1 0.48 67.5676
38.9826 2.28 0.48 57.971
38.9826 2.22 0.48 57.971
38.9826 2.2 0.48 57.971
38.9826 2.14 0.48 57.971
28.590239999999998 1.98 0.48 40.6504
34.65684 1.28 0.48 50.7614
34.65684 1.26 0.48 50.7614
31.28802 1.1 0.48 45.1467
31.28802 1.08 0.48 45.1467
18.57126 0.98 0.48 23.9521
31.28802 0.82 0.48 45.1467
28.590239999999998 0.8 0.48 40.6504
22.97934 0.76 0.48 31.2989
28.590239999999998 0.56 0.48 40.6504
28.590239999999998 0.24 0.48 40.6504
31.28802 0.04 0.48 45.1467
31.28802 0.02 0.48 45.1467
26.38116 -0.14 0.48 36.9686
17.77464 -0.24 0.48 22.6244
14.82888 -0.32 0.48 17.7148
26.38116 -0.44 0.48 36.9686
26.38116 -0.46 0.48 36.9686
38.9826 -1.28 0.48 57.971
17.77464 -1.44 0.48 22.6244
14.82888 -4.34 0.48 17.7148
14.82888 -4.36 0.48 17.7148
14.82888 -4.38 0.48 17.7148
14.82888 -4.6 0.48 17.7148
14.82888 -4.62 0.48 17.7148
18.57126 -5.6 0.48 23.9521
18.57126 -5.62 0.48 23.9521
17.06172 -6.28 0.48 21.4362
17.06172 -6.4 0.48 21.4362
64.806 5.12 0.46 101.01
64.806 4.7 0.46 101.01
64.806 4.68 0.46 101.01
44.74056 3.1 0.46 67.5676
38.9826 2.28 0.46 57.971
38.9826 2.14 0.46 57.971
26.38116 2.02 0.46 36.9686
34.65684 1.26 0.46 50.7614
31.28802 1.08 0.46 45.1467
18.57126 0.98 0.46 23.9521
44.74056 0.86 0.46 67.5676
31.28802 0.82 0.46 45.1467
22.97934 0.76 0.46 31.2989
28.590239999999998 0.56 0.46 40.6504
28.590239999999998 0.5 0.46 40.6504
26.38116 -0.14 0.46 36.9686
17.77464 -0.24 0.46 22.6244
14.82888 -0.32 0.46 17.7148
14.82888 -0.34 0.46 17.7148
26.38116 -0.44 0.46 36.9686
26.38116 -0.46 0.46 36.9686
17.77464 -1.28 0.46 22.6244
14.82888 -4.34 0.46 17.7148
14.82888 -4.36 0.46 17.7148
14.82888 -4.38 0.46 17.7148
14.82888 -4.6 0.46 17.7148
14.82888 -4.62 0.46 17.7148
18.57126 -5.6 0.46 23.9521
18.57126 -5.62 0.46 23.9521
28.590239999999998 -5.8 0.46 40.6504
28.590239999999998 -5.82 0.46 40.6504
17.06172 -6.28 0.46 21.4362
17.06172 -6.38 0.46 21.4362
17.06172 -6.4 0.46 21.4362
64.806 5.12 0.44 101.01
64.806 4.7 0.44 101.01
64.806 4.68 0.44 101.01
64.806 4.58 0.44 101.01
84.7368 3.38 0.44 134.228
44.74056 3.1 0.44 67.5676
38.9826 2.42 0.44 57.971
44.74056 2.4 0.44 67.5676
38.9826 2.28 0.44 57.971
38.9826 2.14 0.44 57.971
24.53898 2.0 0.44 33.8983
38.9826 1.72 0.44 57.971
22.97934 1.66 0.44 31.2989
34.65684 1.6 0.44 50.7614
34.65684 1.26 0.44 50.7614
31.28802 1.08 0.44 45.1467
18.57126 0.96 0.44 23.9521
44.74056 0.86 0.44 67.5676
28.590239999999998 0.8 0.44 40.6504
21.64188 0.74 0.44 29.0698
28.590239999999998 0.5 0.44 40.6504
21.64188 0.44 0.44 29.0698
28.590239999999998 0.38 0.44 40.6504
28.590239999999998 0.18 0.44 40.6504
28.590239999999998 0.16 0.44 40.6504
17.77464 0.04 0.44 22.6244
26.38116 -0.14 0.44 36.9686
17.77464 -0.24 0.44 22.6244
14.82888 -0.32 0.44 17.7148
14.82888 -0.34 0.44 17.7148
52.78302 -0.38 0.44 80.9717
26.38116 -0.44 0.44 36.9686
26.38116 -0.46 0.44 36.9686
17.77464 -1.44 0.44 22.6244
14.82888 -4.36 0.44 17.7148
14.82888 -4.38 0.44 17.7148
14.82888 -4.6 0.44 17.7148
14.82888 -4.62 0.44 17.7148
18.57126 -5.6 0.44 23.9521
18.57126 -5.62 0.44 23.9521
28.590239999999998 -5.8 0.44 40.6504
28.590239999999998 -5.82 0.44 40.6504
17.06172 -6.28 0.44 21.4362
17.06172 -6.4 0.44 21.4362
84.7368 5.92 0.42 134.228
64.806 5.12 0.42 101.01
84.7368 3.38 0.42 134.228
84.7368 3.18 0.42 134.228
38.9826 2.54 0.42 57.971
38.9826 2.48 0.42 57.971
44.74056 2.46 0.42 67.5676
38.9826 2.42 0.42 57.971
44.74056 2.4 0.42 67.5676
38.9826 2.28 0.42 57.971
24.53898 2.0 0.42 33.8983
38.9826 1.74 0.42 57.971
38.9826 1.72 0.42 57.971
34.65684 1.6 0.42 50.7614
34.65684 1.26 0.42 50.7614
31.28802 1.08 0.42 45.1467
44.74056 0.86 0.42 67.5676
28.590239999999998 0.8 0.42 40.6504
21.64188 0.74 0.42 29.0698
28.590239999999998 0.56 0.42 40.6504
21.64188 0.44 0.42 29.0698
28.590239999999998 0.38 0.42 40.6504
28.590239999999998 0.16 0.42 40.6504
17.77464 0.04 0.42 22.6244
26.38116 -0.14 0.42 36.9686
17.77464 -0.24 0.42 22.6244
17.77464 -0.26 0.42 22.6244
52.78302 -0.32 0.42 80.9717
14.82888 -0.34 0.42 17.7148
52.78302 -0.38 0.42 80.9717
26.38116 -0.44 0.42 36.9686
24.53898 -0.46 0.42 33.8983
18.57126 -1.44 0.42 23.9521
18.57126 -1.46 0.42 23.9521
18.57126 -1.48 0.42 23.9521
14.82888 -4.34 0.42 17.7148
14.82888 -4.36 0.42 17.7148
14.82888 -4.38 0.42 17.7148
14.82888 -4.6 0.42 17.7148
18.57126 -5.6 0.42 23.9521
18.57126 -5.62 0.42 23.9521
17.06172 -6.38 0.42 21.4362
17.06172 -6.4 0.42 21.4362
84.7368 5.92 0.4 134.228
84.7368 5.9 0.4 134.228
38.9826 4.56 0.4 57.971
44.74056 4.5 0.4 67.5676
84.7368 3.38 0.4 134.228
52.78302 3.12 0.4 80.9717
52.78302 3.1 0.4 80.9717
44.74056 2.66 0.4 67.5676
38.9826 2.54 0.4 57.971
24.53898 2.0 0.4 33.8983
24.53898 1.84 0.4 33.8983
38.9826 1.76 0.4 57.971
34.65684 1.6 0.4 50.7614
34.65684 1.26 0.4 50.7614
31.28802 1.08 0.4 45.1467
28.590239999999998 0.8 0.4 40.6504
21.64188 0.74 0.4 29.0698
28.590239999999998 0.56 0.4 40.6504
21.64188 0.44 0.4 29.0698
28.590239999999998 0.38 0.4 40.6504
28.590239999999998 0.36 0.4 40.6504
28.590239999999998 0.16 0.4 40.6504
17.77464 0.0 0.4 22.6244
26.38116 -0.14 0.4 36.9686
17.77464 -0.24 0.4 22.6244
52.78302 -0.32 0.4 80.9717
14.82888 -0.34 0.4 17.7148
26.38116 -0.4 0.4 36.9686
24.53898 -0.44 0.4 33.8983
24.53898 -0.46 0.4 33.8983
17.77464 -1.26 0.4 22.6244
17.77464 -1.28 0.4 22.6244
18.57126 -1.44 0.4 23.9521
18.57126 -1.46 0.4 23.9521
14.82888 -4.36 0.4 17.7148
14.82888 -4.38 0.4 17.7148
14.82888 -4.58 0.4 17.7148
14.82888 -4.6 0.4 17.7148
17.77464 -5.6 0.4 22.6244
17.77464 -5.62 0.4 22.6244
28.590239999999998 -5.82 0.4 40.6504
17.06172 -6.28 0.4 21.4362
17.06172 -6.38 0.4 21.4362
17.06172 -6.4 0.4 21.4362
84.7368 5.9 0.38 134.228
38.9826 4.56 0.38 57.971
44.74056 4.5 0.38 67.5676
52.78302 3.1 0.38 80.9717
44.74056 2.78 0.38 67.5676
44.74056 2.7 0.38 67.5676
44.74056 2.68 0.38 67.5676
44.74056 2.66 0.38 67.5676
38.9826 2.54 0.38 57.971
34.65684 2.04 0.38 50.7614
38.9826 1.76 0.38 57.971
34.65684 1.6 0.38 50.7614
34.65684 1.26 0.38 50.7614
34.65684 1.24 0.38 50.7614
31.28802 1.08 0.38 45.1467
44.74056 0.86 0.38 67.5676
31.28802 0.8 0.38 45.1467
22.97934 0.74 0.38 31.2989
28.590239999999998 0.6 0.38 40.6504
28.590239999999998 0.56 0.38 40.6504
21.64188 0.44 0.38 29.0698
31.28802 0.38 0.38 45.1467
17.77464 0.24 0.38 22.6244
28.590239999999998 0.16 0.38 40.6504
26.38116 -0.14 0.38 36.9686
17.77464 -0.24 0.38 22.6244
64.806 -0.32 0.38 101.01
14.82888 -0.34 0.38 17.7148
26.38116 -0.4 0.38 36.9686
26.38116 -0.44 0.38 36.9686
24.53898 -0.46 0.38 33.8983
17.77464 -1.26 0.38 22.6244
17.77464 -1.28 0.38 22.6244
17.77464 -1.3 0.38 22.6244
17.77464 -1.44 0.38 22.6244
17.77464 -1.46 0.38 22.6244
14.82888 -4.36 0.38 17.7148
14.82888 -4.38 0.38 17.7148
14.82888 -4.4 0.38 17.7148
14.82888 -4.58 0.38 17.7148
14.82888 -4.6 0.38 17.7148
17.77464 -5.6 0.38 22.6244
17.77464 -5.62 0.38 22.6244
17.06172 -6.28 0.38 21.4362
17.77464 -6.38 0.38 22.6244
17.77464 -6.4 0.38 22.6244
64.806 4.94 0.36 101.01
44.74056 2.88 0.36 67.5676
44.74056 2.84 0.36 67.5676
44.74056 2.78 0.36 67.5676
44.74056 2.66 0.36 67.5676
38.9826 2.2 0.36 57.971
38.9826 2.18 0.36 57.971
34.65684 2.14 0.36 50.7614
38.9826 2.06 0.36 57.971
34.65684 2.04 0.36 50.7614
38.9826 1.76 0.36 57.971
34.65684 1.6 0.36 50.7614
34.65684 1.26 0.36 50.7614
34.65684 1.24 0.36 50.7614
31.28802 1.08 0.36 45.1467
19.467180000000003 0.98 0.36 25.4453
44.74056 0.86 0.36 67.5676
31.28802 0.8 0.36 45.1467
22.97934 0.74 0.36 31.2989
28.590239999999998 0.56 0.36 40.6504
31.28802 0.38 0.36 45.1467
31.28802 0.36 0.36 45.1467
17.77464 0.24 0.36 22.6244
28.590239999999998 0.16 0.36 40.6504
26.38116 -0.14 0.36 36.9686
17.77464 -0.24 0.36 22.6244
17.77464 -0.26 0.36 22.6244
26.38116 -0.32 0.36 36.9686
26.38116 -0.34 0.36 36.9686
34.65684 -0.4 0.36 50.7614
24.53898 -0.44 0.36 33.8983
24.53898 -0.46 0.36 33.8983
17.77464 -1.28 0.36 22.6244
17.77464 -1.3 0.36 22.6244
14.82888 -4.38 0.36 17.7148
14.82888 -4.4 0.36 17.7148
14.82888 -4.6 0.36 17.7148
17.77464 -5.6 0.36 22.6244
17.77464 -5.62 0.36 22.6244
17.77464 -5.64 0.36 22.6244
17.06172 -6.28 0.36 21.4362
17.77464 -6.38 0.36 22.6244
17.77464 -6.4 0.36 22.6244
84.7368 5.68 0.34 134.228
44.74056 5.54 0.34 67.5676
64.806 5.08 0.34 101.01
64.806 4.94 0.34 101.01
52.78302 3.28 0.34 80.9717
28.590239999999998 3.22 0.34 40.6504
44.74056 2.98 0.34 67.5676
44.74056 2.9 0.34 67.5676
44.74056 2.88 0.34 67.5676
38.9826 2.32 0.34 57.971
38.9826 2.28 0.34 57.971
38.9826 2.2 0.34 57.971
38.9826 2.18 0.34 57.971
34.65684 2.14 0.34 50.7614
38.9826 2.06 0.34 57.971
26.38116 2.0 0.34 36.9686
31.28802 1.04 0.34 45.1467
19.467180000000003 0.98 0.34 25.4453
31.28802 0.8 0.34 45.1467
22.97934 0.74 0.34 31.2989
28.590239999999998 0.56 0.34 40.6504
21.64188 0.44 0.34 29.0698
31.28802 0.38 0.34 45.1467
31.28802 0.36 0.34 45.1467
17.77464 0.24 0.34 22.6244
28.590239999999998 0.16 0.34 40.6504
31.28802 0.02 0.34 45.1467
31.28802 0.0 0.34 45.1467
26.38116 -0.14 0.34 36.9686
18.57126 -0.24 0.34 23.9521
26.38116 -0.32 0.34 36.9686
26.38116 -0.34 0.34 36.9686
34.65684 -0.4 0.34 50.7614
24.53898 -0.44 0.34 33.8983
24.53898 -0.46 0.34 33.8983
17.77464 -1.28 0.34 22.6244
17.77464 -1.3 0.34 22.6244
13.6044 -1.44 0.34 15.674
14.82888 -4.4 0.34 17.7148
14.82888 -4.6 0.34 17.7148
17.77464 -5.62 0.34 22.6244
17.77464 -5.64 0.34 22.6244
17.06172 -6.28 0.34 21.4362
17.06172 -6.38 0.34 21.4362
17.06172 -6.4 0.34 21.4362
84.7368 5.68 0.32 134.228
64.806 5.08 0.32 101.01
64.806 4.94 0.32 101.01
52.78302 3.28 0.32 80.9717
28.590239999999998 3.22 0.32 40.6504
44.74056 2.98 0.32 67.5676
44.74056 2.88 0.32 67.5676
44.74056 2.34 0.32 67.5676
38.9826 2.32 0.32 57.971
38.9826 2.28 0.32 57.971
38.9826 2.2 0.32 57.971
38.9826 2.06 0.32 57.971
26.38116 2.0 0.32 36.9686
17.77464 1.92 0.32 22.6244
34.65684 1.26 0.32 50.7614
31.28802 1.08 0.32 45.1467
31.28802 1.04 0.32 45.1467
19.467180000000003 0.98 0.32 25.4453
31.28802 0.8 0.32 45.1467
28.590239999999998 0.56 0.32 40.6504
21.64188 0.5 0.32 29.0698
21.64188 0.44 0.32 29.0698
17.77464 0.24 0.32 22.6244
22.97934 0.22 0.32 31.2989
28.590239999999998 0.16 0.32 40.6504
31.28802 0.04 0.32 45.1467
26.38116 -0.14 0.32 36.9686
18.57126 -0.24 0.32 23.9521
26.38116 -0.32 0.32 36.9686
26.38116 -0.34 0.32 36.9686
24.53898 -0.46 0.32 33.8983
17.77464 -1.3 0.32 22.6244
13.979940000000001 -1.44 0.32 16.2999
14.82888 -4.4 0.32 17.7148
14.82888 -4.42 0.32 17.7148
14.82888 -4.6 0.32 17.7148
17.77464 -5.6 0.32 22.6244
17.77464 -5.62 0.32 22.6244
17.77464 -5.64 0.32 22.6244
17.06172 -6.28 0.32 21.4362
17.06172 -6.38 0.32 21.4362
17.06172 -6.4 0.32 21.4362
52.78302 5.14 0.3 80.9717
64.806 5.08 0.3 101.01
64.806 5.06 0.3 101.01
64.806 4.94 0.3 101.01
28.590239999999998 3.22 0.3 40.6504
28.590239999999998 3.14 0.3 40.6504
44.74056 2.46 0.3 67.5676
44.74056 2.44 0.3 67.5676
44.74056 2.34 0.3 67.5676
38.9826 2.2 0.3 57.971
38.9826 2.06 0.3 57.971
26.38116 2.0 0.3 36.9686
34.65684 1.26 0.3 50.7614
34.65684 1.24 0.3 50.7614
31.28802 1.08 0.3 45.1467
19.467180000000003 0.98 0.3 25.4453
31.28802 0.86 0.3 45.1467
31.28802 0.8 0.3 45.1467
28.590239999999998 0.56 0.3 40.6504
22.97934 0.22 0.3 31.2989
28.590239999999998 0.16 0.3 40.6504
21.64188 0.1 0.3 29.0698
31.28802 0.04 0.3 45.1467
26.38116 -0.14 0.3 36.9686
26.38116 -0.24 0.3 36.9686
26.38116 -0.26 0.3 36.9686
17.77464 -1.3 0.3 22.6244
17.77464 -1.32 0.3 22.6244
13.979940000000001 -1.44 0.3 16.2999
14.82888 -4.4 0.3 17.7148
14.82888 -4.42 0.3 17.7148
14.82888 -4.44 0.3 17.7148
14.82888 -4.58 0.3 17.7148
14.82888 -4.6 0.3 17.7148
17.77464 -5.62 0.3 22.6244
17.77464 -5.64 0.3 22.6244
17.06172 -6.28 0.3 21.4362
17.06172 -6.3 0.3 21.4362
17.06172 -6.38 0.3 21.4362
17.06172 -6.4 0.3 21.4362
17.06172 -6.42 0.3 21.4362
64.806 5.08 0.28 101.01
64.806 5.06 0.28 101.01
84.7368 3.28 0.28 134.228
52.78302 3.26 0.28 80.9717
28.590239999999998 3.22 0.28 40.6504
28.590239999999998 3.14 0.28 40.6504
44.74056 2.58 0.28 67.5676
44.74056 2.46 0.28 67.5676
38.9826 2.2 0.28 57.971
26.38116 2.0 0.28 36.9686
19.467180000000003 0.98 0.28 25.4453
31.28802 0.86 0.28 45.1467
22.97934 0.74 0.28 31.2989
16.419959999999996 0.66 0.28 20.3666
28.590239999999998 0.56 0.28 40.6504
21.64188 0.44 0.28 29.0698
28.590239999999998 0.38 0.28 40.6504
28.590239999999998 0.24 0.28 40.6504
28.590239999999998 0.22 0.28 40.6504
28.590239999999998 0.18 0.28 40.6504
31.28802 0.04 0.28 45.1467
31.28802 0.02 0.28 45.1467
31.28802 0.0 0.28 45.1467
52.78302 -0.04 0.28 80.9717
52.78302 -0.06 0.28 80.9717
26.38116 -0.14 0.28 36.9686
17.77464 -1.3 0.28 22.6244
17.77464 -1.32 0.28 22.6244
13.979940000000001 -1.44 0.28 16.2999
14.82888 -4.4 0.28 17.7148
14.82888 -4.42 0.28 17.7148
14.82888 -4.44 0.28 17.7148
14.82888 -4.6 0.28 17.7148
18.57126 -5.6 0.28 23.9521
18.57126 -5.62 0.28 23.9521
18.57126 -5.64 0.28 23.9521
17.77464 -5.66 0.28 22.6244
17.06172 -6.38 0.28 21.4362
17.06172 -6.4 0.28 21.4362
17.06172 -6.42 0.28 21.4362
52.78302 5.32 0.26 80.9717
52.78302 5.28 0.26 80.9717
52.78302 5.14 0.26 80.9717
64.806 4.96 0.26 101.01
52.78302 4.66 0.26 80.9717
52.78302 4.64 0.26 80.9717
52.78302 3.26 0.26 80.9717
44.74056 2.7 0.26 67.5676
44.74056 2.66 0.26 67.5676
44.74056 2.58 0.26 67.5676
44.74056 2.46 0.26 67.5676
38.9826 2.06 0.26 57.971
26.38116 2.0 0.26 36.9686
18.57126 1.92 0.26 23.9521
31.28802 0.86 0.26 45.1467
28.590239999999998 0.8 0.26 40.6504
22.97934 0.74 0.26 31.2989
16.419959999999996 0.66 0.26 20.3666
28.590239999999998 0.56 0.26 40.6504
21.64188 0.5 0.26 29.0698
21.64188 0.44 0.26 29.0698
21.64188 0.42 0.26 29.0698
28.590239999999998 0.38 0.26 40.6504
28.590239999999998 0.36 0.26 40.6504
21.64188 0.3 0.26 29.0698
28.590239999999998 0.24 0.26 40.6504
28.590239999999998 0.22 0.26 40.6504
28.590239999999998 0.18 0.26 40.6504
17.77464 -1.32 0.26 22.6244
13.979940000000001 -1.44 0.26 16.2999
13.979940000000001 -1.46 0.26 16.2999
14.82888 -4.42 0.26 17.7148
14.82888 -4.44 0.26 17.7148
14.82888 -4.6 0.26 17.7148
18.57126 -5.6 0.26 23.9521
18.57126 -5.62 0.26 23.9521
18.57126 -5.64 0.26 23.9521
17.77464 -5.66 0.26 22.6244
17.06172 -6.38 0.26 21.4362
17.06172 -6.4 0.26 21.4362
52.78302 5.32 0.24 80.9717
52.78302 5.3 0.24 80.9717
52.78302 5.28 0.24 80.9717
52.78302 5.14 0.24 80.9717
64.806 5.04 0.24 101.01
64.806 4.96 0.24 101.01
52.78302 4.66 0.24 80.9717
44.74056 2.88 0.24 67.5676
44.74056 2.8 0.24 67.5676
44.74056 2.7 0.24 67.5676
44.74056 2.58 0.24 67.5676
26.38116 2.0 0.24 36.9686
26.38116 1.98 0.24 36.9686
18.57126 1.92 0.24 23.9521
34.65684 1.6 0.24 50.7614
22.97934 1.46 0.24 31.2989
31.28802 1.02 0.24 45.1467
31.28802 0.86 0.24 45.1467
28.590239999999998 0.8 0.24 40.6504
21.64188 0.74 0.24 29.0698
28.590239999999998 0.56 0.24 40.6504
21.64188 0.5 0.24 29.0698
21.64188 0.44 0.24 29.0698
21.64188 0.42 0.24 29.0698
28.590239999999998 0.38 0.24 40.6504
28.590239999999998 0.36 0.24 40.6504
22.97934 0.22 0.24 31.2989
13.979940000000001 -0.44 0.24 16.2999
13.979940000000001 -0.46 0.24 16.2999
17.77464 -1.3 0.24 22.6244
17.77464 -1.32 0.24 22.6244
13.6044 -1.44 0.24 15.674
13.6044 -1.46 0.24 15.674
14.82888 -4.4 0.24 17.7148
14.82888 -4.42 0.24 17.7148
14.82888 -4.6 0.24 17.7148
17.06172 -6.4 0.24 21.4362
64.806 5.72 0.22 101.01
52.78302 5.28 0.22 80.9717
52.78302 5.14 0.22 80.9717
64.806 4.74 0.22 101.01
84.7368 3.44 0.22 134.228
44.74056 2.92 0.22 67.5676
44.74056 2.9 0.22 67.5676
44.74056 2.88 0.22 67.5676
44.74056 2.8 0.22 67.5676
44.74056 2.7 0.22 67.5676
44.74056 2.58 0.22 67.5676
26.38116 2.0 0.22 36.9686
26.38116 1.98 0.22 36.9686
18.57126 1.92 0.22 23.9521
18.57126 1.88 0.22 23.9521
34.65684 1.6 0.22 50.7614
34.65684 1.24 0.22 50.7614
21.64188 1.16 0.22 29.0698
31.28802 0.86 0.22 45.1467
21.64188 0.74 0.22 29.0698
28.590239999999998 0.56 0.22 40.6504
28.590239999999998 0.52 0.22 40.6504
28.590239999999998 -0.22 0.22 40.6504
28.590239999999998 -0.24 0.22 40.6504
17.77464 -0.34 0.22 22.6244
14.386740000000001 -0.44 0.22 16.9779
14.386740000000001 -0.46 0.22 16.9779
18.57126 -1.3 0.22 23.9521
18.57126 -1.32 0.22 23.9521
13.6044 -1.46 0.22 15.674
14.82888 -4.4 0.22 17.7148
14.82888 -4.42 0.22 17.7148
14.82888 -4.6 0.22 17.7148
14.82888 -4.62 0.22 17.7148
17.06172 -6.38 0.22 21.4362
17.06172 -6.4 0.22 21.4362
17.06172 -6.42 0.22 21.4362
64.806 5.72 0.2 101.01
52.78302 5.28 0.2 80.9717
44.74056 5.22 0.2 67.5676
44.74056 5.2 0.2 67.5676
44.74056 5.18 0.2 67.5676
44.74056 5.16 0.2 67.5676
52.78302 5.14 0.2 80.9717
64.806 4.74 0.2 101.01
64.806 4.64 0.2 101.01
84.7368 3.44 0.2 134.228
44.74056 2.92 0.2 67.5676
44.74056 2.8 0.2 67.5676
34.65684 1.6 0.2 50.7614
34.65684 1.24 0.2 50.7614
21.64188 1.16 0.2 29.0698
31.28802 1.02 0.2 45.1467
31.28802 0.86 0.2 45.1467
21.64188 0.74 0.2 29.0698
15.83916 0.64 0.2 19.3986
28.590239999999998 -0.22 0.2 40.6504
28.590239999999998 -0.24 0.2 40.6504
18.57126 -0.34 0.2 23.9521
18.57126 -0.36 0.2 23.9521
14.386740000000001 -0.44 0.2 16.9779
14.386740000000001 -0.46 0.2 16.9779
18.57126 -1.3 0.2 23.9521
18.57126 -1.32 0.2 23.9521
13.979940000000001 -1.46 0.2 16.2999
14.82888 -4.38 0.2 17.7148
14.82888 -4.4 0.2 17.7148
14.82888 -4.42 0.2 17.7148
14.82888 -4.6 0.2 17.7148
14.82888 -4.62 0.2 17.7148
17.06172 -6.4 0.2 21.4362
17.06172 -6.42 0.2 21.4362
84.7368 5.72 0.18 134.228
52.78302 5.32 0.18 80.9717
52.78302 5.28 0.18 80.9717
44.74056 5.16 0.18 67.5676
52.78302 5.14 0.18 80.9717
64.806 4.98 0.18 101.01
38.9826 3.94 0.18 57.971
84.7368 3.44 0.18 134.228
84.7368 3.34 0.18 134.228
44.74056 2.8 0.18 67.5676
38.9826 2.06 0.18 57.971
26.38116 2.0 0.18 36.9686
22.97934 1.48 0.18 31.2989
22.97934 1.46 0.18 31.2989
34.65684 1.24 0.18 50.7614
34.65684 1.22 0.18 50.7614
21.64188 1.16 0.18 29.0698
24.53898 1.1 0.18 33.8983
31.28802 0.86 0.18 45.1467
21.64188 0.74 0.18 29.0698
15.83916 0.64 0.18 19.3986
15.83916 0.62 0.18 19.3986
28.590239999999998 -0.22 0.18 40.6504
28.590239999999998 -0.24 0.18 40.6504
18.57126 -0.34 0.18 23.9521
18.57126 -0.36 0.18 23.9521
14.386740000000001 -0.44 0.18 16.9779
14.386740000000001 -0.46 0.18 16.9779
18.57126 -1.3 0.18 23.9521
17.77464 -1.46 0.18 22.6244
14.82888 -4.38 0.18 17.7148
14.82888 -4.4 0.18 17.7148
17.06172 -6.38 0.18 21.4362
17.06172 -6.4 0.18 21.4362
17.06172 -6.42 0.18 21.4362
84.7368 5.92 0.16 134.228
84.7368 5.72 0.16 134.228
84.7368 5.7 0.16 134.228
52.78302 5.32 0.16 80.9717
52.78302 5.28 0.16 80.9717
52.78302 5.12 0.16 80.9717
64.806 4.98 0.16 101.01
84.7368 4.0 0.16 134.228
38.9826 3.94 0.16 57.971
84.7368 3.44 0.16 134.228
84.7368 3.38 0.16 134.228
84.7368 3.34 0.16 134.228
84.7368 3.32 0.16 134.228
38.9826 2.06 0.16 57.971
26.38116 2.0 0.16 36.9686
22.97934 1.48 0.16 31.2989
22.97934 1.46 0.16 31.2989
34.65684 1.24 0.16 50.7614
34.65684 1.22 0.16 50.7614
21.64188 1.16 0.16 29.0698
24.53898 1.14 0.16 33.8983
24.53898 1.1 0.16 33.8983
21.64188 0.76 0.16 29.0698
21.64188 0.74 0.16 29.0698
15.83916 0.64 0.16 19.3986
15.83916 0.62 0.16 19.3986
52.78302 -0.16 0.16 80.9717
28.590239999999998 -0.24 0.16 40.6504
18.57126 -0.34 0.16 23.9521
18.57126 -0.36 0.16 23.9521
14.386740000000001 -0.44 0.16 16.9779
14.386740000000001 -0.46 0.16 16.9779
18.57126 -1.28 0.16 23.9521
18.57126 -1.3 0.16 23.9521
17.77464 -1.46 0.16 22.6244
14.82888 -4.38 0.16 17.7148
14.82888 -4.4 0.16 17.7148
14.82888 -4.62 0.16 17.7148
17.06172 -6.28 0.16 21.4362
17.06172 -6.4 0.16 21.4362
17.06172 -6.42 0.16 21.4362
84.7368 5.92 0.14 134.228
84.7368 5.72 0.14 134.228
52.78302 5.28 0.14 80.9717
52.78302 5.12 0.14 80.9717
64.806 5.02 0.14 101.01
84.7368 3.44 0.14 134.228
84.7368 3.32 0.14 134.228
38.9826 2.06 0.14 57.971
26.38116 2.0 0.14 36.9686
24.53898 1.9 0.14 33.8983
22.97934 1.48 0.14 31.2989
22.97934 1.46 0.14 31.2989
34.65684 1.24 0.14 50.7614
21.64188 0.74 0.14 29.0698
28.590239999999998 0.58 0.14 40.6504
28.590239999999998 -0.24 0.14 40.6504
18.57126 -0.34 0.14 23.9521
18.57126 -0.36 0.14 23.9521
14.82888 -0.44 0.14 17.7148
14.82888 -0.46 0.14 17.7148
18.57126 -1.28 0.14 23.9521
18.57126 -1.3 0.14 23.9521
14.82888 -4.38 0.14 17.7148
14.82888 -4.4 0.14 17.7148
14.82888 -4.42 0.14 17.7148
14.82888 -4.62 0.14 17.7148
14.82888 -4.64 0.14 17.7148
17.77464 -5.6 0.14 22.6244
17.77464 -5.62 0.14 22.6244
17.77464 -5.64 0.14 22.6244
17.06172 -6.28 0.14 21.4362
17.06172 -6.4 0.14 21.4362
17.06172 -6.42 0.14 21.4362
84.7368 5.92 0.12 134.228
52.78302 5.28 0.12 80.9717
52.78302 5.12 0.12 80.9717
52.78302 5.08 0.12 80.9717
64.806 5.06 0.12 101.01
64.806 5.04 0.12 101.01
64.806 5.02 0.12 101.01
64.806 5.0 0.12 101.01
84.7368 3.32 0.12 134.228
26.38116 2.0 0.12 36.9686
24.53898 1.92 0.12 33.8983
24.53898 1.9 0.12 33.8983
31.28802 0.82 0.12 45.1467
31.28802 0.56 0.12 45.1467
31.28802 0.54 0.12 45.1467
52.78302 -0.16 0.12 80.9717
28.590239999999998 -0.24 0.12 40.6504
28.590239999999998 -0.26 0.12 40.6504
52.78302 -0.36 0.12 80.9717
14.82888 -0.44 0.12 17.7148
14.82888 -0.46 0.12 17.7148
18.57126 -1.28 0.12 23.9521
14.82888 -4.4 0.12 17.7148
14.82888 -4.42 0.12 17.7148
14.82888 -4.62 0.12 17.7148
14.82888 -4.64 0.12 17.7148
17.77464 -5.6 0.12 22.6244
17.77464 -5.62 0.12 22.6244
17.77464 -5.64 0.12 22.6244
17.06172 -6.28 0.12 21.4362
17.06172 -6.3 0.12 21.4362
17.06172 -6.4 0.12 21.4362
17.06172 -6.42 0.12 21.4362
44.74056 5.22 0.1 67.5676
52.78302 5.12 0.1 80.9717
64.806 5.04 0.1 101.01
64.806 5.02 0.1 101.01
64.806 5.0 0.1 101.01
38.9826 3.62 0.1 57.971
64.806 3.32 0.1 101.01
64.806 3.28 0.1 101.01
26.38116 3.2 0.1 36.9686
26.38116 2.04 0.1 36.9686
26.38116 2.0 0.1 36.9686
26.38116 1.98 0.1 36.9686
24.53898 1.92 0.1 33.8983
24.53898 1.9 0.1 33.8983
31.28802 0.82 0.1 45.1467
31.28802 0.56 0.1 45.1467
52.78302 -0.16 0.1 80.9717
28.590239999999998 -0.24 0.1 40.6504
14.82888 -0.44 0.1 17.7148
14.82888 -0.46 0.1 17.7148
18.57126 -1.26 0.1 23.9521
18.57126 -1.28 0.1 23.9521
18.57126 -1.44 0.1 23.9521
18.57126 -1.46 0.1 23.9521
14.82888 -4.4 0.1 17.7148
14.82888 -4.42 0.1 17.7148
14.82888 -4.62 0.1 17.7148
17.77464 -5.6 0.1 22.6244
17.77464 -5.62 0.1 22.6244
17.06172 -6.28 0.1 21.4362
17.06172 -6.3 0.1 21.4362
17.06172 -6.38 0.1 21.4362
17.06172 -6.4 0.1 21.4362
17.06172 -6.42 0.1 21.4362
52.78302 5.28 0.08 80.9717
44.74056 3.84 0.08 67.5676
44.74056 3.82 0.08 67.5676
64.806 3.3 0.08 101.01
64.806 3.28 0.08 101.01
26.38116 3.2 0.08 36.9686
26.38116 3.18 0.08 36.9686
26.38116 1.98 0.08 36.9686
22.97934 1.92 0.08 31.2989
34.65684 1.1 0.08 50.7614
14.82888 0.9 0.08 17.7148
31.28802 0.82 0.08 45.1467
31.28802 0.8 0.08 45.1467
31.28802 0.56 0.08 45.1467
31.28802 0.54 0.08 45.1467
52.78302 -0.16 0.08 80.9717
28.590239999999998 -0.24 0.08 40.6504
28.590239999999998 -0.26 0.08 40.6504
14.82888 -0.44 0.08 17.7148
14.82888 -0.46 0.08 17.7148
18.57126 -1.24 0.08 23.9521
18.57126 -1.26 0.08 23.9521
18.57126 -1.28 0.08 23.9521
17.77464 -1.44 0.08 22.6244
17.77464 -1.46 0.08 22.6244
14.82888 -4.4 0.08 17.7148
14.82888 -4.42 0.08 17.7148
17.77464 -5.62 0.08 22.6244
17.06172 -6.28 0.08 21.4362
17.06172 -6.3 0.08 21.4362
17.06172 -6.4 0.08 21.4362
17.06172 -6.42 0.08 21.4362
52.78302 5.28 0.06 80.9717
64.806 4.98 0.06 101.01
64.806 4.48 0.06 101.01
44.74056 3.84 0.06 67.5676
44.74056 3.78 0.06 67.5676
64.806 3.28 0.06 101.01
64.806 3.26 0.06 101.01
26.38116 3.18 0.06 36.9686
26.38116 1.98 0.06 36.9686
24.53898 1.96 0.06 33.8983
34.65684 1.26 0.06 50.7614
34.65684 1.1 0.06 50.7614
34.65684 1.08 0.06 50.7614
31.28802 0.82 0.06 45.1467
31.28802 0.56 0.06 45.1467
31.28802 0.54 0.06 45.1467
52.78302 -0.16 0.06 80.9717
28.590239999999998 -0.24 0.06 40.6504
14.82888 -0.44 0.06 17.7148
14.82888 -0.46 0.06 17.7148
18.57126 -1.26 0.06 23.9521
18.57126 -1.28 0.06 23.9521
17.77464 -4.3 0.06 22.6244
17.77464 -4.32 0.06 22.6244
14.82888 -4.4 0.06 17.7148
14.82888 -4.64 0.06 17.7148
14.82888 -4.66 0.06 17.7148
17.77464 -5.62 0.06 22.6244
17.77464 -5.64 0.06 22.6244
17.77464 -5.66 0.06 22.6244
17.06172 -6.28 0.06 21.4362
17.06172 -6.3 0.06 21.4362
17.06172 -6.4 0.06 21.4362
17.06172 -6.42 0.06 21.4362
52.78302 5.26 0.04 80.9717
52.78302 5.14 0.04 80.9717
64.806 4.98 0.04 101.01
64.806 4.48 0.04 101.01
44.74056 2.56 0.04 67.5676
24.53898 1.98 0.04 33.8983
24.53898 1.96 0.04 33.8983
22.97934 1.9 0.04 31.2989
22.97934 1.88 0.04 31.2989
34.65684 1.26 0.04 50.7614
34.65684 1.1 0.04 50.7614
34.65684 1.08 0.04 50.7614
31.28802 0.56 0.04 45.1467
28.590239999999998 -0.24 0.04 40.6504
14.82888 -0.44 0.04 17.7148
14.82888 -0.46 0.04 17.7148
18.57126 -1.26 0.04 23.9521
18.57126 -1.28 0.04 23.9521
13.25658 -1.46 0.04 15.0943
14.82888 -4.38 0.04 17.7148
14.82888 -4.4 0.04 17.7148
14.82888 -4.64 0.04 17.7148
14.82888 -4.66 0.04 17.7148
17.77464 -5.62 0.04 22.6244
17.77464 -5.64 0.04 22.6244
17.06172 -6.28 0.04 21.4362
17.06172 -6.3 0.04 21.4362
17.06172 -6.38 0.04 21.4362
17.06172 -6.4 0.04 21.4362
17.06172 -6.42 0.04 21.4362
124.19999999999999 5.76 0.02 200.0
84.7368 5.54 0.02 134.228
52.78302 5.14 0.02 80.9717
64.806 4.96 0.02 101.01
24.53898 1.98 0.02 33.8983
24.53898 1.96 0.02 33.8983
24.53898 1.9 0.02 33.8983
24.53898 1.88 0.02 33.8983
34.65684 1.26 0.02 50.7614
31.28802 1.1 0.02 45.1467
31.28802 1.08 0.02 45.1467
34.65684 0.8 0.02 50.7614
20.4822 0.72 0.02 27.137
31.28802 0.56 0.02 45.1467
31.28802 0.54 0.02 45.1467
28.590239999999998 -0.24 0.02 40.6504
14.82888 -0.44 0.02 17.7148
14.82888 -0.46 0.02 17.7148
17.77464 -1.28 0.02 22.6244
17.77464 -1.3 0.02 22.6244
13.25658 -1.46 0.02 15.0943
14.82888 -4.38 0.02 17.7148
14.82888 -4.4 0.02 17.7148
14.82888 -4.42 0.02 17.7148
14.82888 -4.64 0.02 17.7148
14.82888 -4.66 0.02 17.7148
17.77464 -5.62 0.02 22.6244
17.77464 -6.28 0.02 22.6244
17.77464 -6.3 0.02 22.6244
17.06172 -6.38 0.02 21.4362
17.06172 -6.4 0.02 21.4362
17.06172 -6.42 0.02 21.4362
17.06172 -6.44 0.02 21.4362
84.7368 5.62 0.0 134.228
84.7368 5.56 0.0 134.228
84.7368 5.54 0.0 134.228
84.7368 5.52 0.0 134.228
52.78302 5.14 0.0 80.9717
64.806 4.96 0.0 101.01
64.806 4.94 0.0 101.01
28.590239999999998 3.16 0.0 40.6504
44.74056 2.84 0.0 67.5676
24.53898 1.98 0.0 33.8983
24.53898 1.96 0.0 33.8983
24.53898 1.9 0.0 33.8983
24.53898 1.88 0.0 33.8983
24.53898 1.86 0.0 33.8983
34.65684 1.26 0.0 50.7614
31.28802 1.08 0.0 45.1467
31.28802 0.8 0.0 45.1467
19.467180000000003 0.72 0.0 25.4453
19.467180000000003 0.7 0.0 25.4453
64.806 -0.16 0.0 101.01
28.590239999999998 -0.24 0.0 40.6504
28.590239999999998 -0.26 0.0 40.6504
28.590239999999998 -0.28 0.0 40.6504
14.82888 -0.44 0.0 17.7148
14.82888 -0.46 0.0 17.7148
17.77464 -1.28 0.0 22.6244
17.77464 -1.3 0.0 22.6244
13.25658 -1.44 0.0 15.0943
13.25658 -1.46 0.0 15.0943
15.3111 -4.38 0.0 18.5185
15.3111 -4.4 0.0 18.5185
17.06172 -4.54 0.0 21.4362
14.82888 -4.62 0.0 17.7148
14.82888 -4.64 0.0 17.7148
14.82888 -4.66 0.0 17.7148
18.57126 -5.62 0.0 23.9521
18.57126 -5.64 0.0 23.9521
18.57126 -5.66 0.0 23.9521
17.06172 -6.28 0.0 21.4362
17.06172 -6.3 0.0 21.4362
17.06172 -6.38 0.0 21.4362
17.06172 -6.4 0.0 21.4362
17.06172 -6.42 0.0 21.4362
84.7368 5.64 -0.02 134.228
84.7368 5.56 -0.02 134.228
84.7368 5.54 -0.02 134.228
52.78302 5.28 -0.02 80.9717
52.78302 5.14 -0.02 80.9717
44.74056 4.42 -0.02 67.5676
24.53898 1.98 -0.02 33.8983
24.53898 1.88 -0.02 33.8983
31.28802 1.08 -0.02 45.1467
31.28802 0.8 -0.02 45.1467
19.467180000000003 0.7 -0.02 25.4453
64.806 -0.16 -0.02 101.01
26.38116 -0.24 -0.02 36.9686
26.38116 -0.28 -0.02 36.9686
14.82888 -0.44 -0.02 17.7148
14.82888 -0.46 -0.02 17.7148
17.77464 -1.3 -0.02 22.6244
15.3111 -4.36 -0.02 18.5185
15.3111 -4.38 -0.02 18.5185
15.3111 -4.4 -0.02 18.5185
17.06172 -4.54 -0.02 21.4362
14.82888 -4.62 -0.02 17.7148
14.82888 -4.64 -0.02 17.7148
17.06172 -6.28 -0.02 21.4362
17.06172 -6.3 -0.02 21.4362
124.19999999999999 5.82 -0.04 200.0
84.7368 5.64 -0.04 134.228
84.7368 5.58 -0.04 134.228
84.7368 5.56 -0.04 134.228
52.78302 5.28 -0.04 80.9717
52.78302 5.14 -0.04 80.9717
28.590239999999998 3.18 -0.04 40.6504
34.65684 2.62 -0.04 50.7614
24.53898 1.98 -0.04 33.8983
24.53898 1.88 -0.04 33.8983
34.65684 1.26 -0.04 50.7614
34.65684 1.24 -0.04 50.7614
20.4822 1.16 -0.04 27.137
31.28802 1.08 -0.04 45.1467
31.28802 0.8 -0.04 45.1467
20.4822 0.7 -0.04 27.137
17.06172 0.42 -0.04 21.4362
26.38116 -0.24 -0.04 36.9686
26.38116 -0.26 -0.04 36.9686
26.38116 -0.28 -0.04 36.9686
14.82888 -0.44 -0.04 17.7148
14.82888 -0.46 -0.04 17.7148
18.57126 -1.28 -0.04 23.9521
18.57126 -1.3 -0.04 23.9521
13.6044 -1.44 -0.04 15.674
13.6044 -1.46 -0.04 15.674
15.3111 -4.36 -0.04 18.5185
14.82888 -4.38 -0.04 17.7148
14.82888 -4.4 -0.04 17.7148
14.82888 -4.64 -0.04 17.7148
14.82888 -4.66 -0.04 17.7148
17.77464 -5.62 -0.04 22.6244
17.06172 -6.28 -0.04 21.4362
17.06172 -6.3 -0.04 21.4362
124.19999999999999 5.82 -0.06 200.0
26.38116 5.7 -0.06 36.9686
84.7368 5.64 -0.06 134.228
84.7368 5.62 -0.06 134.228
84.7368 5.58 -0.06 134.228
84.7368 5.56 -0.06 134.228
52.78302 5.28 -0.06 80.9717
44.74056 5.14 -0.06 67.5676
52.78302 5.0 -0.06 80.9717
28.590239999999998 3.18 -0.06 40.6504
24.53898 1.98 -0.06 33.8983
24.53898 1.88 -0.06 33.8983
34.65684 1.26 -0.06 50.7614
31.28802 1.08 -0.06 45.1467
31.28802 0.8 -0.06 45.1467
28.590239999999998 0.54 -0.06 40.6504
17.06172 0.42 -0.06 21.4362
26.38116 -0.24 -0.06 36.9686
26.38116 -0.26 -0.06 36.9686
26.38116 -0.28 -0.06 36.9686
18.57126 -1.28 -0.06 23.9521
18.57126 -1.3 -0.06 23.9521
17.77464 -1.44 -0.06 22.6244
14.82888 -4.38 -0.06 17.7148
14.82888 -4.4 -0.06 17.7148
14.82888 -4.42 -0.06 17.7148
14.82888 -4.64 -0.06 17.7148
14.82888 -4.66 -0.06 17.7148
18.57126 -5.66 -0.06 23.9521
17.06172 -6.28 -0.06 21.4362
17.06172 -6.3 -0.06 21.4362
124.19999999999999 5.82 -0.08 200.0
84.7368 5.58 -0.08 134.228
44.74056 5.14 -0.08 67.5676
44.74056 5.12 -0.08 67.5676
34.65684 4.46 -0.08 50.7614
34.65684 4.44 -0.08 50.7614
34.65684 4.42 -0.08 50.7614
28.590239999999998 3.18 -0.08 40.6504
24.53898 1.98 -0.08 33.8983
31.28802 1.08 -0.08 45.1467
31.28802 0.8 -0.08 45.1467
20.4822 0.74 -0.08 27.137
18.57126 -1.26 -0.08 23.9521
18.57126 -1.28 -0.08 23.9521
17.77464 -1.44 -0.08 22.6244
14.82888 -4.4 -0.08 17.7148
14.82888 -4.42 -0.08 17.7148
14.82888 -4.66 -0.08 17.7148
17.77464 -5.64 -0.08 22.6244
17.77464 -5.66 -0.08 22.6244
17.06172 -6.28 -0.08 21.4362
17.06172 -6.3 -0.08 21.4362
84.7368 5.82 -0.1 134.228
38.9826 5.12 -0.1 57.971
38.9826 5.1 -0.1 57.971
34.65684 4.78 -0.1 50.7614
34.65684 4.76 -0.1 50.7614
34.65684 4.6 -0.1 50.7614
34.65684 4.42 -0.1 50.7614
24.53898 1.98 -0.1 33.8983
24.53898 1.88 -0.1 33.8983
31.28802 1.08 -0.1 45.1467
31.28802 0.8 -0.1 45.1467
22.97934 0.74 -0.1 31.2989
22.97934 0.72 -0.1 31.2989
24.53898 -0.62 -0.1 33.8983
124.19999999999999 -0.78 -0.1 200.0
124.19999999999999 -1.18 -0.1 200.0
18.57126 -1.26 -0.1 23.9521
17.77464 -1.44 -0.1 22.6244
20.4822 -4.08 -0.1 27.137
20.4822 -4.1 -0.1 27.137
20.4822 -4.12 -0.1 27.137
20.4822 -4.14 -0.1 27.137
18.57126 -4.9 -0.1 23.9521
17.77464 -5.62 -0.1 22.6244
17.77464 -5.66 -0.1 22.6244
17.06172 -6.28 -0.1 21.4362
17.06172 -6.3 -0.1 21.4362
38.9826 5.34 -0.12 57.971
34.65684 4.78 -0.12 50.7614
34.65684 4.46 -0.12 50.7614
34.65684 4.42 -0.12 50.7614
26.38116 1.98 -0.12 36.9686
31.28802 0.8 -0.12 45.1467
22.97934 0.72 -0.12 31.2989
24.53898 -0.22 -0.12 33.8983
38.9826 -0.54 -0.12 57.971
38.9826 -0.56 -0.12 57.971
24.53898 -0.62 -0.12 33.8983
52.78302 -0.88 -0.12 80.9717
124.19999999999999 -1.02 -0.12 200.0
38.9826 -1.1 -0.12 57.971
28.590239999999998 -1.16 -0.12 40.6504
28.590239999999998 -1.18 -0.12 40.6504
18.57126 -1.28 -0.12 23.9521
17.77464 -1.44 -0.12 22.6244
20.4822 -1.7 -0.12 27.137
20.4822 -3.44 -0.12 27.137
20.4822 -3.46 -0.12 27.137
20.4822 -3.48 -0.12 27.137
19.467180000000003 -3.88 -0.12 25.4453
20.4822 -4.08 -0.12 27.137
20.4822 -4.1 -0.12 27.137
20.4822 -4.12 -0.12 27.137
17.77464 -4.58 -0.12 22.6244
17.06172 -4.6 -0.12 21.4362
17.06172 -4.62 -0.12 21.4362
17.06172 -4.64 -0.12 21.4362
17.77464 -5.62 -0.12 22.6244
17.77464 -5.64 -0.12 22.6244
17.77464 -5.66 -0.12 22.6244
17.77464 -5.68 -0.12 22.6244
17.77464 -6.28 -0.12 22.6244
17.77464 -6.3 -0.12 22.6244
17.06172 -6.38 -0.12 21.4362
17.06172 -6.4 -0.12 21.4362
17.06172 -6.42 -0.12 21.4362
84.7368 5.62 -0.14 134.228
84.7368 5.6 -0.14 134.228
38.9826 5.34 -0.14 57.971
38.9826 5.32 -0.14 57.971
34.65684 4.78 -0.14 50.7614
34.65684 4.7 -0.14 50.7614
31.28802 4.46 -0.14 45.1467
34.65684 4.4 -0.14 50.7614
31.28802 3.18 -0.14 45.1467
26.38116 1.96 -0.14 36.9686
22.97934 1.38 -0.14 31.2989
31.28802 1.08 -0.14 45.1467
24.53898 -0.02 -0.14 33.8983
24.53898 -0.22 -0.14 33.8983
84.7368 -0.7 -0.14 134.228
52.78302 -0.86 -0.14 80.9717
124.19999999999999 -1.0 -0.14 200.0
124.19999999999999 -1.02 -0.14 200.0
31.28802 -1.16 -0.14 45.1467
18.57126 -1.26 -0.14 23.9521
21.64188 -2.86 -0.14 29.0698
21.64188 -2.88 -0.14 29.0698
21.64188 -2.9 -0.14 29.0698
20.4822 -3.26 -0.14 27.137
20.4822 -3.44 -0.14 27.137
20.4822 -3.46 -0.14 27.137
20.4822 -3.48 -0.14 27.137
20.4822 -3.78 -0.14 27.137
19.467180000000003 -3.88 -0.14 25.4453
20.4822 -4.1 -0.14 27.137
18.57126 -4.2 -0.14 23.9521
18.57126 -4.22 -0.14 23.9521
18.57126 -4.24 -0.14 23.9521
17.77464 -4.58 -0.14 22.6244
17.06172 -4.6 -0.14 21.4362
17.06172 -4.62 -0.14 21.4362
17.06172 -4.64 -0.14 21.4362
17.77464 -5.62 -0.14 22.6244
17.77464 -5.64 -0.14 22.6244
17.77464 -5.66 -0.14 22.6244
17.06172 -6.28 -0.14 21.4362
17.06172 -6.3 -0.14 21.4362
17.06172 -6.38 -0.14 21.4362
17.06172 -6.4 -0.14 21.4362
17.06172 -6.42 -0.14 21.4362
17.06172 -6.44 -0.14 21.4362
13.25658 -6.56 -0.14 15.0943
13.25658 -6.58 -0.14 15.0943
84.7368 5.62 -0.16 134.228
38.9826 5.34 -0.16 57.971
38.9826 5.32 -0.16 57.971
34.65684 4.78 -0.16 50.7614
34.65684 4.7 -0.16 50.7614
34.65684 4.68 -0.16 50.7614
34.65684 4.44 -0.16 50.7614
34.65684 4.4 -0.16 50.7614
31.28802 3.18 -0.16 45.1467
22.97934 1.38 -0.16 31.2989
31.28802 1.08 -0.16 45.1467
12.08952 -0.46 -0.16 13.1492
52.78302 -0.86 -0.16 80.9717
124.19999999999999 -1.0 -0.16 200.0
38.9826 -1.14 -0.16 57.971
18.57126 -1.26 -0.16 23.9521
21.64188 -2.86 -0.16 29.0698
21.64188 -2.88 -0.16 29.0698
21.64188 -2.9 -0.16 29.0698
20.4822 -3.26 -0.16 27.137
20.4822 -3.28 -0.16 27.137
20.4822 -3.46 -0.16 27.137
20.4822 -3.56 -0.16 27.137
20.4822 -3.58 -0.16 27.137
24.53898 -3.7 -0.16 33.8983
22.97934 -3.72 -0.16 31.2989
21.64188 -3.76 -0.16 29.0698
20.4822 -3.78 -0.16 27.137
20.4822 -3.8 -0.16 27.137
19.467180000000003 -3.86 -0.16 25.4453
19.467180000000003 -3.88 -0.16 25.4453
19.467180000000003 -3.9 -0.16 25.4453
20.4822 -4.1 -0.16 27.137
19.467180000000003 -4.2 -0.16 25.4453
19.467180000000003 -4.22 -0.16 25.4453
17.06172 -4.64 -0.16 21.4362
17.06172 -6.28 -0.16 21.4362
17.06172 -6.3 -0.16 21.4362
17.06172 -6.38 -0.16 21.4362
17.06172 -6.4 -0.16 21.4362
17.06172 -6.42 -0.16 21.4362
17.06172 -6.44 -0.16 21.4362
52.78302 5.82 -0.18 80.9717
38.9826 5.34 -0.18 57.971
34.65684 5.1 -0.18 50.7614
34.65684 5.08 -0.18 50.7614
34.65684 4.8 -0.18 50.7614
34.65684 4.78 -0.18 50.7614
34.65684 4.7 -0.18 50.7614
34.65684 4.44 -0.18 50.7614
34.65684 4.4 -0.18 50.7614
31.28802 1.08 -0.18 45.1467
26.38116 0.24 -0.18 36.9686
31.28802 -1.12 -0.18 45.1467
18.57126 -1.24 -0.18 23.9521
22.97934 -2.18 -0.18 31.2989
22.97934 -2.2 -0.18 31.2989
34.65684 -2.72 -0.18 50.7614
34.65684 -2.74 -0.18 50.7614
34.65684 -2.76 -0.18 50.7614
21.64188 -2.86 -0.18 29.0698
20.4822 -3.26 -0.18 27.137
20.4822 -3.28 -0.18 27.137
20.4822 -3.56 -0.18 27.137
20.4822 -3.58 -0.18 27.137
24.53898 -3.7 -0.18 33.8983
22.97934 -3.72 -0.18 31.2989
21.64188 -3.76 -0.18 29.0698
20.4822 -3.78 -0.18 27.137
19.467180000000003 -3.88 -0.18 25.4453
17.77464 -5.66 -0.18 22.6244
17.06172 -6.28 -0.18 21.4362
17.06172 -6.3 -0.18 21.4362
17.06172 -6.32 -0.18 21.4362
17.06172 -6.38 -0.18 21.4362
17.06172 -6.4 -0.18 21.4362
17.06172 -6.42 -0.18 21.4362
17.06172 -6.44 -0.18 21.4362
52.78302 5.82 -0.2 80.9717
38.9826 5.26 -0.2 57.971
34.65684 5.1 -0.2 50.7614
34.65684 4.8 -0.2 50.7614
34.65684 4.78 -0.2 50.7614
34.65684 4.4 -0.2 50.7614
22.97934 -2.18 -0.2 31.2989
22.97934 -2.2 -0.2 31.2989
20.4822 -3.56 -0.2 27.137
20.4822 -3.58 -0.2 27.137
24.53898 -3.7 -0.2 33.8983
22.97934 -3.72 -0.2 31.2989
21.64188 -3.76 -0.2 29.0698
20.4822 -3.78 -0.2 27.137
19.467180000000003 -3.88 -0.2 25.4453
19.467180000000003 -4.2 -0.2 25.4453
19.467180000000003 -4.22 -0.2 25.4453
16.419959999999996 -4.66 -0.2 20.3666
17.06172 -6.28 -0.2 21.4362
17.06172 -6.3 -0.2 21.4362
52.78302 5.82 -0.22 80.9717
38.9826 5.52 -0.22 57.971
38.9826 5.26 -0.22 57.971
38.9826 5.24 -0.22 57.971
34.65684 5.1 -0.22 50.7614
21.64188 2.46 -0.22 29.0698
21.64188 2.44 -0.22 29.0698
21.64188 2.42 -0.22 29.0698
28.590239999999998 2.18 -0.22 40.6504
22.97934 2.16 -0.22 31.2989
22.97934 2.14 -0.22 31.2989
21.64188 2.12 -0.22 29.0698
21.64188 2.1 -0.22 29.0698
18.57126 0.56 -0.22 23.9521
26.38116 0.2 -0.22 36.9686
13.979940000000001 -0.46 -0.22 16.2999
22.97934 -2.18 -0.22 31.2989
22.97934 -2.2 -0.22 31.2989
21.64188 -2.26 -0.22 29.0698
21.64188 -2.28 -0.22 29.0698
20.4822 -3.56 -0.22 27.137
20.4822 -3.58 -0.22 27.137
20.4822 -3.78 -0.22 27.137
20.4822 -4.2 -0.22 27.137
20.4822 -4.22 -0.22 27.137
17.06172 -5.06 -0.22 21.4362
38.9826 5.26 -0.24 57.971
31.28802 3.84 -0.24 45.1467
31.28802 3.82 -0.24 45.1467
21.64188 2.12 -0.24 29.0698
21.64188 2.1 -0.24 29.0698
22.97934 1.78 -0.24 31.2989
22.97934 1.76 -0.24 31.2989
20.4822 1.46 -0.24 27.137
20.4822 1.44 -0.24 27.137
21.64188 1.18 -0.24 29.0698
26.38116 0.2 -0.24 36.9686
21.64188 -1.98 -0.24 29.0698
22.97934 -2.18 -0.24 31.2989
22.97934 -2.2 -0.24 31.2989
19.467180000000003 -2.6 -0.24 25.4453
19.467180000000003 -2.68 -0.24 25.4453
17.77464 -4.08 -0.24 22.6244
17.77464 -4.1 -0.24 22.6244
20.4822 -4.2 -0.24 27.137
20.4822 -4.22 -0.24 27.137
34.65684 5.06 -0.26 50.7614
31.28802 4.52 -0.26 45.1467
31.28802 4.1 -0.26 45.1467
31.28802 3.84 -0.26 45.1467
31.28802 3.82 -0.26 45.1467
28.590239999999998 3.36 -0.26 40.6504
28.590239999999998 3.34 -0.26 40.6504
21.64188 2.1 -0.26 29.0698
22.97934 1.78 -0.26 31.2989
22.97934 1.76 -0.26 31.2989
20.4822 1.46 -0.26 27.137
20.4822 1.12 -0.26 27.137
20.4822 1.1 -0.26 27.137
26.38116 0.16 -0.26 36.9686
24.53898 -1.04 -0.26 33.8983
21.64188 -1.98 -0.26 29.0698
19.467180000000003 -2.68 -0.26 25.4453
16.419959999999996 -4.46 -0.26 20.3666
14.82888 -4.48 -0.26 17.7148
14.386740000000001 -4.52 -0.26 16.9779
14.82888 -4.54 -0.26 17.7148
17.77464 -5.64 -0.26 22.6244
17.77464 -5.66 -0.26 22.6244
17.77464 -5.68 -0.26 22.6244
38.9826 5.56 -0.28 57.971
31.28802 4.52 -0.28 45.1467
28.590239999999998 4.1 -0.28 40.6504
28.590239999999998 4.08 -0.28 40.6504
31.28802 3.84 -0.28 45.1467
31.28802 3.82 -0.28 45.1467
28.590239999999998 3.36 -0.28 40.6504
28.590239999999998 3.34 -0.28 40.6504
22.97934 2.54 -0.28 31.2989
21.64188 2.12 -0.28 29.0698
21.64188 2.1 -0.28 29.0698
20.4822 1.1 -0.28 27.137
20.4822 1.08 -0.28 27.137
20.4822 0.72 -0.28 27.137
20.4822 0.7 -0.28 27.137
22.97934 -0.62 -0.28 31.2989
24.53898 -1.04 -0.28 33.8983
13.25658 -1.28 -0.28 15.0943
124.19999999999999 -3.22 -0.28 200.0
20.4822 -4.2 -0.28 27.137
20.4822 -4.22 -0.28 27.137
17.77464 -5.62 -0.28 22.6244
17.77464 -5.66 -0.28 22.6244
38.9826 5.56 -0.3 57.971
38.9826 5.54 -0.3 57.971
38.9826 5.4 -0.3 57.971
38.9826 5.32 -0.3 57.971
38.9826 5.3 -0.3 57.971
31.28802 4.84 -0.3 45.1467
28.590239999999998 4.1 -0.3 40.6504
28.590239999999998 4.08 -0.3 40.6504
31.28802 3.84 -0.3 45.1467
31.28802 3.82 -0.3 45.1467
26.38116 3.18 -0.3 36.9686
22.97934 2.56 -0.3 31.2989
22.97934 1.94 -0.3 31.2989
20.4822 1.1 -0.3 27.137
20.4822 0.7 -0.3 27.137
20.4822 0.68 -0.3 27.137
21.64188 -2.68 -0.3 29.0698
124.19999999999999 -2.78 -0.3 200.0
14.386740000000001 -2.84 -0.3 16.9779
14.386740000000001 -2.86 -0.3 16.9779
14.386740000000001 -2.88 -0.3 16.9779
14.386740000000001 -3.28 -0.3 16.9779
14.386740000000001 -3.3 -0.3 16.9779
