VERSION .7
FIELDS x y z rgb
SIZE 4 4 4 4
TYPE F F F F
COUNT 1 1 1 1
WIDTH 1333
HEIGHT 1
VIEWPOINT 0 0 0 1 0 0 0
POINTS 1333
DATA ascii
28.590239999999998 3.44 -0.28 5000040.6504
22.97934 2.32 -0.28 5000031.2989
22.97934 2.3 -0.28 5000031.2989
22.97934 2.22 -0.28 5000031.2989
19.467180000000003 0.86 -0.28 5000025.4453
19.467180000000003 0.84 -0.28 5000025.4453
10.811580000000001 0.52 -0.28 5000011.0193
20.4822 0.46 -0.28 5000027.137
20.4822 0.44 -0.28 5000027.137
24.53898 -1.34 -0.28 5000033.8983
17.77464 -1.58 -0.28 5000022.6244
22.97934 -2.3 -0.28 5000031.2989
20.4822 -3.04 -0.28 5000027.137
20.4822 -3.06 -0.28 5000027.137
13.979940000000001 -3.26 -0.28 5000016.2999
13.979940000000001 -3.28 -0.28 5000016.2999
13.979940000000001 -3.3 -0.28 5000016.2999
14.386740000000001 -3.72 -0.28 5000016.9779
13.979940000000001 -3.74 -0.28 5000016.2999
13.6044 -3.76 -0.28 5000015.674
13.6044 -3.78 -0.28 5000015.674
18.57126 -3.98 -0.28 5000023.9521
17.77464 -4.0 -0.28 5000022.6244
18.57126 -4.66 -0.28 5000023.9521
18.57126 -4.68 -0.28 5000023.9521
17.06172 -6.16 -0.28 5000021.4362
17.06172 -6.18 -0.28 5000021.4362
17.06172 -6.2 -0.28 5000021.4362
52.78302 5.26 -0.3 5000080.9717
52.78302 5.24 -0.3 5000080.9717
38.9826 5.12 -0.3 5000057.971
38.9826 5.04 -0.3 5000057.971
38.9826 5.02 -0.3 5000057.971
34.65684 4.58 -0.3 5000050.7614
34.65684 4.34 -0.3 5000050.7614
31.28802 3.84 -0.3 5000045.1467
31.28802 3.58 -0.3 5000045.1467
28.590239999999998 3.46 -0.3 5000040.6504
26.38116 2.94 -0.3 5000036.9686
22.97934 2.34 -0.3 5000031.2989
22.97934 2.32 -0.3 5000031.2989
22.97934 1.72 -0.3 5000031.2989
22.97934 1.7 -0.3 5000031.2989
20.4822 0.78 -0.3 5000027.137
20.4822 0.44 -0.3 5000027.137
31.28802 -1.98 -0.3 5000045.1467
31.28802 -2.0 -0.3 5000045.1467
21.64188 -2.06 -0.3 5000029.0698
22.97934 -2.3 -0.3 5000031.2989
22.97934 -2.32 -0.3 5000031.2989
124.19999999999999 -3.16 -0.3 5000200.0
13.979940000000001 -3.26 -0.3 5000016.2999
13.979940000000001 -3.28 -0.3 5000016.2999
13.979940000000001 -3.3 -0.3 5000016.2999
13.979940000000001 -3.74 -0.3 5000016.2999
13.6044 -3.76 -0.3 5000015.674
13.6044 -3.78 -0.3 5000015.674
13.6044 -3.8 -0.3 5000015.674
12.3522 -3.86 -0.3 5000013.587
12.3522 -3.88 -0.3 5000013.587
17.77464 -4.04 -0.3 5000022.6244
16.419959999999996 -4.06 -0.3 5000020.3666
16.419959999999996 -4.08 -0.3 5000020.3666
14.82888 -4.12 -0.3 5000017.7148
14.386740000000001 -4.14 -0.3 5000016.9779
13.979940000000001 -4.16 -0.3 5000016.2999
13.979940000000001 -4.18 -0.3 5000016.2999
13.979940000000001 -4.2 -0.3 5000016.2999
9.406074 -4.26 -0.3 5000008.67679
9.406074 -4.28 -0.3 5000008.67679
18.57126 -4.66 -0.3 5000023.9521
13.979940000000001 -5.04 -0.3 5000016.2999
17.06172 -6.16 -0.3 5000021.4362
17.06172 -6.18 -0.3 5000021.4362
44.74056 5.38 -0.32 5000067.5676
44.74056 5.36 -0.32 5000067.5676
38.9826 5.02 -0.32 5000057.971
34.65684 4.58 -0.32 5000050.7614
31.28802 4.46 -0.32 5000045.1467
31.28802 4.08 -0.32 5000045.1467
31.28802 3.84 -0.32 5000045.1467
31.28802 3.58 -0.32 5000045.1467
31.28802 3.56 -0.32 5000045.1467
28.590239999999998 3.46 -0.32 5000040.6504
28.590239999999998 3.3 -0.32 5000040.6504
26.38116 3.02 -0.32 5000036.9686
26.38116 2.74 -0.32 5000036.9686
26.38116 2.72 -0.32 5000036.9686
26.38116 2.58 -0.32 5000036.9686
22.97934 2.36 -0.32 5000031.2989
22.97934 2.34 -0.32 5000031.2989
22.97934 2.24 -0.32 5000031.2989
22.97934 1.7 -0.32 5000031.2989
20.4822 1.34 -0.32 5000027.137
19.467180000000003 0.9 -0.32 5000025.4453
19.467180000000003 0.82 -0.32 5000025.4453
20.4822 0.8 -0.32 5000027.137
21.64188 -2.06 -0.32 5000029.0698
21.64188 -2.08 -0.32 5000029.0698
22.97934 -2.3 -0.32 5000031.2989
22.97934 -2.32 -0.32 5000031.2989
13.979940000000001 -3.26 -0.32 5000016.2999
13.979940000000001 -3.28 -0.32 5000016.2999
13.6044 -3.76 -0.32 5000015.674
13.6044 -3.78 -0.32 5000015.674
13.6044 -3.8 -0.32 5000015.674
12.3522 -3.84 -0.32 5000013.587
12.3522 -3.86 -0.32 5000013.587
12.3522 -3.88 -0.32 5000013.587
13.979940000000001 -4.16 -0.32 5000016.2999
13.979940000000001 -4.18 -0.32 5000016.2999
13.979940000000001 -4.2 -0.32 5000016.2999
13.979940000000001 -5.04 -0.32 5000016.2999
15.3111 -6.6 -0.32 5000018.5185
13.6044 -6.74 -0.32 5000015.674
38.9826 5.02 -0.34 5000057.971
34.65684 4.78 -0.34 5000050.7614
34.65684 4.58 -0.34 5000050.7614
34.65684 4.56 -0.34 5000050.7614
31.28802 4.46 -0.34 5000045.1467
31.28802 4.24 -0.34 5000045.1467
31.28802 3.84 -0.34 5000045.1467
26.38116 2.58 -0.34 5000036.9686
26.38116 2.56 -0.34 5000036.9686
22.97934 2.36 -0.34 5000031.2989
22.97934 2.26 -0.34 5000031.2989
21.64188 1.84 -0.34 5000029.0698
21.64188 1.82 -0.34 5000029.0698
22.97934 1.7 -0.34 5000031.2989
20.4822 1.36 -0.34 5000027.137
20.4822 0.66 -0.34 5000027.137
20.4822 0.64 -0.34 5000027.137
19.467180000000003 0.36 -0.34 5000025.4453
13.6044 -3.76 -0.34 5000015.674
13.6044 -3.78 -0.34 5000015.674
13.979940000000001 -4.18 -0.34 5000016.2999
13.979940000000001 -4.2 -0.34 5000016.2999
38.9826 5.24 -0.36 5000057.971
38.9826 5.22 -0.36 5000057.971
52.78302 5.18 -0.36 5000080.9717
38.9826 5.12 -0.36 5000057.971
34.65684 4.78 -0.36 5000050.7614
34.65684 4.76 -0.36 5000050.7614
34.65684 4.64 -0.36 5000050.7614
34.65684 4.6 -0.36 5000050.7614
34.65684 4.58 -0.36 5000050.7614
34.65684 4.56 -0.36 5000050.7614
31.28802 4.24 -0.36 5000045.1467
31.28802 4.22 -0.36 5000045.1467
28.590239999999998 3.56 -0.36 5000040.6504
26.38116 3.0 -0.36 5000036.9686
26.38116 2.56 -0.36 5000036.9686
21.64188 1.82 -0.36 5000029.0698
21.64188 1.8 -0.36 5000029.0698
22.97934 1.7 -0.36 5000031.2989
20.4822 1.46 -0.36 5000027.137
19.467180000000003 0.9 -0.36 5000025.4453
20.4822 0.66 -0.36 5000027.137
20.4822 0.64 -0.36 5000027.137
19.467180000000003 0.36 -0.36 5000025.4453
21.64188 0.3 -0.36 5000029.0698
44.74056 5.62 -0.38 5000067.5676
44.74056 5.6 -0.38 5000067.5676
38.9826 5.24 -0.38 5000057.971
38.9826 5.12 -0.38 5000057.971
34.65684 4.78 -0.38 5000050.7614
34.65684 4.76 -0.38 5000050.7614
34.65684 4.64 -0.38 5000050.7614
34.65684 4.56 -0.38 5000050.7614
31.28802 4.24 -0.38 5000045.1467
31.28802 4.22 -0.38 5000045.1467
31.28802 4.18 -0.38 5000045.1467
28.590239999999998 3.56 -0.38 5000040.6504
28.590239999999998 3.54 -0.38 5000040.6504
26.38116 3.02 -0.38 5000036.9686
21.64188 1.8 -0.38 5000029.0698
21.64188 1.78 -0.38 5000029.0698
20.4822 1.46 -0.38 5000027.137
19.467180000000003 0.9 -0.38 5000025.4453
20.4822 0.64 -0.38 5000027.137
34.65684 -0.42 -0.38 5000050.7614
26.38116 -0.84 -0.38 5000036.9686
17.06172 -2.16 -0.38 5000021.4362
14.386740000000001 -3.06 -0.38 5000016.9779
13.979940000000001 -3.08 -0.38 5000016.2999
13.979940000000001 -3.1 -0.38 5000016.2999
13.6044 -4.02 -0.38 5000015.674
13.25658 -4.04 -0.38 5000015.0943
13.25658 -4.06 -0.38 5000015.0943
19.467180000000003 -4.66 -0.38 5000025.4453
19.467180000000003 -4.68 -0.38 5000025.4453
44.74056 5.64 -0.4 5000067.5676
38.9826 4.88 -0.4 5000057.971
34.65684 4.76 -0.4 5000050.7614
34.65684 4.64 -0.4 5000050.7614
31.28802 4.2 -0.4 5000045.1467
28.590239999999998 3.9 -0.4 5000040.6504
31.28802 3.74 -0.4 5000045.1467
24.53898 2.94 -0.4 5000033.8983
24.53898 2.64 -0.4 5000033.8983
24.53898 2.62 -0.4 5000033.8983
21.64188 1.94 -0.4 5000029.0698
21.64188 1.78 -0.4 5000029.0698
21.64188 1.76 -0.4 5000029.0698
19.467180000000003 0.9 -0.4 5000025.4453
20.4822 0.64 -0.4 5000027.137
20.4822 0.62 -0.4 5000027.137
17.06172 -0.48 -0.4 5000021.4362
17.06172 -0.5 -0.4 5000021.4362
17.06172 -0.52 -0.4 5000021.4362
24.53898 -0.86 -0.4 5000033.8983
24.53898 -0.88 -0.4 5000033.8983
31.28802 -1.1 -0.4 5000045.1467
21.64188 -1.18 -0.4 5000029.0698
22.97934 -1.34 -0.4 5000031.2989
28.590239999999998 -2.0 -0.4 5000040.6504
21.64188 -2.06 -0.4 5000029.0698
21.64188 -2.32 -0.4 5000029.0698
21.64188 -2.48 -0.4 5000029.0698
18.57126 -2.72 -0.4 5000023.9521
14.386740000000001 -3.02 -0.4 5000016.9779
14.386740000000001 -3.04 -0.4 5000016.9779
14.386740000000001 -3.06 -0.4 5000016.9779
13.979940000000001 -3.28 -0.4 5000016.2999
13.979940000000001 -3.3 -0.4 5000016.2999
13.979940000000001 -3.32 -0.4 5000016.2999
13.979940000000001 -3.36 -0.4 5000016.2999
13.979940000000001 -3.38 -0.4 5000016.2999
13.979940000000001 -3.4 -0.4 5000016.2999
13.6044 -4.0 -0.4 5000015.674
13.6044 -4.02 -0.4 5000015.674
13.25658 -4.04 -0.4 5000015.0943
13.25658 -4.06 -0.4 5000015.0943
12.933599999999998 -4.08 -0.4 5000014.556
12.933599999999998 -4.1 -0.4 5000014.556
19.467180000000003 -4.66 -0.4 5000025.4453
19.467180000000003 -4.68 -0.4 5000025.4453
18.57126 -4.86 -0.4 5000023.9521
13.979940000000001 -5.0 -0.4 5000016.2999
13.979940000000001 -5.06 -0.4 5000016.2999
13.979940000000001 -5.08 -0.4 5000016.2999
13.979940000000001 -5.1 -0.4 5000016.2999
15.83916 -5.8 -0.4 5000019.3986
15.83916 -5.82 -0.4 5000019.3986
38.9826 5.02 -0.42 5000057.971
38.9826 5.0 -0.42 5000057.971
38.9826 4.88 -0.42 5000057.971
34.65684 4.76 -0.42 5000050.7614
34.65684 4.64 -0.42 5000050.7614
28.590239999999998 4.2 -0.42 5000040.6504
28.590239999999998 3.76 -0.42 5000040.6504
26.38116 3.24 -0.42 5000036.9686
26.38116 3.22 -0.42 5000036.9686
24.53898 2.62 -0.42 5000033.8983
24.53898 2.6 -0.42 5000033.8983
22.97934 2.4 -0.42 5000031.2989
21.64188 1.76 -0.42 5000029.0698
21.64188 1.74 -0.42 5000029.0698
19.467180000000003 1.3 -0.42 5000025.4453
19.467180000000003 0.9 -0.42 5000025.4453
20.4822 0.64 -0.42 5000027.137
20.4822 0.62 -0.42 5000027.137
52.78302 0.22 -0.42 5000080.9717
17.77464 -0.1 -0.42 5000022.6244
15.3111 -0.16 -0.42 5000018.5185
38.9826 -0.32 -0.42 5000057.971
17.06172 -0.48 -0.42 5000021.4362
17.06172 -0.5 -0.42 5000021.4362
17.06172 -0.52 -0.42 5000021.4362
26.38116 -0.74 -0.42 5000036.9686
26.38116 -0.76 -0.42 5000036.9686
24.53898 -0.88 -0.42 5000033.8983
24.53898 -0.9 -0.42 5000033.8983
21.64188 -1.18 -0.42 5000029.0698
38.9826 -1.94 -0.42 5000057.971
28.590239999999998 -1.96 -0.42 5000040.6504
28.590239999999998 -2.0 -0.42 5000040.6504
21.64188 -2.06 -0.42 5000029.0698
21.64188 -2.32 -0.42 5000029.0698
21.64188 -2.34 -0.42 5000029.0698
21.64188 -2.46 -0.42 5000029.0698
21.64188 -2.48 -0.42 5000029.0698
14.386740000000001 -3.0 -0.42 5000016.9779
13.979940000000001 -3.3 -0.42 5000016.2999
13.979940000000001 -3.36 -0.42 5000016.2999
13.979940000000001 -3.38 -0.42 5000016.2999
14.386740000000001 -3.98 -0.42 5000016.9779
13.6044 -4.0 -0.42 5000015.674
13.6044 -4.02 -0.42 5000015.674
13.25658 -4.08 -0.42 5000015.0943
12.933599999999998 -4.1 -0.42 5000014.556
13.979940000000001 -5.0 -0.42 5000016.2999
13.979940000000001 -5.08 -0.42 5000016.2999
13.979940000000001 -5.1 -0.42 5000016.2999
13.979940000000001 -5.12 -0.42 5000016.2999
16.419959999999996 -5.6 -0.42 5000020.3666
16.419959999999996 -5.62 -0.42 5000020.3666
16.419959999999996 -5.8 -0.42 5000020.3666
16.419959999999996 -5.82 -0.42 5000020.3666
16.419959999999996 -5.84 -0.42 5000020.3666
17.06172 -6.16 -0.42 5000021.4362
17.06172 -6.18 -0.42 5000021.4362
11.843340000000001 -6.66 -0.42 5000012.7389
34.65684 5.66 -0.44 5000050.7614
38.9826 4.9 -0.44 5000057.971
38.9826 4.88 -0.44 5000057.971
28.590239999999998 4.18 -0.44 5000040.6504
28.590239999999998 3.54 -0.44 5000040.6504
26.38116 3.28 -0.44 5000036.9686
26.38116 3.22 -0.44 5000036.9686
26.38116 3.02 -0.44 5000036.9686
26.38116 3.0 -0.44 5000036.9686
24.53898 2.74 -0.44 5000033.8983
22.97934 2.4 -0.44 5000031.2989
22.97934 2.38 -0.44 5000031.2989
22.97934 2.32 -0.44 5000031.2989
22.97934 1.84 -0.44 5000031.2989
22.97934 1.8 -0.44 5000031.2989
20.4822 1.42 -0.44 5000027.137
19.467180000000003 1.3 -0.44 5000025.4453
19.467180000000003 0.9 -0.44 5000025.4453
19.467180000000003 0.64 -0.44 5000025.4453
19.467180000000003 0.62 -0.44 5000025.4453
17.77464 -0.1 -0.44 5000022.6244
17.06172 -0.52 -0.44 5000021.4362
26.38116 -0.76 -0.44 5000036.9686
64.806 -1.86 -0.44 5000101.01
38.9826 -1.94 -0.44 5000057.971
28.590239999999998 -2.0 -0.44 5000040.6504
21.64188 -2.06 -0.44 5000029.0698
17.06172 -2.16 -0.44 5000021.4362
21.64188 -2.32 -0.44 5000029.0698
13.979940000000001 -3.3 -0.44 5000016.2999
13.979940000000001 -3.36 -0.44 5000016.2999
13.979940000000001 -3.38 -0.44 5000016.2999
13.25658 -4.06 -0.44 5000015.0943
13.25658 -4.08 -0.44 5000015.0943
13.25658 -4.1 -0.44 5000015.0943
19.467180000000003 -4.66 -0.44 5000025.4453
19.467180000000003 -4.68 -0.44 5000025.4453
13.979940000000001 -5.08 -0.44 5000016.2999
13.979940000000001 -5.1 -0.44 5000016.2999
16.419959999999996 -5.54 -0.44 5000020.3666
16.419959999999996 -5.56 -0.44 5000020.3666
16.419959999999996 -5.58 -0.44 5000020.3666
16.419959999999996 -5.6 -0.44 5000020.3666
11.843340000000001 -6.6 -0.44 5000012.7389
11.843340000000001 -6.62 -0.44 5000012.7389
34.65684 5.7 -0.46 5000050.7614
34.65684 5.66 -0.46 5000050.7614
34.65684 5.64 -0.46 5000050.7614
34.65684 4.8 -0.46 5000050.7614
34.65684 4.78 -0.46 5000050.7614
34.65684 4.76 -0.46 5000050.7614
34.65684 4.6 -0.46 5000050.7614
28.590239999999998 4.18 -0.46 5000040.6504
28.590239999999998 3.8 -0.46 5000040.6504
28.590239999999998 3.56 -0.46 5000040.6504
26.38116 3.28 -0.46 5000036.9686
26.38116 3.22 -0.46 5000036.9686
26.38116 3.2 -0.46 5000036.9686
22.97934 1.84 -0.46 5000031.2989
21.64188 1.8 -0.46 5000029.0698
21.64188 1.78 -0.46 5000029.0698
21.64188 1.68 -0.46 5000029.0698
21.64188 1.66 -0.46 5000029.0698
21.64188 1.64 -0.46 5000029.0698
34.65684 1.52 -0.46 5000050.7614
20.4822 1.42 -0.46 5000027.137
16.419959999999996 1.36 -0.46 5000020.3666
19.467180000000003 1.34 -0.46 5000025.4453
19.467180000000003 0.64 -0.46 5000025.4453
19.467180000000003 0.62 -0.46 5000025.4453
16.419959999999996 -0.56 -0.46 5000020.3666
15.83916 -0.58 -0.46 5000019.3986
13.25658 -0.66 -0.46 5000015.0943
84.7368 -0.96 -0.46 5000134.228
84.7368 -0.98 -0.46 5000134.228
38.9826 -1.04 -0.46 5000057.971
21.64188 -1.16 -0.46 5000029.0698
26.38116 -1.44 -0.46 5000036.9686
26.38116 -1.46 -0.46 5000036.9686
17.77464 -1.54 -0.46 5000022.6244
17.06172 -1.58 -0.46 5000021.4362
15.83916 -1.6 -0.46 5000019.3986
26.38116 -1.82 -0.46 5000036.9686
26.38116 -1.86 -0.46 5000036.9686
38.9826 -1.94 -0.46 5000057.971
28.590239999999998 -1.96 -0.46 5000040.6504
28.590239999999998 -2.0 -0.46 5000040.6504
22.97934 -2.06 -0.46 5000031.2989
17.06172 -2.16 -0.46 5000021.4362
13.979940000000001 -3.28 -0.46 5000016.2999
13.979940000000001 -3.3 -0.46 5000016.2999
13.979940000000001 -3.36 -0.46 5000016.2999
13.979940000000001 -3.38 -0.46 5000016.2999
13.25658 -4.06 -0.46 5000015.0943
13.25658 -4.08 -0.46 5000015.0943
13.25658 -4.1 -0.46 5000015.0943
19.467180000000003 -4.66 -0.46 5000025.4453
19.467180000000003 -4.68 -0.46 5000025.4453
16.419959999999996 -4.76 -0.46 5000020.3666
16.419959999999996 -5.5 -0.46 5000020.3666
16.419959999999996 -5.54 -0.46 5000020.3666
16.419959999999996 -5.56 -0.46 5000020.3666
16.419959999999996 -5.84 -0.46 5000020.3666
15.83916 -5.86 -0.46 5000019.3986
15.83916 -5.88 -0.46 5000019.3986
15.83916 -5.9 -0.46 5000019.3986
15.3111 -5.92 -0.46 5000018.5185
17.06172 -6.18 -0.46 5000021.4362
17.06172 -6.2 -0.46 5000021.4362
34.65684 5.64 -0.48 5000050.7614
34.65684 4.78 -0.48 5000050.7614
34.65684 4.6 -0.48 5000050.7614
31.28802 4.3 -0.48 5000045.1467
28.590239999999998 4.18 -0.48 5000040.6504
31.28802 4.0 -0.48 5000045.1467
28.590239999999998 3.98 -0.48 5000040.6504
28.590239999999998 3.56 -0.48 5000040.6504
26.38116 3.2 -0.48 5000036.9686
26.38116 3.18 -0.48 5000036.9686
24.53898 2.68 -0.48 5000033.8983
24.53898 2.66 -0.48 5000033.8983
21.64188 1.8 -0.48 5000029.0698
21.64188 1.78 -0.48 5000029.0698
21.64188 1.64 -0.48 5000029.0698
20.4822 1.42 -0.48 5000027.137
19.467180000000003 0.62 -0.48 5000025.4453
26.38116 0.26 -0.48 5000036.9686
26.38116 0.22 -0.48 5000036.9686
16.419959999999996 -0.58 -0.48 5000020.3666
16.419959999999996 -0.6 -0.48 5000020.3666
84.7368 -0.98 -0.48 5000134.228
84.7368 -1.0 -0.48 5000134.228
38.9826 -1.04 -0.48 5000057.971
24.53898 -1.1 -0.48 5000033.8983
22.97934 -1.14 -0.48 5000031.2989
22.97934 -1.16 -0.48 5000031.2989
34.65684 -1.38 -0.48 5000050.7614
24.53898 -1.44 -0.48 5000033.8983
17.77464 -1.54 -0.48 5000022.6244
17.06172 -1.58 -0.48 5000021.4362
15.83916 -1.6 -0.48 5000019.3986
15.83916 -1.62 -0.48 5000019.3986
24.53898 -1.82 -0.48 5000033.8983
24.53898 -1.84 -0.48 5000033.8983
24.53898 -1.86 -0.48 5000033.8983
28.590239999999998 -1.96 -0.48 5000040.6504
28.590239999999998 -2.0 -0.48 5000040.6504
22.97934 -2.02 -0.48 5000031.2989
17.06172 -2.16 -0.48 5000021.4362
84.7368 -2.26 -0.48 5000134.228
22.97934 -2.32 -0.48 5000031.2989
28.590239999999998 -2.42 -0.48 5000040.6504
22.97934 -2.48 -0.48 5000031.2989
19.467180000000003 -2.54 -0.48 5000025.4453
13.979940000000001 -3.28 -0.48 5000016.2999
13.979940000000001 -3.36 -0.48 5000016.2999
13.25658 -3.76 -0.48 5000015.0943
13.25658 -4.06 -0.48 5000015.0943
13.25658 -4.08 -0.48 5000015.0943
13.25658 -4.1 -0.48 5000015.0943
13.979940000000001 -4.4 -0.48 5000016.2999
13.979940000000001 -4.42 -0.48 5000016.2999
19.467180000000003 -4.66 -0.48 5000025.4453
19.467180000000003 -4.68 -0.48 5000025.4453
16.419959999999996 -4.76 -0.48 5000020.3666
16.419959999999996 -4.86 -0.48 5000020.3666
14.386740000000001 -4.94 -0.48 5000016.9779
14.386740000000001 -4.96 -0.48 5000016.9779
14.386740000000001 -4.98 -0.48 5000016.9779
16.419959999999996 -5.3 -0.48 5000020.3666
16.419959999999996 -5.32 -0.48 5000020.3666
17.06172 -5.84 -0.48 5000021.4362
11.843340000000001 -6.56 -0.48 5000012.7389
11.843340000000001 -6.58 -0.48 5000012.7389
11.61198 -6.66 -0.48 5000012.3533
34.65684 4.62 -0.5 5000050.7614
34.65684 4.6 -0.5 5000050.7614
31.28802 4.3 -0.5 5000045.1467
28.590239999999998 4.18 -0.5 5000040.6504
28.590239999999998 4.16 -0.5 5000040.6504
28.590239999999998 4.0 -0.5 5000040.6504
28.590239999999998 3.98 -0.5 5000040.6504
34.65684 3.94 -0.5 5000050.7614
26.38116 3.62 -0.5 5000036.9686
26.38116 3.12 -0.5 5000036.9686
26.38116 3.1 -0.5 5000036.9686
24.53898 2.66 -0.5 5000033.8983
21.64188 1.8 -0.5 5000029.0698
21.64188 1.78 -0.5 5000029.0698
24.53898 0.7 -0.5 5000033.8983
16.419959999999996 -0.6 -0.5 5000020.3666
22.97934 -1.14 -0.5 5000031.2989
124.19999999999999 -1.26 -0.5 5000200.0
34.65684 -1.38 -0.5 5000050.7614
24.53898 -1.44 -0.5 5000033.8983
17.77464 -1.54 -0.5 5000022.6244
26.38116 -1.84 -0.5 5000036.9686
26.38116 -1.86 -0.5 5000036.9686
22.97934 -2.02 -0.5 5000031.2989
22.97934 -2.06 -0.5 5000031.2989
22.97934 -2.32 -0.5 5000031.2989
28.590239999999998 -2.42 -0.5 5000040.6504
22.97934 -2.48 -0.5 5000031.2989
20.4822 -2.5 -0.5 5000027.137
19.467180000000003 -2.54 -0.5 5000025.4453
13.979940000000001 -3.36 -0.5 5000016.2999
13.25658 -3.76 -0.5 5000015.0943
13.25658 -4.08 -0.5 5000015.0943
13.25658 -4.1 -0.5 5000015.0943
19.467180000000003 -4.66 -0.5 5000025.4453
19.467180000000003 -4.68 -0.5 5000025.4453
14.386740000000001 -4.96 -0.5 5000016.9779
14.386740000000001 -4.98 -0.5 5000016.9779
13.6044 -6.42 -0.5 5000015.674
13.6044 -6.44 -0.5 5000015.674
11.843340000000001 -6.54 -0.5 5000012.7389
11.61198 -6.64 -0.5 5000012.3533
31.28802 5.6 -0.52 5000045.1467
31.28802 5.56 -0.52 5000045.1467
31.28802 5.54 -0.52 5000045.1467
31.28802 4.5 -0.52 5000045.1467
31.28802 4.3 -0.52 5000045.1467
28.590239999999998 4.16 -0.52 5000040.6504
28.590239999999998 4.0 -0.52 5000040.6504
28.590239999999998 3.98 -0.52 5000040.6504
26.38116 3.62 -0.52 5000036.9686
26.38116 3.12 -0.52 5000036.9686
26.38116 3.1 -0.52 5000036.9686
24.53898 2.66 -0.52 5000033.8983
24.53898 0.7 -0.52 5000033.8983
19.467180000000003 0.64 -0.52 5000025.4453
19.467180000000003 0.6 -0.52 5000025.4453
18.57126 0.54 -0.52 5000023.9521
18.57126 0.52 -0.52 5000023.9521
18.57126 0.5 -0.52 5000023.9521
19.467180000000003 0.44 -0.52 5000025.4453
19.467180000000003 0.42 -0.52 5000025.4453
17.77464 -0.62 -0.52 5000022.6244
17.77464 -0.64 -0.52 5000022.6244
124.19999999999999 -1.26 -0.52 5000200.0
26.38116 -1.44 -0.52 5000036.9686
26.38116 -1.86 -0.52 5000036.9686
22.97934 -2.02 -0.52 5000031.2989
22.97934 -2.06 -0.52 5000031.2989
84.7368 -2.24 -0.52 5000134.228
84.7368 -2.26 -0.52 5000134.228
64.806 -2.28 -0.52 5000101.01
24.53898 -2.3 -0.52 5000033.8983
22.97934 -2.32 -0.52 5000031.2989
28.590239999999998 -2.42 -0.52 5000040.6504
22.97934 -2.48 -0.52 5000031.2989
21.64188 -2.5 -0.52 5000029.0698
19.467180000000003 -2.54 -0.52 5000025.4453
13.979940000000001 -3.34 -0.52 5000016.2999
13.979940000000001 -3.36 -0.52 5000016.2999
13.25658 -3.76 -0.52 5000015.0943
15.83916 -3.96 -0.52 5000019.3986
13.25658 -4.08 -0.52 5000015.0943
13.25658 -4.1 -0.52 5000015.0943
19.467180000000003 -4.66 -0.52 5000025.4453
19.467180000000003 -4.68 -0.52 5000025.4453
15.83916 -5.62 -0.52 5000019.3986
15.83916 -6.02 -0.52 5000019.3986
11.61198 -6.64 -0.52 5000012.3533
11.61198 -6.66 -0.52 5000012.3533
11.61198 -6.68 -0.52 5000012.3533
31.28802 5.52 -0.54 5000045.1467
31.28802 5.5 -0.54 5000045.1467
31.28802 4.5 -0.54 5000045.1467
31.28802 4.48 -0.54 5000045.1467
31.28802 4.3 -0.54 5000045.1467
28.590239999999998 4.0 -0.54 5000040.6504
26.38116 3.36 -0.54 5000036.9686
24.53898 2.86 -0.54 5000033.8983
21.64188 1.74 -0.54 5000029.0698
20.4822 1.36 -0.54 5000027.137
19.467180000000003 1.08 -0.54 5000025.4453
24.53898 0.7 -0.54 5000033.8983
22.97934 0.68 -0.54 5000031.2989
19.467180000000003 0.64 -0.54 5000025.4453
19.467180000000003 0.44 -0.54 5000025.4453
19.467180000000003 0.42 -0.54 5000025.4453
19.467180000000003 0.34 -0.54 5000025.4453
19.467180000000003 0.32 -0.54 5000025.4453
17.77464 -0.66 -0.54 5000022.6244
17.77464 -0.68 -0.54 5000022.6244
52.78302 -0.88 -0.54 5000080.9717
26.38116 -1.82 -0.54 5000036.9686
24.53898 -1.84 -0.54 5000033.8983
24.53898 -1.86 -0.54 5000033.8983
24.53898 -1.88 -0.54 5000033.8983
28.590239999999998 -1.96 -0.54 5000040.6504
22.97934 -2.0 -0.54 5000031.2989
22.97934 -2.02 -0.54 5000031.2989
20.4822 -2.06 -0.54 5000027.137
20.4822 -2.08 -0.54 5000027.137
64.806 -2.26 -0.54 5000101.01
64.806 -2.28 -0.54 5000101.01
24.53898 -2.3 -0.54 5000033.8983
24.53898 -2.32 -0.54 5000033.8983
22.97934 -2.36 -0.54 5000031.2989
28.590239999999998 -2.42 -0.54 5000040.6504
22.97934 -2.44 -0.54 5000031.2989
22.97934 -2.48 -0.54 5000031.2989
21.64188 -2.5 -0.54 5000029.0698
19.467180000000003 -2.54 -0.54 5000025.4453
13.979940000000001 -3.34 -0.54 5000016.2999
13.6044 -3.36 -0.54 5000015.674
13.6044 -3.96 -0.54 5000015.674
13.25658 -4.08 -0.54 5000015.0943
13.25658 -4.1 -0.54 5000015.0943
13.979940000000001 -4.44 -0.54 5000016.2999
19.467180000000003 -4.64 -0.54 5000025.4453
19.467180000000003 -4.66 -0.54 5000025.4453
19.467180000000003 -4.68 -0.54 5000025.4453
15.83916 -5.9 -0.54 5000019.3986
17.06172 -6.12 -0.54 5000021.4362
11.61198 -6.66 -0.54 5000012.3533
11.394240000000002 -6.68 -0.54 5000011.9904
31.28802 4.3 -0.56 5000045.1467
31.28802 3.86 -0.56 5000045.1467
31.28802 3.84 -0.56 5000045.1467
26.38116 3.36 -0.56 5000036.9686
24.53898 2.64 -0.56 5000033.8983
24.53898 2.62 -0.56 5000033.8983
26.38116 2.6 -0.56 5000036.9686
21.64188 1.82 -0.56 5000029.0698
22.97934 1.8 -0.56 5000031.2989
21.64188 1.78 -0.56 5000029.0698
21.64188 1.74 -0.56 5000029.0698
21.64188 1.7 -0.56 5000029.0698
20.4822 1.58 -0.56 5000027.137
18.57126 0.38 -0.56 5000023.9521
19.467180000000003 0.32 -0.56 5000025.4453
24.53898 -1.46 -0.56 5000033.8983
24.53898 -1.86 -0.56 5000033.8983
24.53898 -1.88 -0.56 5000033.8983
22.97934 -2.48 -0.56 5000031.2989
21.64188 -3.16 -0.56 5000029.0698
21.64188 -3.18 -0.56 5000029.0698
13.979940000000001 -3.3 -0.56 5000016.2999
13.979940000000001 -3.34 -0.56 5000016.2999
13.979940000000001 -3.36 -0.56 5000016.2999
13.6044 -3.74 -0.56 5000015.674
13.6044 -3.96 -0.56 5000015.674
13.25658 -4.1 -0.56 5000015.0943
13.979940000000001 -4.44 -0.56 5000016.2999
19.467180000000003 -4.66 -0.56 5000025.4453
19.467180000000003 -4.68 -0.56 5000025.4453
15.83916 -5.88 -0.56 5000019.3986
15.83916 -5.9 -0.56 5000019.3986
11.61198 -6.66 -0.56 5000012.3533
11.394240000000002 -6.68 -0.56 5000011.9904
31.28802 4.22 -0.58 5000045.1467
31.28802 4.2 -0.58 5000045.1467
26.38116 3.36 -0.58 5000036.9686
26.38116 2.64 -0.58 5000036.9686
22.97934 2.18 -0.58 5000031.2989
20.4822 1.58 -0.58 5000027.137
20.4822 1.56 -0.58 5000027.137
19.467180000000003 0.76 -0.58 5000025.4453
19.467180000000003 0.6 -0.58 5000025.4453
19.467180000000003 0.58 -0.58 5000025.4453
18.57126 0.54 -0.58 5000023.9521
19.467180000000003 0.4 -0.58 5000025.4453
19.467180000000003 0.38 -0.58 5000025.4453
16.419959999999996 -0.74 -0.58 5000020.3666
16.419959999999996 -0.76 -0.58 5000020.3666
16.419959999999996 -0.78 -0.58 5000020.3666
19.467180000000003 -0.88 -0.58 5000025.4453
12.933599999999998 -0.92 -0.58 5000014.556
12.933599999999998 -0.94 -0.58 5000014.556
21.64188 -1.46 -0.58 5000029.0698
21.64188 -1.5 -0.58 5000029.0698
20.4822 -1.56 -0.58 5000027.137
19.467180000000003 -1.6 -0.58 5000025.4453
24.53898 -1.88 -0.58 5000033.8983
13.6044 -2.78 -0.58 5000015.674
12.933599999999998 -2.84 -0.58 5000014.556
13.979940000000001 -3.34 -0.58 5000016.2999
13.979940000000001 -3.36 -0.58 5000016.2999
31.28802 -3.64 -0.58 5000045.1467
13.6044 -3.74 -0.58 5000015.674
13.6044 -3.94 -0.58 5000015.674
13.6044 -3.96 -0.58 5000015.674
12.3522 -4.02 -0.58 5000013.587
13.25658 -4.1 -0.58 5000015.0943
13.6044 -4.26 -0.58 5000015.674
13.979940000000001 -4.44 -0.58 5000016.2999
13.979940000000001 -4.46 -0.58 5000016.2999
13.6044 -4.5 -0.58 5000015.674
13.6044 -4.52 -0.58 5000015.674
14.386740000000001 -5.26 -0.58 5000016.9779
16.419959999999996 -5.72 -0.58 5000020.3666
15.83916 -5.92 -0.58 5000019.3986
12.08952 -6.4 -0.58 5000013.1492
11.843340000000001 -6.6 -0.58 5000012.7389
11.61198 -6.62 -0.58 5000012.3533
11.61198 -6.64 -0.58 5000012.3533
11.61198 -6.66 -0.58 5000012.3533
11.394240000000002 -6.68 -0.58 5000011.9904
21.64188 5.32 -0.6 5000029.0698
31.28802 4.2 -0.6 5000045.1467
28.590239999999998 3.94 -0.6 5000040.6504
26.38116 3.18 -0.6 5000036.9686
26.38116 3.12 -0.6 5000036.9686
22.97934 2.2 -0.6 5000031.2989
22.97934 2.18 -0.6 5000031.2989
21.64188 1.86 -0.6 5000029.0698
22.97934 1.84 -0.6 5000031.2989
26.38116 1.1 -0.6 5000036.9686
26.38116 1.08 -0.6 5000036.9686
19.467180000000003 1.02 -0.6 5000025.4453
18.57126 0.9 -0.6 5000023.9521
19.467180000000003 0.76 -0.6 5000025.4453
18.57126 0.6 -0.6 5000023.9521
19.467180000000003 0.58 -0.6 5000025.4453
20.4822 0.42 -0.6 5000027.137
17.77464 0.26 -0.6 5000022.6244
17.77464 0.24 -0.6 5000022.6244
17.77464 0.22 -0.6 5000022.6244
14.82888 0.16 -0.6 5000017.7148
38.9826 -0.56 -0.6 5000057.971
38.9826 -0.58 -0.6 5000057.971
16.419959999999996 -0.74 -0.6 5000020.3666
16.419959999999996 -0.76 -0.6 5000020.3666
16.419959999999996 -0.78 -0.6 5000020.3666
52.78302 -0.88 -0.6 5000080.9717
19.467180000000003 -0.9 -0.6 5000025.4453
12.08952 -0.94 -0.6 5000013.1492
12.08952 -0.96 -0.6 5000013.1492
13.25658 -1.04 -0.6 5000015.0943
13.25658 -1.06 -0.6 5000015.0943
19.467180000000003 -1.58 -0.6 5000025.4453
19.467180000000003 -1.6 -0.6 5000025.4453
19.467180000000003 -1.62 -0.6 5000025.4453
19.467180000000003 -2.16 -0.6 5000025.4453
19.467180000000003 -2.3 -0.6 5000025.4453
34.65684 -2.4 -0.6 5000050.7614
20.4822 -2.54 -0.6 5000027.137
20.4822 -2.56 -0.6 5000027.137
20.4822 -2.58 -0.6 5000027.137
13.979940000000001 -3.34 -0.6 5000016.2999
13.979940000000001 -3.36 -0.6 5000016.2999
13.6044 -3.74 -0.6 5000015.674
13.6044 -3.94 -0.6 5000015.674
13.6044 -3.96 -0.6 5000015.674
13.25658 -4.1 -0.6 5000015.0943
13.6044 -4.26 -0.6 5000015.674
13.6044 -4.3 -0.6 5000015.674
13.979940000000001 -4.44 -0.6 5000016.2999
13.979940000000001 -4.46 -0.6 5000016.2999
13.6044 -4.52 -0.6 5000015.674
17.77464 -4.62 -0.6 5000022.6244
15.83916 -4.76 -0.6 5000019.3986
15.3111 -4.92 -0.6 5000018.5185
14.82888 -4.94 -0.6 5000017.7148
14.82888 -4.96 -0.6 5000017.7148
14.82888 -4.98 -0.6 5000017.7148
14.386740000000001 -5.26 -0.6 5000016.9779
14.386740000000001 -5.28 -0.6 5000016.9779
15.83916 -5.9 -0.6 5000019.3986
15.83916 -5.92 -0.6 5000019.3986
11.843340000000001 -6.58 -0.6 5000012.7389
11.843340000000001 -6.6 -0.6 5000012.7389
11.843340000000001 -6.62 -0.6 5000012.7389
11.61198 -6.64 -0.6 5000012.3533
11.61198 -6.66 -0.6 5000012.3533
28.590239999999998 5.24 -0.62 5000040.6504
26.38116 3.2 -0.62 5000036.9686
26.38116 3.18 -0.62 5000036.9686
26.38116 3.14 -0.62 5000036.9686
26.38116 3.12 -0.62 5000036.9686
24.53898 2.86 -0.62 5000033.8983
24.53898 2.82 -0.62 5000033.8983
24.53898 2.76 -0.62 5000033.8983
22.97934 2.2 -0.62 5000031.2989
21.64188 1.84 -0.62 5000029.0698
19.467180000000003 1.0 -0.62 5000025.4453
19.467180000000003 0.98 -0.62 5000025.4453
19.467180000000003 0.58 -0.62 5000025.4453
17.77464 0.22 -0.62 5000022.6244
14.82888 0.14 -0.62 5000017.7148
38.9826 -0.56 -0.62 5000057.971
24.53898 -0.64 -0.62 5000033.8983
17.06172 -0.74 -0.62 5000021.4362
17.06172 -0.76 -0.62 5000021.4362
16.419959999999996 -0.78 -0.62 5000020.3666
52.78302 -0.88 -0.62 5000080.9717
19.467180000000003 -0.9 -0.62 5000025.4453
12.08952 -0.94 -0.62 5000013.1492
12.08952 -0.96 -0.62 5000013.1492
13.25658 -1.04 -0.62 5000015.0943
13.25658 -1.06 -0.62 5000015.0943
13.25658 -1.08 -0.62 5000015.0943
10.472879999999998 -1.12 -0.62 5000010.4548
19.467180000000003 -1.58 -0.62 5000025.4453
19.467180000000003 -1.6 -0.62 5000025.4453
19.467180000000003 -1.62 -0.62 5000025.4453
19.467180000000003 -2.16 -0.62 5000025.4453
31.28802 -2.46 -0.62 5000045.1467
31.28802 -2.48 -0.62 5000045.1467
20.4822 -2.56 -0.62 5000027.137
20.4822 -2.58 -0.62 5000027.137
13.979940000000001 -2.78 -0.62 5000016.2999
13.25658 -2.8 -0.62 5000015.0943
12.08952 -2.88 -0.62 5000013.1492
26.38116 -2.98 -0.62 5000036.9686
26.38116 -3.0 -0.62 5000036.9686
26.38116 -3.02 -0.62 5000036.9686
22.97934 -3.08 -0.62 5000031.2989
13.979940000000001 -3.32 -0.62 5000016.2999
13.979940000000001 -3.34 -0.62 5000016.2999
13.979940000000001 -3.36 -0.62 5000016.2999
13.6044 -3.94 -0.62 5000015.674
13.25658 -4.08 -0.62 5000015.0943
13.25658 -4.1 -0.62 5000015.0943
13.25658 -4.12 -0.62 5000015.0943
13.6044 -4.26 -0.62 5000015.674
13.979940000000001 -4.44 -0.62 5000016.2999
13.979940000000001 -4.46 -0.62 5000016.2999
13.6044 -4.52 -0.62 5000015.674
13.6044 -4.54 -0.62 5000015.674
17.77464 -4.6 -0.62 5000022.6244
17.77464 -4.62 -0.62 5000022.6244
16.419959999999996 -4.7 -0.62 5000020.3666
16.419959999999996 -4.72 -0.62 5000020.3666
16.419959999999996 -4.74 -0.62 5000020.3666
14.82888 -4.94 -0.62 5000017.7148
14.82888 -4.96 -0.62 5000017.7148
14.82888 -4.98 -0.62 5000017.7148
14.386740000000001 -5.26 -0.62 5000016.9779
15.83916 -5.52 -0.62 5000019.3986
15.83916 -5.54 -0.62 5000019.3986
16.419959999999996 -5.56 -0.62 5000020.3666
16.419959999999996 -5.72 -0.62 5000020.3666
12.08952 -6.42 -0.62 5000013.1492
11.843340000000001 -6.44 -0.62 5000012.7389
28.590239999999998 3.62 -0.64 5000040.6504
28.590239999999998 3.52 -0.64 5000040.6504
26.38116 3.2 -0.64 5000036.9686
26.38116 3.18 -0.64 5000036.9686
26.38116 3.12 -0.64 5000036.9686
24.53898 2.88 -0.64 5000033.8983
24.53898 2.82 -0.64 5000033.8983
24.53898 2.8 -0.64 5000033.8983
22.97934 2.54 -0.64 5000031.2989
21.64188 2.08 -0.64 5000029.0698
21.64188 1.86 -0.64 5000029.0698
19.467180000000003 0.98 -0.64 5000025.4453
19.467180000000003 0.8 -0.64 5000025.4453
24.53898 -0.62 -0.64 5000033.8983
24.53898 -0.64 -0.64 5000033.8983
17.06172 -0.78 -0.64 5000021.4362
12.08952 -0.94 -0.64 5000013.1492
13.25658 -1.04 -0.64 5000015.0943
13.25658 -1.06 -0.64 5000015.0943
13.25658 -1.08 -0.64 5000015.0943
31.28802 -1.34 -0.64 5000045.1467
31.28802 -1.36 -0.64 5000045.1467
28.590239999999998 -1.44 -0.64 5000040.6504
24.53898 -1.5 -0.64 5000033.8983
20.4822 -1.88 -0.64 5000027.137
16.419959999999996 -2.66 -0.64 5000020.3666
14.386740000000001 -2.72 -0.64 5000016.9779
13.979940000000001 -2.74 -0.64 5000016.2999
13.6044 -2.78 -0.64 5000015.674
24.53898 -3.02 -0.64 5000033.8983
18.57126 -3.16 -0.64 5000023.9521
13.979940000000001 -3.32 -0.64 5000016.2999
13.979940000000001 -3.34 -0.64 5000016.2999
13.979940000000001 -3.36 -0.64 5000016.2999
12.3522 -3.44 -0.64 5000013.587
13.6044 -3.92 -0.64 5000015.674
13.6044 -3.94 -0.64 5000015.674
13.25658 -4.0 -0.64 5000015.0943
13.25658 -4.02 -0.64 5000015.0943
13.25658 -4.08 -0.64 5000015.0943
13.25658 -4.1 -0.64 5000015.0943
13.25658 -4.12 -0.64 5000015.0943
13.6044 -4.52 -0.64 5000015.674
13.6044 -4.54 -0.64 5000015.674
13.25658 -5.06 -0.64 5000015.0943
13.979940000000001 -5.2 -0.64 5000016.2999
15.83916 -5.52 -0.64 5000019.3986
15.83916 -5.54 -0.64 5000019.3986
15.83916 -5.6 -0.64 5000019.3986
16.419959999999996 -5.62 -0.64 5000020.3666
16.419959999999996 -5.7 -0.64 5000020.3666
16.419959999999996 -5.72 -0.64 5000020.3666
12.08952 -6.38 -0.64 5000013.1492
12.08952 -6.4 -0.64 5000013.1492
12.08952 -6.42 -0.64 5000013.1492
11.843340000000001 -6.44 -0.64 5000012.7389
11.843340000000001 -6.46 -0.64 5000012.7389
11.61198 -6.48 -0.64 5000012.3533
11.61198 -6.5 -0.64 5000012.3533
28.590239999999998 3.64 -0.66 5000040.6504
28.590239999999998 3.62 -0.66 5000040.6504
28.590239999999998 3.6 -0.66 5000040.6504
28.590239999999998 3.52 -0.66 5000040.6504
26.38116 3.34 -0.66 5000036.9686
26.38116 3.12 -0.66 5000036.9686
24.53898 2.88 -0.66 5000033.8983
24.53898 2.82 -0.66 5000033.8983
24.53898 2.8 -0.66 5000033.8983
22.97934 2.54 -0.66 5000031.2989
21.64188 2.08 -0.66 5000029.0698
21.64188 1.86 -0.66 5000029.0698
19.467180000000003 0.8 -0.66 5000025.4453
19.467180000000003 0.78 -0.66 5000025.4453
124.19999999999999 0.72 -0.66 5000200.0
18.57126 0.52 -0.66 5000023.9521
18.57126 0.5 -0.66 5000023.9521
18.57126 0.48 -0.66 5000023.9521
17.06172 -0.22 -0.66 5000021.4362
124.19999999999999 -0.46 -0.66 5000200.0
24.53898 -0.62 -0.66 5000033.8983
17.77464 -0.72 -0.66 5000022.6244
17.06172 -0.74 -0.66 5000021.4362
31.28802 -1.38 -0.66 5000045.1467
24.53898 -1.52 -0.66 5000033.8983
19.467180000000003 -1.62 -0.66 5000025.4453
34.65684 -1.74 -0.66 5000050.7614
34.65684 -1.76 -0.66 5000050.7614
34.65684 -1.78 -0.66 5000050.7614
18.57126 -1.8 -0.66 5000023.9521
20.4822 -1.88 -0.66 5000027.137
20.4822 -1.9 -0.66 5000027.137
17.06172 -2.04 -0.66 5000021.4362
17.06172 -2.06 -0.66 5000021.4362
17.06172 -2.08 -0.66 5000021.4362
13.6044 -2.1 -0.66 5000015.674
20.4822 -2.3 -0.66 5000027.137
20.4822 -2.54 -0.66 5000027.137
14.386740000000001 -2.72 -0.66 5000016.9779
13.979940000000001 -2.74 -0.66 5000016.2999
12.08952 -2.9 -0.66 5000013.1492
18.57126 -3.16 -0.66 5000023.9521
17.77464 -3.18 -0.66 5000022.6244
17.06172 -3.2 -0.66 5000021.4362
13.6044 -3.24 -0.66 5000015.674
13.979940000000001 -3.32 -0.66 5000016.2999
13.979940000000001 -3.34 -0.66 5000016.2999
13.6044 -3.92 -0.66 5000015.674
13.6044 -3.94 -0.66 5000015.674
13.25658 -4.0 -0.66 5000015.0943
13.25658 -4.02 -0.66 5000015.0943
13.25658 -4.08 -0.66 5000015.0943
13.25658 -4.1 -0.66 5000015.0943
13.25658 -4.12 -0.66 5000015.0943
13.6044 -4.52 -0.66 5000015.674
13.6044 -4.54 -0.66 5000015.674
16.419959999999996 -4.9 -0.66 5000020.3666
14.386740000000001 -4.98 -0.66 5000016.9779
13.25658 -5.06 -0.66 5000015.0943
13.979940000000001 -5.2 -0.66 5000016.2999
12.3522 -6.34 -0.66 5000013.587
12.08952 -6.36 -0.66 5000013.1492
12.08952 -6.38 -0.66 5000013.1492
12.08952 -6.4 -0.66 5000013.1492
26.38116 3.12 -0.68 5000036.9686
24.53898 2.88 -0.68 5000033.8983
24.53898 2.8 -0.68 5000033.8983
22.97934 2.52 -0.68 5000031.2989
21.64188 2.16 -0.68 5000029.0698
21.64188 2.1 -0.68 5000029.0698
20.4822 1.68 -0.68 5000027.137
20.4822 1.66 -0.68 5000027.137
20.4822 1.62 -0.68 5000027.137
20.4822 1.6 -0.68 5000027.137
20.4822 1.18 -0.68 5000027.137
20.4822 1.16 -0.68 5000027.137
18.57126 0.94 -0.68 5000023.9521
19.467180000000003 0.78 -0.68 5000025.4453
19.467180000000003 0.76 -0.68 5000025.4453
18.57126 0.52 -0.68 5000023.9521
18.57126 0.5 -0.68 5000023.9521
17.77464 0.36 -0.68 5000022.6244
17.77464 0.34 -0.68 5000022.6244
17.77464 0.32 -0.68 5000022.6244
124.19999999999999 -0.46 -0.68 5000200.0
44.74056 -0.52 -0.68 5000067.5676
44.74056 -1.14 -0.68 5000067.5676
21.64188 -1.26 -0.68 5000029.0698
21.64188 -1.28 -0.68 5000029.0698
20.4822 -1.88 -0.68 5000027.137
20.4822 -2.18 -0.68 5000027.137
20.4822 -2.2 -0.68 5000027.137
20.4822 -2.58 -0.68 5000027.137
14.386740000000001 -2.72 -0.68 5000016.9779
13.979940000000001 -2.74 -0.68 5000016.2999
13.979940000000001 -2.76 -0.68 5000016.2999
10.637759999999998 -2.98 -0.68 5000010.7296
10.637759999999998 -3.0 -0.68 5000010.7296
13.979940000000001 -3.22 -0.68 5000016.2999
13.6044 -3.24 -0.68 5000015.674
13.979940000000001 -3.32 -0.68 5000016.2999
13.979940000000001 -3.34 -0.68 5000016.2999
13.25658 -4.08 -0.68 5000015.0943
13.25658 -4.1 -0.68 5000015.0943
13.25658 -4.12 -0.68 5000015.0943
13.6044 -4.52 -0.68 5000015.674
13.979940000000001 -4.54 -0.68 5000016.2999
17.06172 -4.58 -0.68 5000021.4362
17.77464 -4.6 -0.68 5000022.6244
17.77464 -4.74 -0.68 5000022.6244
17.77464 -4.76 -0.68 5000022.6244
17.06172 -4.86 -0.68 5000021.4362
17.06172 -4.88 -0.68 5000021.4362
16.419959999999996 -4.9 -0.68 5000020.3666
14.82888 -4.94 -0.68 5000017.7148
14.386740000000001 -4.96 -0.68 5000016.9779
14.386740000000001 -4.98 -0.68 5000016.9779
14.386740000000001 -5.0 -0.68 5000016.9779
13.25658 -6.26 -0.68 5000015.0943
13.25658 -6.28 -0.68 5000015.0943
12.933599999999998 -6.3 -0.68 5000014.556
12.3522 -6.32 -0.68 5000013.587
12.3522 -6.34 -0.68 5000013.587
12.08952 -6.36 -0.68 5000013.1492
12.08952 -6.38 -0.68 5000013.1492
11.61198 -6.48 -0.68 5000012.3533
11.61198 -6.5 -0.68 5000012.3533
26.38116 4.86 -0.7 5000036.9686
26.38116 4.84 -0.7 5000036.9686
26.38116 3.12 -0.7 5000036.9686
24.53898 2.88 -0.7 5000033.8983
24.53898 2.82 -0.7 5000033.8983
24.53898 2.8 -0.7 5000033.8983
22.97934 2.52 -0.7 5000031.2989
21.64188 2.08 -0.7 5000029.0698
20.4822 1.62 -0.7 5000027.137
20.4822 1.6 -0.7 5000027.137
19.467180000000003 1.56 -0.7 5000025.4453
17.06172 1.54 -0.7 5000021.4362
17.06172 1.52 -0.7 5000021.4362
20.4822 1.18 -0.7 5000027.137
20.4822 1.16 -0.7 5000027.137
24.53898 0.62 -0.7 5000033.8983
24.53898 0.6 -0.7 5000033.8983
18.57126 0.52 -0.7 5000023.9521
17.77464 0.36 -0.7 5000022.6244
17.77464 0.34 -0.7 5000022.6244
14.82888 0.26 -0.7 5000017.7148
44.74056 -0.52 -0.7 5000067.5676
10.16718 -1.08 -0.7 5000009.9453
17.77464 -1.14 -0.7 5000022.6244
21.64188 -1.28 -0.7 5000029.0698
21.64188 -1.3 -0.7 5000029.0698
20.4822 -2.18 -0.7 5000027.137
20.4822 -2.2 -0.7 5000027.137
13.979940000000001 -2.74 -0.7 5000016.2999
13.979940000000001 -2.76 -0.7 5000016.2999
13.979940000000001 -2.78 -0.7 5000016.2999
13.6044 -3.24 -0.7 5000015.674
13.25658 -4.08 -0.7 5000015.0943
17.06172 -4.58 -0.7 5000021.4362
17.77464 -4.6 -0.7 5000022.6244
17.77464 -4.74 -0.7 5000022.6244
17.77464 -4.76 -0.7 5000022.6244
14.386740000000001 -4.96 -0.7 5000016.9779
14.386740000000001 -4.98 -0.7 5000016.9779
14.386740000000001 -5.0 -0.7 5000016.9779
13.979940000000001 -5.02 -0.7 5000016.2999
11.843340000000001 -6.46 -0.7 5000012.7389
11.843340000000001 -6.48 -0.7 5000012.7389
11.843340000000001 -6.5 -0.7 5000012.7389
24.53898 2.88 -0.72 5000033.8983
24.53898 2.82 -0.72 5000033.8983
24.53898 2.8 -0.72 5000033.8983
26.38116 2.7 -0.72 5000036.9686
21.64188 2.08 -0.72 5000029.0698
21.64188 1.7 -0.72 5000029.0698
20.4822 1.6 -0.72 5000027.137
19.467180000000003 1.06 -0.72 5000025.4453
18.57126 1.0 -0.72 5000023.9521
18.57126 0.98 -0.72 5000023.9521
24.53898 0.62 -0.72 5000033.8983
18.57126 0.54 -0.72 5000023.9521
18.57126 0.48 -0.72 5000023.9521
13.25658 0.4 -0.72 5000015.0943
17.77464 -1.14 -0.72 5000022.6244
17.77464 -1.16 -0.72 5000022.6244
21.64188 -1.3 -0.72 5000029.0698
13.979940000000001 -1.46 -0.72 5000016.2999
20.4822 -2.18 -0.72 5000027.137
14.386740000000001 -2.72 -0.72 5000016.9779
13.979940000000001 -2.74 -0.72 5000016.2999
13.979940000000001 -2.76 -0.72 5000016.2999
13.979940000000001 -2.78 -0.72 5000016.2999
12.933599999999998 -2.84 -0.72 5000014.556
12.933599999999998 -2.86 -0.72 5000014.556
14.386740000000001 -3.98 -0.72 5000016.9779
14.386740000000001 -4.0 -0.72 5000016.9779
14.386740000000001 -4.02 -0.72 5000016.9779
17.06172 -4.52 -0.72 5000021.4362
13.6044 -5.06 -0.72 5000015.674
13.979940000000001 -5.26 -0.72 5000016.2999
24.53898 3.18 -0.74 5000033.8983
24.53898 2.88 -0.74 5000033.8983
24.53898 2.82 -0.74 5000033.8983
24.53898 2.8 -0.74 5000033.8983
22.97934 2.52 -0.74 5000031.2989
21.64188 2.1 -0.74 5000029.0698
21.64188 2.08 -0.74 5000029.0698
34.65684 1.8 -0.74 5000050.7614
21.64188 1.72 -0.74 5000029.0698
21.64188 1.7 -0.74 5000029.0698
20.4822 1.6 -0.74 5000027.137
19.467180000000003 1.1 -0.74 5000025.4453
18.57126 0.98 -0.74 5000023.9521
18.57126 0.5 -0.74 5000023.9521
22.97934 -0.26 -0.74 5000031.2989
22.97934 -0.28 -0.74 5000031.2989
16.419959999999996 -0.34 -0.74 5000020.3666
16.419959999999996 -0.4 -0.74 5000020.3666
16.419959999999996 -0.42 -0.74 5000020.3666
17.77464 -1.14 -0.74 5000022.6244
17.77464 -1.16 -0.74 5000022.6244
21.64188 -1.76 -0.74 5000029.0698
21.64188 -1.78 -0.74 5000029.0698
21.64188 -1.8 -0.74 5000029.0698
13.979940000000001 -2.76 -0.74 5000016.2999
13.979940000000001 -2.78 -0.74 5000016.2999
14.386740000000001 -4.0 -0.74 5000016.9779
14.386740000000001 -4.02 -0.74 5000016.9779
13.6044 -4.04 -0.74 5000015.674
13.6044 -4.06 -0.74 5000015.674
13.25658 -4.38 -0.74 5000015.0943
17.77464 -4.52 -0.74 5000022.6244
24.53898 2.82 -0.76 5000033.8983
22.97934 2.52 -0.76 5000031.2989
24.53898 2.28 -0.76 5000033.8983
21.64188 2.1 -0.76 5000029.0698
21.64188 2.08 -0.76 5000029.0698
20.4822 1.72 -0.76 5000027.137
20.4822 1.6 -0.76 5000027.137
19.467180000000003 1.1 -0.76 5000025.4453
18.57126 0.96 -0.76 5000023.9521
19.467180000000003 0.72 -0.76 5000025.4453
19.467180000000003 0.68 -0.76 5000025.4453
17.77464 -0.24 -0.76 5000022.6244
17.77464 -0.26 -0.76 5000022.6244
16.419959999999996 -0.34 -0.76 5000020.3666
16.419959999999996 -0.36 -0.76 5000020.3666
28.590239999999998 -2.08 -0.76 5000040.6504
21.64188 -2.18 -0.76 5000029.0698
17.77464 -2.24 -0.76 5000022.6244
17.06172 -4.8 -0.76 5000021.4362
22.97934 4.36 -0.78 5000031.2989
22.97934 2.46 -0.78 5000031.2989
21.64188 2.1 -0.78 5000029.0698
21.64188 2.08 -0.78 5000029.0698
21.64188 1.72 -0.78 5000029.0698
21.64188 1.68 -0.78 5000029.0698
20.4822 1.62 -0.78 5000027.137
20.4822 1.6 -0.78 5000027.137
19.467180000000003 1.1 -0.78 5000025.4453
19.467180000000003 0.98 -0.78 5000025.4453
19.467180000000003 0.96 -0.78 5000025.4453
22.97934 -0.14 -0.78 5000031.2989
21.64188 -0.16 -0.78 5000029.0698
17.77464 -0.22 -0.78 5000022.6244
17.77464 -0.24 -0.78 5000022.6244
16.419959999999996 -0.36 -0.78 5000020.3666
16.419959999999996 -0.38 -0.78 5000020.3666
16.419959999999996 -0.66 -0.78 5000020.3666
14.82888 -2.34 -0.78 5000017.7148
14.82888 -2.36 -0.78 5000017.7148
17.06172 -3.04 -0.78 5000021.4362
14.386740000000001 -3.06 -0.78 5000016.9779
14.386740000000001 -3.08 -0.78 5000016.9779
13.979940000000001 -3.1 -0.78 5000016.2999
13.979940000000001 -3.12 -0.78 5000016.2999
13.6044 -3.18 -0.78 5000015.674
13.6044 -3.2 -0.78 5000015.674
18.57126 -3.52 -0.78 5000023.9521
18.57126 -3.54 -0.78 5000023.9521
16.419959999999996 -3.56 -0.78 5000020.3666
13.6044 -3.58 -0.78 5000015.674
13.6044 -3.6 -0.78 5000015.674
13.25658 -3.62 -0.78 5000015.0943
13.25658 -3.64 -0.78 5000015.0943
13.25658 -3.7 -0.78 5000015.0943
13.25658 -3.72 -0.78 5000015.0943
11.843340000000001 -3.74 -0.78 5000012.7389
11.843340000000001 -3.76 -0.78 5000012.7389
22.97934 2.6 -0.8 5000031.2989
22.97934 2.58 -0.8 5000031.2989
22.97934 2.56 -0.8 5000031.2989
21.64188 2.1 -0.8 5000029.0698
21.64188 2.08 -0.8 5000029.0698
20.4822 1.72 -0.8 5000027.137
21.64188 1.7 -0.8 5000029.0698
21.64188 1.68 -0.8 5000029.0698
21.64188 1.62 -0.8 5000029.0698
20.4822 1.6 -0.8 5000027.137
19.467180000000003 1.16 -0.8 5000025.4453
19.467180000000003 1.1 -0.8 5000025.4453
19.467180000000003 1.08 -0.8 5000025.4453
19.467180000000003 0.98 -0.8 5000025.4453
15.3111 0.9 -0.8 5000018.5185
15.3111 0.88 -0.8 5000018.5185
24.53898 0.48 -0.8 5000033.8983
24.53898 0.46 -0.8 5000033.8983
17.77464 0.4 -0.8 5000022.6244
17.77464 0.38 -0.8 5000022.6244
14.386740000000001 0.3 -0.8 5000016.9779
17.77464 -0.22 -0.8 5000022.6244
16.419959999999996 -0.38 -0.8 5000020.3666
16.419959999999996 -0.4 -0.8 5000020.3666
13.25658 -0.5 -0.8 5000015.0943
14.82888 -2.32 -0.8 5000017.7148
14.82888 -2.34 -0.8 5000017.7148
14.386740000000001 -2.36 -0.8 5000016.9779
14.386740000000001 -3.08 -0.8 5000016.9779
13.979940000000001 -3.1 -0.8 5000016.2999
13.979940000000001 -3.12 -0.8 5000016.2999
13.6044 -3.18 -0.8 5000015.674
13.6044 -3.2 -0.8 5000015.674
13.6044 -3.22 -0.8 5000015.674
12.3522 -3.24 -0.8 5000013.587
13.6044 -3.6 -0.8 5000015.674
13.25658 -3.62 -0.8 5000015.0943
13.25658 -3.64 -0.8 5000015.0943
13.25658 -3.7 -0.8 5000015.0943
13.25658 -3.72 -0.8 5000015.0943
11.843340000000001 -3.74 -0.8 5000012.7389
11.843340000000001 -3.76 -0.8 5000012.7389
11.61198 -3.78 -0.8 5000012.3533
21.64188 -3.94 -0.8 5000029.0698
21.64188 -3.96 -0.8 5000029.0698
13.25658 -4.04 -0.8 5000015.0943
13.25658 -4.08 -0.8 5000015.0943
13.25658 -4.24 -0.8 5000015.0943
13.25658 -4.26 -0.8 5000015.0943
13.25658 -4.28 -0.8 5000015.0943
21.64188 2.1 -0.82 5000029.0698
21.64188 1.66 -0.82 5000029.0698
21.64188 1.62 -0.82 5000029.0698
21.64188 1.6 -0.82 5000029.0698
19.467180000000003 1.12 -0.82 5000025.4453
19.467180000000003 1.08 -0.82 5000025.4453
19.467180000000003 1.0 -0.82 5000025.4453
19.467180000000003 0.98 -0.82 5000025.4453
19.467180000000003 0.96 -0.82 5000025.4453
15.3111 0.9 -0.82 5000018.5185
24.53898 0.48 -0.82 5000033.8983
24.53898 0.46 -0.82 5000033.8983
17.77464 0.4 -0.82 5000022.6244
17.77464 0.38 -0.82 5000022.6244
17.77464 -0.2 -0.82 5000022.6244
16.419959999999996 -0.66 -0.82 5000020.3666
44.74056 -0.8 -0.82 5000067.5676
44.74056 -0.82 -0.82 5000067.5676
17.77464 -1.02 -0.82 5000022.6244
17.77464 -1.04 -0.82 5000022.6244
17.77464 -1.16 -0.82 5000022.6244
17.77464 -1.18 -0.82 5000022.6244
24.53898 -1.5 -0.82 5000033.8983
14.82888 -2.3 -0.82 5000017.7148
14.82888 -2.32 -0.82 5000017.7148
13.25658 -4.02 -0.82 5000015.0943
13.25658 -4.04 -0.82 5000015.0943
13.25658 -4.1 -0.82 5000015.0943
13.6044 -4.22 -0.82 5000015.674
13.25658 -4.24 -0.82 5000015.0943
13.25658 -4.26 -0.82 5000015.0943
13.25658 -4.28 -0.82 5000015.0943
13.6044 -4.48 -0.82 5000015.674
13.979940000000001 -4.5 -0.82 5000016.2999
26.38116 1.7 -0.84 5000036.9686
20.4822 1.62 -0.84 5000027.137
20.4822 1.6 -0.84 5000027.137
19.467180000000003 1.12 -0.84 5000025.4453
19.467180000000003 1.1 -0.84 5000025.4453
19.467180000000003 1.08 -0.84 5000025.4453
19.467180000000003 1.0 -0.84 5000025.4453
24.53898 0.48 -0.84 5000033.8983
24.53898 0.46 -0.84 5000033.8983
17.77464 0.4 -0.84 5000022.6244
17.77464 0.38 -0.84 5000022.6244
17.77464 0.36 -0.84 5000022.6244
17.77464 -0.2 -0.84 5000022.6244
22.97934 -0.26 -0.84 5000031.2989
24.53898 -0.28 -0.84 5000033.8983
16.419959999999996 -0.36 -0.84 5000020.3666
16.419959999999996 -0.38 -0.84 5000020.3666
44.74056 -0.8 -0.84 5000067.5676
44.74056 -0.82 -0.84 5000067.5676
17.77464 -1.02 -0.84 5000022.6244
17.77464 -1.04 -0.84 5000022.6244
17.06172 -1.16 -0.84 5000021.4362
17.06172 -1.18 -0.84 5000021.4362
17.77464 -1.6 -0.84 5000022.6244
17.77464 -1.62 -0.84 5000022.6244
12.63288 -1.8 -0.84 5000014.0548
14.82888 -2.3 -0.84 5000017.7148
14.82888 -2.32 -0.84 5000017.7148
14.82888 -2.56 -0.84 5000017.7148
13.25658 -4.04 -0.84 5000015.0943
13.25658 -4.1 -0.84 5000015.0943
13.25658 -4.12 -0.84 5000015.0943
13.6044 -4.22 -0.84 5000015.674
13.25658 -4.24 -0.84 5000015.0943
13.25658 -4.26 -0.84 5000015.0943
13.25658 -4.28 -0.84 5000015.0943
13.25658 -4.34 -0.84 5000015.0943
13.25658 -4.36 -0.84 5000015.0943
19.467180000000003 -4.88 -0.84 5000025.4453
12.3522 -5.26 -0.84 5000013.587
12.3522 -5.28 -0.84 5000013.587
12.3522 -5.3 -0.84 5000013.587
11.843340000000001 -6.08 -0.84 5000012.7389
20.4822 1.64 -0.86 5000027.137
20.4822 1.62 -0.86 5000027.137
21.64188 1.36 -0.86 5000029.0698
19.467180000000003 1.1 -0.86 5000025.4453
19.467180000000003 1.0 -0.86 5000025.4453
26.38116 0.5 -0.86 5000036.9686
26.38116 0.48 -0.86 5000036.9686
17.77464 0.38 -0.86 5000022.6244
17.77464 0.36 -0.86 5000022.6244
24.53898 -0.26 -0.86 5000033.8983
24.53898 -0.28 -0.86 5000033.8983
17.06172 -0.36 -0.86 5000021.4362
17.06172 -0.38 -0.86 5000021.4362
44.74056 -0.82 -0.86 5000067.5676
44.74056 -0.84 -0.86 5000067.5676
