VERSION .7
FIELDS x y z rgb
SIZE 4 4 4 4
TYPE F F F F
COUNT 1 1 1 1
WIDTH 1563
HEIGHT 1
VIEWPOINT 0 0 0 1 0 0 0
POINTS 1563
DATA ascii
21.64188 -2.42 -0.44 29.0698
17.06172 -2.52 -0.44 21.4362
17.06172 -2.54 -0.44 21.4362
21.64188 -2.68 -0.44 29.0698
13.25658 -3.78 -0.44 15.0943
13.25658 -3.84 -0.44 15.0943
13.25658 -3.86 -0.44 15.0943
12.63288 -4.62 -0.44 14.0548
12.63288 -4.64 -0.44 14.0548
13.25658 -5.02 -0.44 15.0943
13.25658 -5.04 -0.44 15.0943
18.57126 -5.16 -0.44 23.9521
15.83916 -6.14 -0.44 19.3986
14.82888 -6.48 -0.44 17.7148
34.65684 5.4 -0.46 50.7614
34.65684 5.38 -0.46 50.7614
34.65684 5.36 -0.46 50.7614
34.65684 5.34 -0.46 50.7614
34.65684 4.5 -0.46 50.7614
34.65684 4.48 -0.46 50.7614
34.65684 4.32 -0.46 50.7614
34.65684 4.3 -0.46 50.7614
28.590239999999998 3.92 -0.46 40.6504
28.590239999999998 3.9 -0.46 40.6504
28.590239999999998 3.54 -0.46 40.6504
26.38116 3.32 -0.46 36.9686
26.38116 3.3 -0.46 36.9686
26.38116 3.02 -0.46 36.9686
26.38116 2.96 -0.46 36.9686
26.38116 2.94 -0.46 36.9686
21.64188 1.6 -0.46 29.0698
21.64188 1.54 -0.46 29.0698
14.82888 1.42 -0.46 17.7148
18.57126 1.4 -0.46 23.9521
21.64188 1.36 -0.46 29.0698
84.7368 1.24 -0.46 134.228
19.467180000000003 1.18 -0.46 25.4453
19.467180000000003 1.16 -0.46 25.4453
15.83916 1.1 -0.46 19.3986
15.83916 1.08 -0.46 19.3986
19.467180000000003 0.36 -0.46 25.4453
19.467180000000003 0.34 -0.46 25.4453
22.97934 -0.06 -0.46 31.2989
12.3522 -0.38 -0.46 13.587
16.419959999999996 -0.86 -0.46 20.3666
16.419959999999996 -0.88 -0.46 20.3666
12.933599999999998 -0.98 -0.46 14.556
18.57126 -1.28 -0.46 23.9521
18.57126 -1.3 -0.46 23.9521
38.9826 -1.36 -0.46 57.971
21.64188 -1.48 -0.46 29.0698
24.53898 -1.78 -0.46 33.8983
17.77464 -1.88 -0.46 22.6244
15.83916 -1.94 -0.46 19.3986
24.53898 -2.16 -0.46 33.8983
24.53898 -2.2 -0.46 33.8983
28.590239999999998 -2.3 -0.46 40.6504
28.590239999999998 -2.34 -0.46 40.6504
26.38116 -2.36 -0.46 36.9686
17.06172 -2.52 -0.46 21.4362
17.06172 -2.54 -0.46 21.4362
13.25658 -3.78 -0.46 15.0943
13.25658 -3.84 -0.46 15.0943
13.25658 -3.86 -0.46 15.0943
12.933599999999998 -4.6 -0.46 14.556
12.63288 -4.62 -0.46 14.0548
12.63288 -4.64 -0.46 14.0548
13.25658 -5.04 -0.46 15.0943
13.25658 -5.06 -0.46 15.0943
18.57126 -5.14 -0.46 23.9521
18.57126 -5.16 -0.46 23.9521
18.57126 -5.18 -0.46 23.9521
15.83916 -5.28 -0.46 19.3986
15.83916 -5.3 -0.46 19.3986
17.77464 -5.36 -0.46 22.6244
15.3111 -6.1 -0.46 18.5185
15.3111 -6.14 -0.46 18.5185
15.3111 -6.52 -0.46 18.5185
34.65684 5.34 -0.48 50.7614
34.65684 4.5 -0.48 50.7614
34.65684 4.48 -0.48 50.7614
34.65684 4.32 -0.48 50.7614
31.28802 4.02 -0.48 45.1467
28.590239999999998 3.9 -0.48 40.6504
28.590239999999998 3.74 -0.48 40.6504
28.590239999999998 3.68 -0.48 40.6504
26.38116 3.32 -0.48 36.9686
26.38116 3.3 -0.48 36.9686
26.38116 2.94 -0.48 36.9686
24.53898 2.42 -0.48 33.8983
21.64188 1.54 -0.48 29.0698
21.64188 1.52 -0.48 29.0698
19.467180000000003 1.16 -0.48 25.4453
19.467180000000003 0.36 -0.48 25.4453
19.467180000000003 0.34 -0.48 25.4453
22.97934 -0.06 -0.48 31.2989
17.06172 -0.18 -0.48 21.4362
12.3522 -0.36 -0.48 13.587
11.843340000000001 -0.42 -0.48 12.7389
124.19999999999999 -0.62 -0.48 200.0
16.419959999999996 -0.88 -0.48 20.3666
16.419959999999996 -0.9 -0.48 20.3666
22.97934 -1.46 -0.48 31.2989
22.97934 -1.48 -0.48 31.2989
34.65684 -1.7 -0.48 50.7614
31.28802 -1.72 -0.48 45.1467
24.53898 -1.78 -0.48 33.8983
17.77464 -1.88 -0.48 22.6244
17.06172 -1.9 -0.48 21.4362
15.83916 -1.94 -0.48 19.3986
24.53898 -2.16 -0.48 33.8983
24.53898 -2.18 -0.48 33.8983
24.53898 -2.2 -0.48 33.8983
28.590239999999998 -2.3 -0.48 40.6504
22.97934 -2.36 -0.48 31.2989
19.467180000000003 -2.42 -0.48 25.4453
28.590239999999998 -2.78 -0.48 40.6504
22.97934 -2.84 -0.48 31.2989
22.97934 -2.86 -0.48 31.2989
18.57126 -2.92 -0.48 23.9521
13.25658 -3.84 -0.48 15.0943
13.25658 -3.86 -0.48 15.0943
12.933599999999998 -4.28 -0.48 14.556
12.63288 -4.62 -0.48 14.0548
12.63288 -4.64 -0.48 14.0548
12.63288 -4.66 -0.48 14.0548
13.25658 -5.06 -0.48 15.0943
18.57126 -5.14 -0.48 23.9521
18.57126 -5.16 -0.48 23.9521
18.57126 -5.18 -0.48 23.9521
15.83916 -5.28 -0.48 19.3986
17.77464 -5.34 -0.48 22.6244
17.77464 -5.36 -0.48 22.6244
15.3111 -5.42 -0.48 18.5185
15.3111 -5.44 -0.48 18.5185
15.3111 -5.46 -0.48 18.5185
13.6044 -5.56 -0.48 15.674
13.6044 -5.6 -0.48 15.674
13.979940000000001 -5.84 -0.48 16.2999
34.65684 4.32 -0.5 50.7614
31.28802 4.04 -0.5 45.1467
31.28802 4.02 -0.5 45.1467
28.590239999999998 3.96 -0.5 40.6504
28.590239999999998 3.9 -0.5 40.6504
28.590239999999998 3.74 -0.5 40.6504
28.590239999999998 3.72 -0.5 40.6504
28.590239999999998 3.68 -0.5 40.6504
26.38116 3.36 -0.5 36.9686
26.38116 2.86 -0.5 36.9686
24.53898 2.42 -0.5 33.8983
24.53898 2.4 -0.5 33.8983
21.64188 1.54 -0.5 29.0698
21.64188 1.52 -0.5 29.0698
14.82888 1.42 -0.5 17.7148
15.83916 -0.16 -0.5 19.3986
124.19999999999999 -0.62 -0.5 200.0
16.419959999999996 -0.9 -0.5 20.3666
16.419959999999996 -0.92 -0.5 20.3666
22.97934 -1.46 -0.5 31.2989
124.19999999999999 -1.58 -0.5 200.0
34.65684 -1.7 -0.5 50.7614
24.53898 -1.76 -0.5 33.8983
24.53898 -2.2 -0.5 33.8983
28.590239999999998 -2.3 -0.5 40.6504
22.97934 -2.36 -0.5 31.2989
19.467180000000003 -2.42 -0.5 25.4453
24.53898 -2.68 -0.5 33.8983
28.590239999999998 -2.78 -0.5 40.6504
26.38116 -2.8 -0.5 36.9686
22.97934 -2.84 -0.5 31.2989
22.97934 -2.86 -0.5 31.2989
18.57126 -2.92 -0.5 23.9521
13.25658 -3.76 -0.5 15.0943
13.25658 -3.84 -0.5 15.0943
13.25658 -3.86 -0.5 15.0943
12.933599999999998 -4.28 -0.5 14.556
15.3111 -4.48 -0.5 18.5185
13.979940000000001 -4.54 -0.5 16.2999
12.63288 -4.62 -0.5 14.0548
12.63288 -4.64 -0.5 14.0548
12.63288 -4.66 -0.5 14.0548
13.25658 -5.06 -0.5 15.0943
18.57126 -5.16 -0.5 23.9521
18.57126 -5.18 -0.5 23.9521
17.77464 -5.34 -0.5 22.6244
17.77464 -5.36 -0.5 22.6244
17.77464 -5.38 -0.5 22.6244
15.83916 -5.42 -0.5 19.3986
15.3111 -5.44 -0.5 18.5185
15.3111 -5.46 -0.5 18.5185
13.6044 -5.56 -0.5 15.674
13.979940000000001 -5.84 -0.5 16.2999
13.979940000000001 -5.86 -0.5 16.2999
15.3111 -6.64 -0.5 18.5185
31.28802 5.3 -0.52 45.1467
31.28802 5.26 -0.52 45.1467
31.28802 5.24 -0.52 45.1467
31.28802 4.22 -0.52 45.1467
31.28802 4.04 -0.52 45.1467
31.28802 4.02 -0.52 45.1467
28.590239999999998 3.9 -0.52 40.6504
28.590239999999998 3.88 -0.52 40.6504
28.590239999999998 3.74 -0.52 40.6504
28.590239999999998 3.72 -0.52 40.6504
26.38116 3.38 -0.52 36.9686
26.38116 3.36 -0.52 36.9686
26.38116 2.86 -0.52 36.9686
24.53898 2.42 -0.52 33.8983
24.53898 2.4 -0.52 33.8983
22.97934 2.36 -0.52 31.2989
22.97934 0.42 -0.52 31.2989
19.467180000000003 0.38 -0.52 25.4453
19.467180000000003 0.36 -0.52 25.4453
19.467180000000003 0.32 -0.52 25.4453
14.386740000000001 0.26 -0.52 16.9779
14.386740000000001 0.24 -0.52 16.9779
14.386740000000001 0.22 -0.52 16.9779
18.57126 0.18 -0.52 23.9521
18.57126 0.16 -0.52 23.9521
18.57126 0.14 -0.52 23.9521
11.18892 -0.4 -0.52 11.6482
16.419959999999996 -0.94 -0.52 20.3666
16.419959999999996 -0.96 -0.52 20.3666
31.28802 -1.38 -0.52 45.1467
24.53898 -1.76 -0.52 33.8983
24.53898 -2.2 -0.52 33.8983
22.97934 -2.36 -0.52 31.2989
19.467180000000003 -2.42 -0.52 25.4453
84.7368 -2.6 -0.52 134.228
84.7368 -2.62 -0.52 134.228
64.806 -2.64 -0.52 101.01
64.806 -2.66 -0.52 101.01
24.53898 -2.68 -0.52 33.8983
28.590239999999998 -2.78 -0.52 40.6504
26.38116 -2.8 -0.52 36.9686
22.97934 -2.84 -0.52 31.2989
22.97934 -2.86 -0.52 31.2989
18.57126 -2.92 -0.52 23.9521
13.25658 -3.84 -0.52 15.0943
12.933599999999998 -4.28 -0.52 14.556
12.933599999999998 -4.54 -0.52 14.556
12.63288 -4.62 -0.52 14.0548
12.63288 -4.64 -0.52 14.0548
12.63288 -4.66 -0.52 14.0548
13.25658 -5.0 -0.52 15.0943
13.25658 -5.06 -0.52 15.0943
13.25658 -5.08 -0.52 15.0943
18.57126 -5.14 -0.52 23.9521
18.57126 -5.16 -0.52 23.9521
18.57126 -5.18 -0.52 23.9521
17.77464 -5.36 -0.52 22.6244
13.979940000000001 -5.86 -0.52 16.2999
15.3111 -6.2 -0.52 18.5185
15.3111 -6.22 -0.52 18.5185
15.3111 -6.24 -0.52 18.5185
15.3111 -6.64 -0.52 18.5185
31.28802 5.26 -0.54 45.1467
31.28802 5.22 -0.54 45.1467
34.65684 5.2 -0.54 50.7614
31.28802 4.22 -0.54 45.1467
31.28802 4.2 -0.54 45.1467
34.65684 4.04 -0.54 50.7614
34.65684 4.02 -0.54 50.7614
28.590239999999998 3.72 -0.54 40.6504
26.38116 3.1 -0.54 36.9686
26.38116 3.08 -0.54 36.9686
26.38116 3.06 -0.54 36.9686
22.97934 2.34 -0.54 31.2989
22.97934 2.3 -0.54 31.2989
21.64188 1.54 -0.54 29.0698
21.64188 1.5 -0.54 29.0698
20.4822 1.48 -0.54 27.137
22.97934 1.1 -0.54 31.2989
18.57126 0.82 -0.54 23.9521
22.97934 0.42 -0.54 31.2989
18.57126 0.36 -0.54 23.9521
17.77464 0.26 -0.54 22.6244
24.53898 0.24 -0.54 33.8983
18.57126 0.18 -0.54 23.9521
18.57126 0.16 -0.54 23.9521
18.57126 0.14 -0.54 23.9521
18.57126 0.06 -0.54 23.9521
18.57126 0.04 -0.54 23.9521
12.08952 -0.06 -0.54 13.1492
17.06172 -0.12 -0.54 21.4362
16.419959999999996 -0.98 -0.54 20.3666
16.419959999999996 -1.0 -0.54 20.3666
11.61198 -1.2 -0.54 12.3533
11.61198 -1.22 -0.54 12.3533
24.53898 -2.16 -0.54 33.8983
24.53898 -2.18 -0.54 33.8983
24.53898 -2.2 -0.54 33.8983
24.53898 -2.22 -0.54 33.8983
28.590239999999998 -2.3 -0.54 40.6504
24.53898 -2.34 -0.54 33.8983
22.97934 -2.36 -0.54 31.2989
20.4822 -2.4 -0.54 27.137
19.467180000000003 -2.42 -0.54 25.4453
84.7368 -2.62 -0.54 134.228
64.806 -2.64 -0.54 101.01
24.53898 -2.68 -0.54 33.8983
28.590239999999998 -2.78 -0.54 40.6504
26.38116 -2.8 -0.54 36.9686
22.97934 -2.84 -0.54 31.2989
22.97934 -2.86 -0.54 31.2989
13.25658 -3.84 -0.54 15.0943
13.25658 -4.5 -0.54 15.0943
12.63288 -4.56 -0.54 14.0548
12.63288 -4.62 -0.54 14.0548
12.63288 -4.66 -0.54 14.0548
13.25658 -5.0 -0.54 15.0943
13.25658 -5.08 -0.54 15.0943
18.57126 -5.14 -0.54 23.9521
18.57126 -5.16 -0.54 23.9521
18.57126 -5.18 -0.54 23.9521
17.77464 -5.34 -0.54 22.6244
17.77464 -5.36 -0.54 22.6244
17.77464 -5.38 -0.54 22.6244
15.3111 -6.06 -0.54 18.5185
15.3111 -6.52 -0.54 18.5185
28.590239999999998 3.58 -0.56 40.6504
26.38116 3.3 -0.56 36.9686
26.38116 3.1 -0.56 36.9686
22.97934 2.38 -0.56 31.2989
22.97934 2.36 -0.56 31.2989
21.64188 1.8 -0.56 29.0698
21.64188 1.58 -0.56 29.0698
21.64188 1.54 -0.56 29.0698
20.4822 1.5 -0.56 27.137
18.57126 1.48 -0.56 23.9521
19.467180000000003 1.34 -0.56 25.4453
19.467180000000003 1.32 -0.56 25.4453
22.97934 0.42 -0.56 31.2989
18.57126 0.1 -0.56 23.9521
18.57126 0.04 -0.56 23.9521
17.77464 -0.94 -0.56 22.6244
16.419959999999996 -1.0 -0.56 20.3666
24.53898 -1.78 -0.56 33.8983
8.493384 -3.12 -0.56 7.15564
8.493384 -3.14 -0.56 7.15564
21.64188 -3.58 -0.56 29.0698
21.64188 -3.6 -0.56 29.0698
21.64188 -3.62 -0.56 29.0698
20.4822 -3.64 -0.56 27.137
15.83916 -3.72 -0.56 19.3986
13.25658 -3.82 -0.56 15.0943
13.25658 -3.84 -0.56 15.0943
12.933599999999998 -4.48 -0.56 14.556
12.933599999999998 -4.5 -0.56 14.556
12.63288 -4.56 -0.56 14.0548
12.63288 -4.66 -0.56 14.0548
13.25658 -5.08 -0.56 15.0943
18.57126 -5.16 -0.56 23.9521
18.57126 -5.18 -0.56 23.9521
15.3111 -6.52 -0.56 18.5185
31.28802 3.94 -0.58 45.1467
28.590239999999998 3.68 -0.58 40.6504
22.97934 2.36 -0.58 31.2989
21.64188 1.94 -0.58 29.0698
21.64188 1.92 -0.58 29.0698
21.64188 1.54 -0.58 29.0698
18.57126 1.46 -0.58 23.9521
13.979940000000001 1.4 -0.58 16.2999
19.467180000000003 1.32 -0.58 25.4453
22.97934 1.14 -0.58 31.2989
17.77464 0.9 -0.58 22.6244
18.57126 0.48 -0.58 23.9521
18.57126 0.32 -0.58 23.9521
17.77464 0.3 -0.58 22.6244
17.77464 0.28 -0.58 22.6244
18.57126 0.12 -0.58 23.9521
14.82888 0.1 -0.58 17.7148
18.57126 0.04 -0.58 23.9521
9.406074 -0.38 -0.58 8.67679
34.65684 -0.88 -0.58 50.7614
16.419959999999996 -1.06 -0.58 20.3666
16.419959999999996 -1.08 -0.58 20.3666
16.419959999999996 -1.1 -0.58 20.3666
12.933599999999998 -1.18 -0.58 14.556
26.38116 -1.8 -0.58 36.9686
26.38116 -1.82 -0.58 36.9686
26.38116 -1.84 -0.58 36.9686
20.4822 -1.9 -0.58 27.137
19.467180000000003 -1.94 -0.58 25.4453
19.467180000000003 -1.96 -0.58 25.4453
28.590239999999998 -2.76 -0.58 40.6504
20.4822 -2.92 -0.58 27.137
20.4822 -2.94 -0.58 27.137
13.6044 -3.22 -0.58 15.674
13.6044 -3.24 -0.58 15.674
13.6044 -3.28 -0.58 15.674
13.6044 -3.3 -0.58 15.674
15.83916 -3.68 -0.58 19.3986
15.83916 -3.7 -0.58 19.3986
15.83916 -3.74 -0.58 19.3986
13.25658 -3.82 -0.58 15.0943
13.25658 -3.84 -0.58 15.0943
13.25658 -3.86 -0.58 15.0943
13.25658 -3.88 -0.58 15.0943
11.843340000000001 -3.94 -0.58 12.7389
12.933599999999998 -4.48 -0.58 14.556
12.933599999999998 -4.5 -0.58 14.556
12.63288 -4.56 -0.58 14.0548
12.63288 -4.66 -0.58 14.0548
13.25658 -5.02 -0.58 15.0943
13.25658 -5.08 -0.58 15.0943
13.25658 -5.1 -0.58 15.0943
15.83916 -6.22 -0.58 19.3986
15.3111 -6.32 -0.58 18.5185
15.3111 -6.52 -0.58 18.5185
15.3111 -6.54 -0.58 18.5185
28.590239999999998 5.02 -0.6 40.6504
31.28802 3.94 -0.6 45.1467
28.590239999999998 3.68 -0.6 40.6504
24.53898 2.9 -0.6 33.8983
26.38116 2.88 -0.6 36.9686
26.38116 2.86 -0.6 36.9686
21.64188 1.94 -0.6 29.0698
21.64188 1.6 -0.6 29.0698
24.53898 0.82 -0.6 33.8983
18.57126 0.76 -0.6 23.9521
16.419959999999996 0.64 -0.6 20.3666
18.57126 0.48 -0.6 23.9521
18.57126 0.32 -0.6 23.9521
18.57126 0.3 -0.6 23.9521
12.63288 0.14 -0.6 14.0548
12.63288 0.12 -0.6 14.0548
17.06172 -0.02 -0.6 21.4362
17.06172 -0.04 -0.6 21.4362
17.06172 -0.06 -0.6 21.4362
13.979940000000001 -0.14 -0.6 16.2999
38.9826 -0.86 -0.6 57.971
38.9826 -0.88 -0.6 57.971
16.419959999999996 -1.06 -0.6 20.3666
16.419959999999996 -1.08 -0.6 20.3666
16.419959999999996 -1.1 -0.6 20.3666
31.28802 -1.2 -0.6 45.1467
31.28802 -1.22 -0.6 45.1467
16.419959999999996 -1.24 -0.6 20.3666
12.933599999999998 -1.26 -0.6 14.556
11.843340000000001 -1.28 -0.6 12.7389
17.06172 -1.36 -0.6 21.4362
17.06172 -1.38 -0.6 21.4362
26.38116 -1.84 -0.6 36.9686
19.467180000000003 -1.92 -0.6 25.4453
19.467180000000003 -1.94 -0.6 25.4453
18.57126 -1.96 -0.6 23.9521
19.467180000000003 -2.32 -0.6 25.4453
19.467180000000003 -2.66 -0.6 25.4453
21.64188 -2.92 -0.6 29.0698
21.64188 -2.94 -0.6 29.0698
20.4822 -2.96 -0.6 27.137
26.38116 -3.44 -0.6 36.9686
26.38116 -3.46 -0.6 36.9686
26.38116 -3.48 -0.6 36.9686
15.83916 -3.7 -0.6 19.3986
13.25658 -3.82 -0.6 15.0943
13.25658 -3.84 -0.6 15.0943
13.25658 -3.86 -0.6 15.0943
12.933599999999998 -4.26 -0.6 14.556
12.933599999999998 -4.28 -0.6 14.556
12.933599999999998 -4.48 -0.6 14.556
12.933599999999998 -4.5 -0.6 14.556
12.63288 -4.56 -0.6 14.0548
12.63288 -4.66 -0.6 14.0548
13.25658 -4.8 -0.6 15.0943
13.25658 -4.82 -0.6 15.0943
13.25658 -5.02 -0.6 15.0943
13.25658 -5.08 -0.6 15.0943
13.25658 -5.1 -0.6 15.0943
12.933599999999998 -5.14 -0.6 14.556
15.3111 -5.28 -0.6 18.5185
15.3111 -5.3 -0.6 18.5185
15.3111 -5.32 -0.6 18.5185
16.419959999999996 -5.42 -0.6 20.3666
16.419959999999996 -5.44 -0.6 20.3666
15.83916 -5.46 -0.6 19.3986
15.83916 -5.48 -0.6 19.3986
15.3111 -5.5 -0.6 18.5185
13.6044 -5.56 -0.6 15.674
13.6044 -5.88 -0.6 15.674
13.6044 -5.9 -0.6 15.674
15.3111 -6.12 -0.6 18.5185
15.3111 -6.52 -0.6 18.5185
15.3111 -6.54 -0.6 18.5185
28.590239999999998 4.98 -0.62 40.6504
28.590239999999998 4.96 -0.62 40.6504
28.590239999999998 3.68 -0.62 40.6504
24.53898 2.94 -0.62 33.8983
24.53898 2.9 -0.62 33.8983
26.38116 2.88 -0.62 36.9686
26.38116 2.86 -0.62 36.9686
24.53898 2.62 -0.62 33.8983
21.64188 1.94 -0.62 29.0698
21.64188 1.6 -0.62 29.0698
21.64188 1.58 -0.62 29.0698
18.57126 0.74 -0.62 23.9521
18.57126 0.72 -0.62 23.9521
18.57126 0.6 -0.62 23.9521
18.57126 0.3 -0.62 23.9521
17.06172 -0.06 -0.62 21.4362
17.06172 -0.08 -0.62 21.4362
13.979940000000001 -0.14 -0.62 16.2999
13.979940000000001 -0.16 -0.62 16.2999
38.9826 -0.86 -0.62 57.971
38.9826 -0.88 -0.62 57.971
24.53898 -0.94 -0.62 33.8983
16.419959999999996 -1.06 -0.62 20.3666
16.419959999999996 -1.08 -0.62 20.3666
16.419959999999996 -1.1 -0.62 20.3666
31.28802 -1.2 -0.62 45.1467
31.28802 -1.22 -0.62 45.1467
12.933599999999998 -1.26 -0.62 14.556
11.843340000000001 -1.28 -0.62 12.7389
11.843340000000001 -1.3 -0.62 12.7389
17.06172 -1.38 -0.62 21.4362
17.06172 -1.4 -0.62 21.4362
15.83916 -1.42 -0.62 19.3986
10.16718 -1.46 -0.62 9.9453
44.74056 -1.76 -0.62 67.5676
18.57126 -1.96 -0.62 23.9521
7.378806 -2.02 -0.62 5.29801
19.467180000000003 -2.52 -0.62 25.4453
26.38116 -2.86 -0.62 36.9686
13.6044 -3.22 -0.62 15.674
13.6044 -3.24 -0.62 15.674
15.83916 -3.7 -0.62 19.3986
13.25658 -3.82 -0.62 15.0943
13.25658 -3.84 -0.62 15.0943
12.933599999999998 -4.46 -0.62 14.556
12.933599999999998 -4.48 -0.62 14.556
12.63288 -4.56 -0.62 14.0548
12.63288 -4.64 -0.62 14.0548
12.63288 -4.66 -0.62 14.0548
13.25658 -5.0 -0.62 15.0943
13.25658 -5.02 -0.62 15.0943
12.933599999999998 -5.08 -0.62 14.556
13.25658 -5.1 -0.62 15.0943
16.419959999999996 -5.22 -0.62 20.3666
15.83916 -5.24 -0.62 19.3986
15.3111 -5.32 -0.62 18.5185
13.6044 -5.86 -0.62 15.674
13.6044 -5.88 -0.62 15.674
13.6044 -5.9 -0.62 15.674
15.3111 -6.1 -0.62 18.5185
15.3111 -6.12 -0.62 18.5185
15.3111 -6.54 -0.62 18.5185
28.590239999999998 3.38 -0.64 40.6504
28.590239999999998 3.36 -0.64 40.6504
26.38116 3.26 -0.64 36.9686
24.53898 2.94 -0.64 33.8983
26.38116 2.88 -0.64 36.9686
26.38116 2.86 -0.64 36.9686
24.53898 2.62 -0.64 33.8983
24.53898 2.58 -0.64 33.8983
24.53898 2.56 -0.64 33.8983
22.97934 2.3 -0.64 31.2989
21.64188 1.84 -0.64 29.0698
18.57126 0.72 -0.64 23.9521
18.57126 0.7 -0.64 23.9521
18.57126 0.66 -0.64 23.9521
38.9826 -0.84 -0.64 57.971
22.97934 -0.94 -0.64 31.2989
22.97934 -0.96 -0.64 31.2989
16.419959999999996 -1.1 -0.64 20.3666
11.843340000000001 -1.28 -0.64 12.7389
11.843340000000001 -1.3 -0.64 12.7389
17.06172 -1.38 -0.64 21.4362
17.06172 -1.4 -0.64 21.4362
15.83916 -1.42 -0.64 19.3986
14.386740000000001 -1.44 -0.64 16.9779
38.9826 -1.5 -0.64 57.971
24.53898 -1.66 -0.64 33.8983
24.53898 -1.68 -0.64 33.8983
24.53898 -1.7 -0.64 33.8983
22.97934 -1.88 -0.64 31.2989
18.57126 -1.96 -0.64 23.9521
26.38116 -2.16 -0.64 36.9686
19.467180000000003 -2.24 -0.64 25.4453
22.97934 -2.38 -0.64 31.2989
22.97934 -2.88 -0.64 31.2989
22.97934 -2.9 -0.64 31.2989
18.57126 -3.0 -0.64 23.9521
13.6044 -3.22 -0.64 15.674
19.467180000000003 -3.6 -0.64 25.4453
13.6044 -3.72 -0.64 15.674
13.25658 -3.8 -0.64 15.0943
13.25658 -3.82 -0.64 15.0943
13.25658 -3.84 -0.64 15.0943
13.25658 -4.44 -0.64 15.0943
13.25658 -4.46 -0.64 15.0943
13.25658 -4.48 -0.64 15.0943
12.63288 -4.56 -0.64 14.0548
12.63288 -4.64 -0.64 14.0548
12.63288 -4.66 -0.64 14.0548
12.63288 -4.68 -0.64 14.0548
13.25658 -5.1 -0.64 15.0943
13.25658 -5.66 -0.64 15.0943
13.25658 -5.8 -0.64 15.0943
13.6044 -5.82 -0.64 15.674
13.6044 -5.88 -0.64 15.674
15.3111 -6.1 -0.64 18.5185
15.3111 -6.12 -0.64 18.5185
15.83916 -6.14 -0.64 19.3986
15.83916 -6.18 -0.64 19.3986
15.83916 -6.2 -0.64 19.3986
15.83916 -6.32 -0.64 19.3986
28.590239999999998 3.38 -0.66 40.6504
28.590239999999998 3.36 -0.66 40.6504
28.590239999999998 3.34 -0.66 40.6504
28.590239999999998 3.3 -0.66 40.6504
26.38116 3.26 -0.66 36.9686
26.38116 3.1 -0.66 36.9686
26.38116 3.08 -0.66 36.9686
24.53898 2.94 -0.66 33.8983
26.38116 2.88 -0.66 36.9686
26.38116 2.86 -0.66 36.9686
24.53898 2.56 -0.66 33.8983
22.97934 2.3 -0.66 31.2989
22.97934 2.28 -0.66 31.2989
21.64188 1.84 -0.66 29.0698
21.64188 1.62 -0.66 29.0698
21.64188 1.6 -0.66 29.0698
18.57126 0.7 -0.66 23.9521
17.77464 0.52 -0.66 22.6244
17.77464 0.5 -0.66 22.6244
17.77464 0.46 -0.66 22.6244
124.19999999999999 0.44 -0.66 200.0
17.77464 0.22 -0.66 22.6244
17.77464 0.2 -0.66 22.6244
16.419959999999996 -0.22 -0.66 20.3666
16.419959999999996 -0.52 -0.66 20.3666
14.386740000000001 -0.58 -0.66 16.9779
124.19999999999999 -0.76 -0.66 200.0
22.97934 -0.94 -0.66 31.2989
15.83916 -1.38 -0.66 19.3986
34.65684 -2.08 -0.66 50.7614
34.65684 -2.1 -0.66 50.7614
28.590239999999998 -2.12 -0.66 40.6504
26.38116 -2.16 -0.66 36.9686
19.467180000000003 -2.22 -0.66 25.4453
19.467180000000003 -2.24 -0.66 25.4453
19.467180000000003 -2.26 -0.66 25.4453
22.97934 -2.4 -0.66 31.2989
22.97934 -2.42 -0.66 31.2989
19.467180000000003 -2.56 -0.66 25.4453
19.467180000000003 -2.68 -0.66 25.4453
24.53898 -2.9 -0.66 33.8983
15.83916 -3.06 -0.66 19.3986
15.83916 -3.08 -0.66 19.3986
15.83916 -3.1 -0.66 19.3986
13.6044 -3.16 -0.66 15.674
13.6044 -3.18 -0.66 15.674
19.467180000000003 -3.6 -0.66 25.4453
19.467180000000003 -3.62 -0.66 25.4453
13.6044 -3.72 -0.66 15.674
13.25658 -3.8 -0.66 15.0943
13.25658 -3.82 -0.66 15.0943
13.25658 -3.84 -0.66 15.0943
17.77464 -4.0 -0.66 22.6244
13.25658 -4.44 -0.66 15.0943
13.25658 -4.46 -0.66 15.0943
12.63288 -4.56 -0.66 14.0548
12.63288 -4.64 -0.66 14.0548
12.63288 -4.66 -0.66 14.0548
12.63288 -4.68 -0.66 14.0548
10.316220000000001 -4.8 -0.66 10.1937
10.316220000000001 -4.82 -0.66 10.1937
13.25658 -5.1 -0.66 15.0943
13.25658 -5.12 -0.66 15.0943
13.6044 -5.82 -0.66 15.674
15.83916 -6.18 -0.66 19.3986
15.83916 -6.28 -0.66 19.3986
15.83916 -6.3 -0.66 19.3986
15.83916 -6.32 -0.66 19.3986
24.53898 4.68 -0.68 33.8983
26.38116 2.88 -0.68 36.9686
26.38116 2.86 -0.68 36.9686
24.53898 2.56 -0.68 33.8983
24.53898 2.54 -0.68 33.8983
22.97934 2.28 -0.68 31.2989
21.64188 1.92 -0.68 29.0698
21.64188 1.84 -0.68 29.0698
21.64188 1.62 -0.68 29.0698
21.64188 1.6 -0.68 29.0698
20.4822 1.42 -0.68 27.137
20.4822 1.38 -0.68 27.137
20.4822 1.36 -0.68 27.137
19.467180000000003 0.92 -0.68 25.4453
19.467180000000003 0.9 -0.68 25.4453
19.467180000000003 0.88 -0.68 25.4453
18.57126 0.68 -0.68 23.9521
17.77464 0.5 -0.68 22.6244
18.57126 0.48 -0.68 23.9521
17.77464 0.24 -0.68 22.6244
17.77464 0.22 -0.68 22.6244
12.63288 0.06 -0.68 14.0548
16.419959999999996 -0.2 -0.68 20.3666
124.19999999999999 -0.76 -0.68 200.0
44.74056 -0.82 -0.68 67.5676
22.97934 -0.94 -0.68 31.2989
17.06172 -1.04 -0.68 21.4362
16.419959999999996 -1.06 -0.68 20.3666
17.06172 -1.46 -0.68 21.4362
17.06172 -1.48 -0.68 21.4362
20.4822 -1.58 -0.68 27.137
22.97934 -1.62 -0.68 31.2989
19.467180000000003 -2.24 -0.68 25.4453
19.467180000000003 -2.56 -0.68 25.4453
19.467180000000003 -2.68 -0.68 25.4453
22.97934 -2.94 -0.68 31.2989
19.467180000000003 -2.96 -0.68 25.4453
13.6044 -3.16 -0.68 15.674
13.6044 -3.18 -0.68 15.674
13.6044 -3.2 -0.68 15.674
10.472879999999998 -3.42 -0.68 10.4548
10.472879999999998 -3.44 -0.68 10.4548
10.472879999999998 -3.46 -0.68 10.4548
15.83916 -3.66 -0.68 19.3986
13.6044 -3.68 -0.68 15.674
13.6044 -3.7 -0.68 15.674
13.25658 -3.72 -0.68 15.0943
13.25658 -3.8 -0.68 15.0943
13.25658 -3.82 -0.68 15.0943
13.25658 -3.84 -0.68 15.0943
13.25658 -4.44 -0.68 15.0943
12.63288 -4.56 -0.68 14.0548
12.933599999999998 -4.62 -0.68 14.556
12.63288 -4.64 -0.68 14.0548
12.63288 -4.66 -0.68 14.0548
12.63288 -4.68 -0.68 14.0548
17.06172 -5.04 -0.68 21.4362
17.06172 -5.06 -0.68 21.4362
16.419959999999996 -5.08 -0.68 20.3666
15.83916 -5.1 -0.68 19.3986
13.25658 -5.12 -0.68 15.0943
16.419959999999996 -5.26 -0.68 20.3666
16.419959999999996 -5.28 -0.68 20.3666
17.06172 -5.38 -0.68 21.4362
17.06172 -5.4 -0.68 21.4362
17.06172 -5.42 -0.68 21.4362
16.419959999999996 -5.44 -0.68 20.3666
15.3111 -5.48 -0.68 18.5185
14.82888 -5.5 -0.68 17.7148
14.82888 -5.52 -0.68 17.7148
14.386740000000001 -5.54 -0.68 16.9779
13.979940000000001 -5.56 -0.68 16.2999
13.6044 -5.58 -0.68 15.674
13.6044 -5.6 -0.68 15.674
24.53898 4.6 -0.7 33.8983
26.38116 3.08 -0.7 36.9686
26.38116 3.06 -0.7 36.9686
26.38116 2.88 -0.7 36.9686
26.38116 2.86 -0.7 36.9686
13.979940000000001 2.7 -0.7 16.2999
22.97934 2.62 -0.7 31.2989
24.53898 2.56 -0.7 33.8983
24.53898 2.54 -0.7 33.8983
21.64188 1.92 -0.7 29.0698
21.64188 1.84 -0.7 29.0698
20.4822 1.38 -0.7 27.137
20.4822 1.36 -0.7 27.137
19.467180000000003 1.3 -0.7 25.4453
16.419959999999996 1.28 -0.7 20.3666
16.419959999999996 1.26 -0.7 20.3666
19.467180000000003 0.92 -0.7 25.4453
19.467180000000003 0.9 -0.7 25.4453
24.53898 0.34 -0.7 33.8983
17.77464 0.26 -0.7 22.6244
17.77464 0.24 -0.7 22.6244
12.63288 0.08 -0.7 14.0548
12.63288 0.06 -0.7 14.0548
16.419959999999996 -0.76 -0.7 20.3666
14.386740000000001 -0.82 -0.7 16.9779
14.386740000000001 -0.84 -0.7 16.9779
17.06172 -1.46 -0.7 21.4362
20.4822 -1.62 -0.7 27.137
19.467180000000003 -2.54 -0.7 25.4453
19.467180000000003 -2.56 -0.7 25.4453
22.97934 -2.9 -0.7 31.2989
19.467180000000003 -2.96 -0.7 25.4453
13.6044 -3.18 -0.7 15.674
13.6044 -3.2 -0.7 15.674
13.6044 -3.22 -0.7 15.674
13.6044 -3.7 -0.7 15.674
13.6044 -3.72 -0.7 15.674
13.25658 -3.8 -0.7 15.0943
13.25658 -3.82 -0.7 15.0943
12.63288 -4.64 -0.7 14.0548
16.419959999999996 -5.08 -0.7 20.3666
15.83916 -5.1 -0.7 19.3986
15.83916 -5.12 -0.7 19.3986
14.82888 -5.52 -0.7 17.7148
13.979940000000001 -5.56 -0.7 16.2999
13.6044 -5.58 -0.7 15.674
13.6044 -5.6 -0.7 15.674
22.97934 2.62 -0.72 31.2989
24.53898 2.56 -0.72 33.8983
24.53898 2.54 -0.72 33.8983
26.38116 2.46 -0.72 36.9686
21.64188 1.84 -0.72 29.0698
21.64188 1.82 -0.72 29.0698
20.4822 1.46 -0.72 27.137
20.4822 1.36 -0.72 27.137
20.4822 1.34 -0.72 27.137
24.53898 0.8 -0.72 33.8983
18.57126 0.74 -0.72 23.9521
13.979940000000001 0.62 -0.72 16.2999
24.53898 0.36 -0.72 33.8983
24.53898 0.34 -0.72 33.8983
17.77464 0.26 -0.72 22.6244
17.77464 0.2 -0.72 22.6244
17.06172 0.14 -0.72 21.4362
13.6044 0.12 -0.72 15.674
12.63288 0.08 -0.72 14.0548
17.06172 -1.48 -0.72 21.4362
17.06172 -1.5 -0.72 21.4362
20.4822 -2.54 -0.72 27.137
13.6044 -3.18 -0.72 15.674
13.6044 -3.2 -0.72 15.674
13.6044 -3.22 -0.72 15.674
12.63288 -4.64 -0.72 14.0548
17.77464 -5.02 -0.72 22.6244
17.06172 -5.04 -0.72 21.4362
26.38116 2.92 -0.74 36.9686
22.97934 2.62 -0.74 31.2989
24.53898 2.58 -0.74 33.8983
24.53898 2.56 -0.74 33.8983
24.53898 2.38 -0.74 33.8983
21.64188 1.84 -0.74 29.0698
21.64188 1.82 -0.74 29.0698
20.4822 1.46 -0.74 27.137
20.4822 1.36 -0.74 27.137
19.467180000000003 1.34 -0.74 25.4453
19.467180000000003 0.8 -0.74 25.4453
18.57126 0.74 -0.74 23.9521
18.57126 0.72 -0.74 23.9521
17.77464 0.26 -0.74 22.6244
17.77464 0.22 -0.74 22.6244
18.57126 -0.64 -0.74 23.9521
16.419959999999996 -0.7 -0.74 20.3666
16.419959999999996 -0.72 -0.74 20.3666
16.419959999999996 -0.74 -0.74 20.3666
17.06172 -1.48 -0.74 21.4362
17.06172 -1.5 -0.74 21.4362
20.4822 -2.12 -0.74 27.137
20.4822 -2.14 -0.74 27.137
20.4822 -2.16 -0.74 27.137
13.6044 -3.18 -0.74 15.674
13.6044 -3.2 -0.74 15.674
13.6044 -3.22 -0.74 15.674
12.08952 -3.3 -0.74 13.1492
12.08952 -3.32 -0.74 13.1492
13.979940000000001 -4.52 -0.74 16.2999
13.6044 -4.54 -0.74 15.674
12.933599999999998 -4.58 -0.74 14.556
13.25658 -5.88 -0.74 15.0943
15.83916 -5.96 -0.74 19.3986
24.53898 2.58 -0.76 33.8983
24.53898 2.56 -0.76 33.8983
22.97934 2.28 -0.76 31.2989
22.97934 2.26 -0.76 31.2989
24.53898 2.02 -0.76 33.8983
21.64188 1.84 -0.76 29.0698
21.64188 1.82 -0.76 29.0698
20.4822 1.46 -0.76 27.137
20.4822 1.36 -0.76 27.137
20.4822 1.34 -0.76 27.137
21.64188 0.84 -0.76 29.0698
19.467180000000003 0.76 -0.76 25.4453
18.57126 0.7 -0.76 23.9521
19.467180000000003 0.4 -0.76 25.4453
16.419959999999996 -0.54 -0.76 20.3666
16.419959999999996 -0.56 -0.76 20.3666
15.83916 -0.66 -0.76 19.3986
9.760704 -1.1 -0.76 9.26784
17.06172 -1.48 -0.76 21.4362
20.4822 -2.16 -0.76 27.137
22.97934 -2.54 -0.76 31.2989
20.4822 -2.58 -0.76 27.137
20.4822 -2.6 -0.76 27.137
13.6044 -3.22 -0.76 15.674
12.933599999999998 -4.58 -0.76 14.556
12.63288 -4.6 -0.76 14.0548
12.63288 -4.62 -0.76 14.0548
12.933599999999998 -4.94 -0.76 14.556
12.933599999999998 -4.96 -0.76 14.556
16.419959999999996 -5.32 -0.76 20.3666
15.83916 -5.98 -0.76 19.3986
22.97934 2.28 -0.78 31.2989
21.64188 1.84 -0.78 29.0698
20.4822 1.48 -0.78 27.137
20.4822 1.46 -0.78 27.137
20.4822 1.36 -0.78 27.137
20.4822 1.34 -0.78 27.137
19.467180000000003 0.84 -0.78 25.4453
18.57126 0.7 -0.78 23.9521
13.25658 0.56 -0.78 15.0943
26.38116 -0.4 -0.78 36.9686
21.64188 -0.44 -0.78 29.0698
16.419959999999996 -0.54 -0.78 20.3666
16.419959999999996 -0.56 -0.78 20.3666
15.83916 -0.66 -0.78 19.3986
15.83916 -0.68 -0.78 19.3986
15.83916 -0.98 -0.78 19.3986
20.4822 -2.62 -0.78 27.137
18.57126 -2.64 -0.78 23.9521
12.933599999999998 -4.12 -0.78 14.556
12.63288 -4.14 -0.78 14.0548
22.97934 2.34 -0.8 31.2989
22.97934 2.32 -0.8 31.2989
22.97934 2.3 -0.8 31.2989
22.97934 2.24 -0.8 31.2989
21.64188 1.84 -0.8 29.0698
20.4822 1.46 -0.8 27.137
20.4822 1.42 -0.8 27.137
20.4822 1.36 -0.8 27.137
18.57126 0.88 -0.8 23.9521
19.467180000000003 0.84 -0.8 25.4453
18.57126 0.72 -0.8 23.9521
18.57126 0.7 -0.8 23.9521
15.3111 0.64 -0.8 18.5185
15.3111 0.62 -0.8 18.5185
22.97934 0.18 -0.8 31.2989
17.77464 0.12 -0.8 22.6244
13.6044 0.02 -0.8 15.674
13.6044 0.0 -0.8 15.674
20.4822 -0.46 -0.8 27.137
17.06172 -0.52 -0.8 21.4362
15.83916 -0.68 -0.8 19.3986
15.83916 -0.7 -0.8 19.3986
26.38116 -0.82 -0.8 36.9686
13.979940000000001 -2.74 -0.8 16.2999
13.979940000000001 -2.76 -0.8 16.2999
13.979940000000001 -2.78 -0.8 16.2999
13.979940000000001 -3.52 -0.8 16.2999
13.6044 -3.54 -0.8 15.674
13.6044 -3.56 -0.8 15.674
13.25658 -3.58 -0.8 15.0943
13.25658 -3.6 -0.8 15.0943
12.933599999999998 -3.64 -0.8 14.556
13.25658 -3.66 -0.8 15.0943
12.933599999999998 -3.68 -0.8 14.556
13.979940000000001 -4.06 -0.8 16.2999
13.6044 -4.08 -0.8 15.674
12.933599999999998 -4.1 -0.8 14.556
12.933599999999998 -4.12 -0.8 14.556
12.63288 -4.14 -0.8 14.0548
12.63288 -4.16 -0.8 14.0548
12.933599999999998 -4.22 -0.8 14.556
12.933599999999998 -4.24 -0.8 14.556
12.63288 -4.26 -0.8 14.0548
11.394240000000002 -4.28 -0.8 11.9904
11.18892 -4.3 -0.8 11.6482
13.25658 -5.7 -0.8 15.0943
13.25658 -5.72 -0.8 15.0943
21.64188 1.86 -0.82 29.0698
21.64188 1.84 -0.82 29.0698
20.4822 1.46 -0.82 27.137
20.4822 1.42 -0.82 27.137
20.4822 1.36 -0.82 27.137
20.4822 1.34 -0.82 27.137
18.57126 0.84 -0.82 23.9521
18.57126 0.72 -0.82 23.9521
18.57126 0.7 -0.82 23.9521
15.3111 0.64 -0.82 18.5185
15.3111 0.62 -0.82 18.5185
22.97934 0.2 -0.82 31.2989
22.97934 0.18 -0.82 31.2989
17.77464 0.12 -0.82 22.6244
17.77464 0.1 -0.82 22.6244
17.06172 -0.5 -0.82 21.4362
16.419959999999996 -0.52 -0.82 20.3666
15.83916 -0.7 -0.82 19.3986
9.093966 -1.0 -0.82 8.15661
38.9826 -1.12 -0.82 57.971
38.9826 -1.14 -0.82 57.971
26.38116 -1.34 -0.82 36.9686
16.419959999999996 -1.5 -0.82 20.3666
16.419959999999996 -1.52 -0.82 20.3666
24.53898 -1.84 -0.82 33.8983
14.386740000000001 -2.72 -0.82 16.9779
13.979940000000001 -2.74 -0.82 16.2999
13.979940000000001 -2.76 -0.82 16.2999
13.6044 -3.56 -0.82 15.674
13.25658 -3.58 -0.82 15.0943
13.25658 -3.6 -0.82 15.0943
13.25658 -3.66 -0.82 15.0943
12.933599999999998 -3.68 -0.82 14.556
12.933599999999998 -3.7 -0.82 14.556
11.61198 -3.72 -0.82 12.3533
11.394240000000002 -3.74 -0.82 11.9904
11.18892 -3.76 -0.82 11.6482
12.933599999999998 -4.12 -0.82 14.556
12.63288 -4.14 -0.82 14.0548
12.63288 -4.16 -0.82 14.0548
12.933599999999998 -4.22 -0.82 14.556
12.933599999999998 -4.24 -0.82 14.556
11.394240000000002 -4.28 -0.82 11.9904
11.18892 -4.3 -0.82 11.6482
11.18892 -4.32 -0.82 11.6482
11.18892 -4.34 -0.82 11.6482
12.63288 -4.58 -0.82 14.0548
12.63288 -4.64 -0.82 14.0548
13.25658 -4.78 -0.82 15.0943
12.933599999999998 -4.8 -0.82 14.556
12.933599999999998 -4.82 -0.82 14.556
12.63288 -4.84 -0.82 14.0548
12.63288 -4.86 -0.82 14.0548
13.25658 -5.72 -0.82 15.0943
13.25658 -5.88 -0.82 15.0943
21.64188 1.86 -0.84 29.0698
20.4822 1.46 -0.84 27.137
20.4822 1.36 -0.84 27.137
20.4822 1.34 -0.84 27.137
18.57126 0.86 -0.84 23.9521
18.57126 0.84 -0.84 23.9521
18.57126 0.82 -0.84 23.9521
18.57126 0.74 -0.84 23.9521
18.57126 0.7 -0.84 23.9521
11.18892 0.46 -0.84 11.6482
22.97934 0.2 -0.84 31.2989
22.97934 0.18 -0.84 31.2989
17.77464 0.12 -0.84 22.6244
17.77464 0.1 -0.84 22.6244
19.467180000000003 -0.5 -0.84 25.4453
22.97934 -0.58 -0.84 31.2989
16.419959999999996 -0.66 -0.84 20.3666
9.093966 -1.0 -0.84 8.15661
38.9826 -1.12 -0.84 57.971
38.9826 -1.14 -0.84 57.971
17.06172 -1.34 -0.84 21.4362
17.06172 -1.36 -0.84 21.4362
17.06172 -1.38 -0.84 21.4362
16.419959999999996 -1.5 -0.84 20.3666
16.419959999999996 -1.52 -0.84 20.3666
17.06172 -1.98 -0.84 21.4362
17.06172 -2.14 -0.84 21.4362
14.386740000000001 -2.72 -0.84 16.9779
13.979940000000001 -2.74 -0.84 16.2999
12.63288 -4.56 -0.84 14.0548
12.63288 -4.58 -0.84 14.0548
12.63288 -4.6 -0.84 14.0548
13.25658 -4.78 -0.84 15.0943
12.933599999999998 -4.8 -0.84 14.556
12.933599999999998 -4.82 -0.84 14.556
12.63288 -4.84 -0.84 14.0548
12.63288 -4.86 -0.84 14.0548
12.933599999999998 -5.06 -0.84 14.556
13.25658 -5.08 -0.84 15.0943
13.25658 -5.72 -0.84 15.0943
13.25658 -5.74 -0.84 15.0943
20.4822 1.44 -0.86 27.137
20.4822 1.38 -0.86 27.137
20.4822 1.36 -0.86 27.137
21.64188 1.1 -0.86 29.0698
19.467180000000003 0.84 -0.86 25.4453
18.57126 0.74 -0.86 23.9521
18.57126 0.7 -0.86 23.9521
24.53898 0.22 -0.86 33.8983
24.53898 0.2 -0.86 33.8983
17.77464 0.12 -0.86 22.6244
17.77464 0.1 -0.86 22.6244
17.77464 0.08 -0.86 22.6244
24.53898 -0.56 -0.86 33.8983
24.53898 -0.58 -0.86 33.8983
16.419959999999996 -0.66 -0.86 20.3666
16.419959999999996 -0.68 -0.86 20.3666
38.9826 -1.12 -0.86 57.971
38.9826 -1.14 -0.86 57.971
38.9826 -1.16 -0.86 57.971
17.06172 -1.34 -0.86 21.4362
17.06172 -1.36 -0.86 21.4362
17.06172 -1.38 -0.86 21.4362
16.419959999999996 -1.5 -0.86 20.3666
16.419959999999996 -1.52 -0.86 20.3666
16.419959999999996 -1.54 -0.86 20.3666
17.06172 -1.94 -0.86 21.4362
17.06172 -1.96 -0.86 21.4362
17.06172 -1.98 -0.86 21.4362
14.386740000000001 -2.72 -0.86 16.9779
13.979940000000001 -3.0 -0.86 16.2999
12.63288 -4.58 -0.86 14.0548
12.63288 -4.66 -0.86 14.0548
12.933599999999998 -4.8 -0.86 14.556
12.933599999999998 -4.82 -0.86 14.556
12.63288 -4.84 -0.86 14.0548
16.419959999999996 -5.42 -0.86 20.3666
11.843340000000001 -5.94 -0.86 12.7389
11.843340000000001 -5.96 -0.86 12.7389
11.843340000000001 -5.98 -0.86 12.7389
20.4822 1.38 -0.88 27.137
20.4822 1.36 -0.88 27.137
16.419959999999996 1.3 -0.88 20.3666
12.3522 1.16 -0.88 13.587
18.57126 0.74 -0.88 23.9521
18.57126 0.72 -0.88 23.9521
24.53898 0.22 -0.88 33.8983
24.53898 0.2 -0.88 33.8983
17.77464 0.12 -0.88 22.6244
17.77464 0.1 -0.88 22.6244
24.53898 -0.54 -0.88 33.8983
24.53898 -0.56 -0.88 33.8983
16.419959999999996 -0.66 -0.88 20.3666
16.419959999999996 -0.68 -0.88 20.3666
16.419959999999996 -0.7 -0.88 20.3666
38.9826 -1.12 -0.88 57.971
38.9826 -1.14 -0.88 57.971
16.419959999999996 -1.16 -0.88 20.3666
15.83916 -1.36 -0.88 19.3986
15.83916 -1.38 -0.88 19.3986
15.83916 -1.4 -0.88 19.3986
12.63288 -1.5 -0.88 14.0548
12.63288 -1.52 -0.88 14.0548
12.63288 -1.54 -0.88 14.0548
17.06172 -1.94 -0.88 21.4362
17.06172 -1.96 -0.88 21.4362
13.979940000000001 -3.02 -0.88 16.2999
13.979940000000001 -3.04 -0.88 16.2999
12.63288 -4.64 -0.88 14.0548
12.63288 -4.66 -0.88 14.0548
12.933599999999998 -4.9 -0.88 14.556
12.933599999999998 -5.02 -0.88 14.556
16.419959999999996 -5.3 -0.88 20.3666
16.419959999999996 -5.32 -0.88 20.3666
11.843340000000001 -5.92 -0.88 12.7389
11.843340000000001 -5.94 -0.88 12.7389
11.843340000000001 -5.96 -0.88 12.7389
20.4822 3.46 -0.9 27.137
20.4822 2.36 -0.9 27.137
20.4822 2.34 -0.9 27.137
20.4822 1.44 -0.9 27.137
16.419959999999996 1.32 -0.9 20.3666
15.83916 1.3 -0.9 19.3986
24.53898 0.8 -0.9 33.8983
18.57126 0.74 -0.9 23.9521
18.57126 0.72 -0.9 23.9521
14.82888 0.64 -0.9 17.7148
14.82888 0.62 -0.9 17.7148
24.53898 0.22 -0.9 33.8983
24.53898 0.2 -0.9 33.8983
17.77464 0.1 -0.9 22.6244
17.77464 0.08 -0.9 22.6244
24.53898 -0.54 -0.9 33.8983
24.53898 -0.56 -0.9 33.8983
16.419959999999996 -0.66 -0.9 20.3666
16.419959999999996 -0.68 -0.9 20.3666
16.419959999999996 -0.7 -0.9 20.3666
15.83916 -1.14 -0.9 19.3986
15.83916 -1.16 -0.9 19.3986
15.3111 -1.18 -0.9 18.5185
15.83916 -1.36 -0.9 19.3986
15.83916 -1.38 -0.9 19.3986
15.83916 -1.4 -0.9 19.3986
10.995 -1.42 -0.9 11.325
12.63288 -1.5 -0.9 14.0548
12.63288 -1.52 -0.9 14.0548
12.63288 -1.54 -0.9 14.0548
12.3522 -1.58 -0.9 13.587
17.06172 -1.94 -0.9 21.4362
17.06172 -1.96 -0.9 21.4362
13.979940000000001 -3.04 -0.9 16.2999
13.979940000000001 -3.06 -0.9 16.2999
12.933599999999998 -4.9 -0.9 14.556
12.933599999999998 -4.92 -0.9 14.556
12.933599999999998 -5.02 -0.9 14.556
12.933599999999998 -5.04 -0.9 14.556
11.843340000000001 -5.92 -0.9 12.7389
11.843340000000001 -5.94 -0.9 12.7389
11.843340000000001 -5.96 -0.9 12.7389
11.61198 -6.02 -0.9 12.3533
11.61198 -6.06 -0.9 12.3533
26.38116 0.84 -0.92 36.9686
26.38116 0.82 -0.92 36.9686
24.53898 0.8 -0.92 33.8983
18.57126 0.74 -0.92 23.9521
18.57126 0.72 -0.92 23.9521
14.82888 0.64 -0.92 17.7148
24.53898 0.2 -0.92 33.8983
17.77464 0.1 -0.92 22.6244
17.77464 0.08 -0.92 22.6244
26.38116 -0.54 -0.92 36.9686
26.38116 -0.56 -0.92 36.9686
16.419959999999996 -0.66 -0.92 20.3666
16.419959999999996 -0.68 -0.92 20.3666
16.419959999999996 -0.7 -0.92 20.3666
15.83916 -0.72 -0.92 19.3986
8.99808 -1.18 -0.92 7.9968
8.99808 -1.2 -0.92 7.9968
10.995 -1.4 -0.92 11.325
10.995 -1.42 -0.92 11.325
12.63288 -1.5 -0.92 14.0548
12.63288 -1.52 -0.92 14.0548
12.3522 -1.58 -0.92 13.587
17.06172 -1.96 -0.92 21.4362
17.06172 -1.98 -0.92 21.4362
17.06172 -2.2 -0.92 21.4362
13.979940000000001 -2.96 -0.92 16.2999
13.6044 -3.06 -0.92 15.674
13.6044 -3.08 -0.92 15.674
13.6044 -4.46 -0.92 15.674
13.25658 -4.48 -0.92 15.0943
13.25658 -4.5 -0.92 15.0943
12.933599999999998 -4.52 -0.92 14.556
12.933599999999998 -4.54 -0.92 14.556
12.63288 -4.56 -0.92 14.0548
12.933599999999998 -4.9 -0.92 14.556
12.933599999999998 -4.92 -0.92 14.556
12.933599999999998 -5.02 -0.92 14.556
12.933599999999998 -5.04 -0.92 14.556
84.7368 -5.38 -0.92 134.228
15.3111 -5.5 -0.92 18.5185
11.843340000000001 -5.92 -0.92 12.7389
11.843340000000001 -5.94 -0.92 12.7389
11.843340000000001 -5.96 -0.92 12.7389
11.61198 -6.0 -0.92 12.3533
11.61198 -6.02 -0.92 12.3533
11.61198 -6.04 -0.92 12.3533
18.57126 0.76 -0.94 23.9521
18.57126 0.74 -0.94 23.9521
24.53898 0.22 -0.94 33.8983
24.53898 0.2 -0.94 33.8983
17.06172 0.12 -0.94 21.4362
17.06172 0.1 -0.94 21.4362
17.06172 0.08 -0.94 21.4362
26.38116 -0.54 -0.94 36.9686
26.38116 -0.56 -0.94 36.9686
15.83916 -0.68 -0.94 19.3986
15.83916 -0.7 -0.94 19.3986
15.83916 -0.72 -0.94 19.3986
8.99808 -1.18 -0.94 7.9968
8.99808 -1.2 -0.94 7.9968
17.06172 -1.96 -0.94 21.4362
17.06172 -1.98 -0.94 21.4362
17.06172 -2.2 -0.94 21.4362
26.38116 -2.7 -0.94 36.9686
24.53898 -2.72 -0.94 33.8983
14.386740000000001 -2.8 -0.94 16.9779
13.979940000000001 -2.82 -0.94 16.2999
13.6044 -2.84 -0.94 15.674
13.25658 -2.86 -0.94 15.0943
13.25658 -2.88 -0.94 15.0943
14.386740000000001 -2.94 -0.94 16.9779
14.386740000000001 -2.96 -0.94 16.9779
13.979940000000001 -2.98 -0.94 16.2999
13.6044 -3.0 -0.94 15.674
124.19999999999999 -3.94 -0.94 200.0
124.19999999999999 -3.96 -0.94 200.0
13.25658 -4.48 -0.94 15.0943
13.25658 -4.5 -0.94 15.0943
12.933599999999998 -4.52 -0.94 14.556
12.933599999999998 -4.54 -0.94 14.556
12.63288 -4.56 -0.94 14.0548
12.933599999999998 -5.04 -0.94 14.556
12.933599999999998 -5.06 -0.94 14.556
12.08952 -6.16 -0.94 13.1492
12.08952 -6.18 -0.94 13.1492
11.843340000000001 -6.2 -0.94 12.7389
11.843340000000001 -6.22 -0.94 12.7389
24.53898 0.22 -0.96 33.8983
24.53898 0.2 -0.96 33.8983
17.06172 0.12 -0.96 21.4362
17.06172 0.1 -0.96 21.4362
17.06172 0.08 -0.96 21.4362
84.7368 -0.38 -0.96 134.228
84.7368 -0.42 -0.96 134.228
84.7368 -0.44 -0.96 134.228
26.38116 -0.54 -0.96 36.9686
15.83916 -0.68 -0.96 19.3986
15.83916 -0.7 -0.96 19.3986
15.83916 -0.72 -0.96 19.3986
12.08952 -0.88 -0.96 13.1492
8.817162000000001 -1.2 -0.96 7.69527
10.811580000000001 -1.46 -0.96 11.0193
12.63288 -1.48 -0.96 14.0548
24.53898 -1.82 -0.96 33.8983
24.53898 -1.84 -0.96 33.8983
16.419959999999996 -1.98 -0.96 20.3666
26.38116 -2.68 -0.96 36.9686
14.82888 -2.76 -0.96 17.7148
14.386740000000001 -2.78 -0.96 16.9779
14.386740000000001 -2.8 -0.96 16.9779
13.979940000000001 -2.82 -0.96 16.2999
13.6044 -2.84 -0.96 15.674
13.979940000000001 -2.98 -0.96 16.2999
13.6044 -3.0 -0.96 15.674
13.6044 -3.02 -0.96 15.674
13.6044 -3.04 -0.96 15.674
12.933599999999998 -4.92 -0.96 14.556
12.933599999999998 -5.02 -0.96 14.556
12.933599999999998 -5.04 -0.96 14.556
12.933599999999998 -5.06 -0.96 14.556
12.08952 -6.12 -0.96 13.1492
12.08952 -6.14 -0.96 13.1492
12.08952 -6.16 -0.96 13.1492
18.57126 1.34 -0.98 23.9521
22.97934 0.2 -0.98 31.2989
17.06172 0.12 -0.98 21.4362
17.06172 0.1 -0.98 21.4362
17.06172 0.08 -0.98 21.4362
13.25658 -0.04 -0.98 15.0943
31.28802 -0.36 -0.98 45.1467
64.806 -0.38 -0.98 101.01
64.806 -0.42 -0.98 101.01
64.806 -0.44 -0.98 101.01
26.38116 -0.54 -0.98 36.9686
15.83916 -0.68 -0.98 19.3986
15.83916 -0.7 -0.98 19.3986
15.83916 -0.74 -0.98 19.3986
84.7368 -1.12 -0.98 134.228
8.817162000000001 -1.22 -0.98 7.69527
7.7992799999999995 -1.48 -0.98 5.9988
7.259664000000001 -1.66 -0.98 5.09944
24.53898 -1.84 -0.98 33.8983
24.53898 -1.86 -0.98 33.8983
14.386740000000001 -2.76 -0.98 16.9779
14.386740000000001 -2.78 -0.98 16.9779
14.386740000000001 -2.8 -0.98 16.9779
13.979940000000001 -2.82 -0.98 16.2999
13.6044 -3.0 -0.98 15.674
13.6044 -3.02 -0.98 15.674
13.6044 -3.06 -0.98 15.674
13.6044 -4.62 -0.98 15.674
13.25658 -4.64 -0.98 15.0943
12.933599999999998 -4.66 -0.98 14.556
12.933599999999998 -4.68 -0.98 14.556
12.63288 -4.7 -0.98 14.0548
12.3522 -4.72 -0.98 13.587
12.3522 -4.74 -0.98 13.587
12.933599999999998 -5.16 -0.98 14.556
12.933599999999998 -5.18 -0.98 14.556
12.933599999999998 -5.2 -0.98 14.556
12.08952 -6.1 -0.98 13.1492
12.08952 -6.12 -0.98 13.1492
11.18892 -6.62 -0.98 11.6482
11.18892 -6.64 -0.98 11.6482
17.77464 0.14 -1.0 22.6244
17.06172 0.12 -1.0 21.4362
17.06172 0.1 -1.0 21.4362
14.386740000000001 0.04 -1.0 16.9779
13.979940000000001 0.02 -1.0 16.2999
13.979940000000001 -0.02 -1.0 16.2999
13.25658 -0.04 -1.0 15.0943
11.61198 -0.12 -1.0 12.3533
31.28802 -0.36 -1.0 45.1467
64.806 -0.38 -1.0 101.01
64.806 -0.42 -1.0 101.01
64.806 -0.44 -1.0 101.01
26.38116 -0.52 -1.0 36.9686
26.38116 -0.54 -1.0 36.9686
16.419959999999996 -0.68 -1.0 20.3666
15.83916 -0.7 -1.0 19.3986
31.28802 -0.98 -1.0 45.1467
64.806 -1.14 -1.0 101.01
64.806 -1.16 -1.0 101.01
17.06172 -1.42 -1.0 21.4362
16.419959999999996 -1.44 -1.0 20.3666
14.386740000000001 -2.76 -1.0 16.9779
14.386740000000001 -2.78 -1.0 16.9779
13.6044 -3.04 -1.0 15.674
12.933599999999998 -4.22 -1.0 14.556
12.63288 -4.24 -1.0 14.0548
12.63288 -4.26 -1.0 14.0548
12.63288 -4.28 -1.0 14.0548
12.933599999999998 -4.4 -1.0 14.556
12.933599999999998 -4.68 -1.0 14.556
12.63288 -4.7 -1.0 14.0548
12.3522 -4.72 -1.0 13.587
12.3522 -4.74 -1.0 13.587
12.08952 -4.76 -1.0 13.1492
12.08952 -4.78 -1.0 13.1492
12.08952 -6.08 -1.0 13.1492
11.18892 -6.64 -1.0 11.6482
11.18892 -6.66 -1.0 11.6482
11.18892 -6.68 -1.0 11.6482
17.06172 0.12 -1.02 21.4362
14.386740000000001 0.04 -1.02 16.9779
13.979940000000001 0.02 -1.02 16.2999
13.979940000000001 -0.02 -1.02 16.2999
11.61198 -0.1 -1.02 12.3533
34.65684 -0.26 -1.02 50.7614
31.28802 -0.36 -1.02 45.1467
64.806 -0.42 -1.02 101.01
64.806 -0.44 -1.02 101.01
24.53898 -0.52 -1.02 33.8983
24.53898 -0.54 -1.02 33.8983
24.53898 -0.56 -1.02 33.8983
16.419959999999996 -0.68 -1.02 20.3666
16.419959999999996 -0.7 -1.02 20.3666
14.82888 -0.78 -1.02 17.7148
17.77464 -0.84 -1.02 22.6244
84.7368 -0.92 -1.02 134.228
31.28802 -0.98 -1.02 45.1467
64.806 -1.14 -1.02 101.01
52.78302 -1.16 -1.02 80.9717
52.78302 -1.18 -1.02 80.9717
17.06172 -1.42 -1.02 21.4362
17.06172 -1.44 -1.02 21.4362
14.386740000000001 -2.74 -1.02 16.9779
14.386740000000001 -2.76 -1.02 16.9779
13.979940000000001 -2.78 -1.02 16.2999
13.6044 -3.04 -1.02 15.674
13.6044 -3.06 -1.02 15.674
13.6044 -3.14 -1.02 15.674
12.933599999999998 -4.2 -1.02 14.556
12.933599999999998 -4.22 -1.02 14.556
12.63288 -4.24 -1.02 14.0548
12.63288 -4.26 -1.02 14.0548
12.63288 -4.28 -1.02 14.0548
12.933599999999998 -4.42 -1.02 14.556
12.933599999999998 -4.44 -1.02 14.556
12.63288 -4.46 -1.02 14.0548
11.843340000000001 -6.06 -1.02 12.7389
11.843340000000001 -6.08 -1.02 12.7389
11.843340000000001 -6.1 -1.02 12.7389
11.18892 -6.68 -1.02 11.6482
10.995 -6.7 -1.02 11.325
14.386740000000001 0.04 -1.04 16.9779
24.53898 -0.52 -1.04 33.8983
22.97934 -0.54 -1.04 31.2989
22.97934 -0.56 -1.04 31.2989
16.419959999999996 -0.66 -1.04 20.3666
16.419959999999996 -0.68 -1.04 20.3666
16.419959999999996 -0.7 -1.04 20.3666
13.6044 -0.78 -1.04 15.674
12.933599999999998 -0.84 -1.04 14.556
84.7368 -0.92 -1.04 134.228
52.78302 -1.16 -1.04 80.9717
52.78302 -1.18 -1.04 80.9717
44.74056 -1.2 -1.04 67.5676
17.06172 -1.4 -1.04 21.4362
17.06172 -1.42 -1.04 21.4362
13.979940000000001 -2.74 -1.04 16.2999
13.979940000000001 -2.76 -1.04 16.2999
15.3111 -2.92 -1.04 18.5185
13.6044 -3.06 -1.04 15.674
13.25658 -4.16 -1.04 15.0943
12.933599999999998 -4.18 -1.04 14.556
12.933599999999998 -4.2 -1.04 14.556
12.933599999999998 -4.22 -1.04 14.556
12.933599999999998 -4.44 -1.04 14.556
12.63288 -4.46 -1.04 14.0548
12.63288 -4.48 -1.04 14.0548
13.25658 -5.2 -1.04 15.0943
13.6044 -5.6 -1.04 15.674
11.843340000000001 -6.04 -1.04 12.7389
11.843340000000001 -6.06 -1.04 12.7389
11.843340000000001 -6.08 -1.04 12.7389
11.18892 -6.7 -1.04 11.6482
10.995 -6.72 -1.04 11.325
21.64188 -0.54 -1.06 29.0698
21.64188 -0.56 -1.06 29.0698
22.97934 -0.58 -1.06 31.2989
16.419959999999996 -0.66 -1.06 20.3666
16.419959999999996 -0.68 -1.06 20.3666
12.933599999999998 -0.78 -1.06 14.556
12.933599999999998 -0.8 -1.06 14.556
12.63288 -0.84 -1.06 14.0548
52.78302 -0.96 -1.06 80.9717
16.419959999999996 -1.0 -1.06 20.3666
16.419959999999996 -1.02 -1.06 20.3666
38.9826 -1.18 -1.06 57.971
17.77464 -1.2 -1.06 22.6244
17.06172 -1.4 -1.06 21.4362
17.06172 -1.42 -1.06 21.4362
20.4822 -2.54 -1.06 27.137
13.979940000000001 -2.74 -1.06 16.2999
13.979940000000001 -2.76 -1.06 16.2999
13.979940000000001 -2.9 -1.06 16.2999
13.979940000000001 -2.96 -1.06 16.2999
13.979940000000001 -2.98 -1.06 16.2999
13.6044 -3.06 -1.06 15.674
13.6044 -3.08 -1.06 15.674
13.25658 -4.16 -1.06 15.0943
12.933599999999998 -4.18 -1.06 14.556
12.933599999999998 -4.2 -1.06 14.556
12.63288 -4.48 -1.06 14.0548
12.63288 -4.5 -1.06 14.0548
12.63288 -4.56 -1.06 14.0548
12.3522 -4.58 -1.06 13.587
12.3522 -4.6 -1.06 13.587
12.3522 -4.62 -1.06 13.587
8.493384 -5.04 -1.06 7.15564
8.493384 -5.06 -1.06 7.15564
13.25658 -5.18 -1.06 15.0943
13.25658 -5.2 -1.06 15.0943
13.25658 -5.22 -1.06 15.0943
13.6044 -5.58 -1.06 15.674
13.6044 -5.6 -1.06 15.674
13.6044 -5.62 -1.06 15.674
11.843340000000001 -6.02 -1.06 12.7389
11.843340000000001 -6.04 -1.06 12.7389
11.843340000000001 -6.06 -1.06 12.7389
10.995 -6.74 -1.06 11.325
17.06172 2.48 -1.08 21.4362
17.06172 2.46 -1.08 21.4362
17.06172 2.44 -1.08 21.4362
21.64188 -0.58 -1.08 29.0698
16.419959999999996 -0.64 -1.08 20.3666
16.419959999999996 -0.66 -1.08 20.3666
16.419959999999996 -0.68 -1.08 20.3666
12.933599999999998 -0.78 -1.08 14.556
12.933599999999998 -0.8 -1.08 14.556
12.63288 -0.84 -1.08 14.0548
22.97934 -1.1 -1.08 31.2989
17.06172 -1.2 -1.08 21.4362
17.06172 -1.22 -1.08 21.4362
17.06172 -1.4 -1.08 21.4362
16.419959999999996 -1.46 -1.08 20.3666
20.4822 -2.54 -1.08 27.137
20.4822 -2.56 -1.08 27.137
13.979940000000001 -2.74 -1.08 16.2999
13.979940000000001 -2.76 -1.08 16.2999
12.3522 -2.82 -1.08 13.587
13.979940000000001 -2.96 -1.08 16.2999
13.979940000000001 -2.98 -1.08 16.2999
13.979940000000001 -3.0 -1.08 16.2999
13.6044 -3.08 -1.08 15.674
13.25658 -4.14 -1.08 15.0943
12.933599999999998 -4.16 -1.08 14.556
12.933599999999998 -4.18 -1.08 14.556
12.63288 -4.5 -1.08 14.0548
12.63288 -4.52 -1.08 14.0548
12.3522 -4.58 -1.08 13.587
12.3522 -4.6 -1.08 13.587
12.3522 -4.62 -1.08 13.587
12.08952 -4.64 -1.08 13.1492
11.18892 -4.66 -1.08 11.6482
10.995 -4.68 -1.08 11.325
13.25658 -5.2 -1.08 15.0943
13.6044 -5.58 -1.08 15.674
13.6044 -5.6 -1.08 15.674
13.6044 -5.62 -1.08 15.674
11.843340000000001 -6.0 -1.08 12.7389
11.843340000000001 -6.02 -1.08 12.7389
11.843340000000001 -6.04 -1.08 12.7389
11.843340000000001 -6.06 -1.08 12.7389
11.18892 -6.74 -1.08 11.6482
12.63288 -0.8 -1.1 14.0548
10.316220000000001 -0.98 -1.1 10.1937
22.97934 -1.1 -1.1 31.2989
22.97934 -1.12 -1.1 31.2989
16.419959999999996 -1.2 -1.1 20.3666
16.419959999999996 -1.22 -1.1 20.3666
16.419959999999996 -1.44 -1.1 20.3666
13.979940000000001 -2.74 -1.1 16.2999
12.3522 -2.82 -1.1 13.587
12.3522 -2.84 -1.1 13.587
13.979940000000001 -2.86 -1.1 16.2999
13.979940000000001 -2.96 -1.1 16.2999
13.6044 -3.08 -1.1 15.674
13.25658 -4.12 -1.1 15.0943
12.933599999999998 -4.14 -1.1 14.556
12.933599999999998 -4.16 -1.1 14.556
12.933599999999998 -4.18 -1.1 14.556
12.63288 -4.5 -1.1 14.0548
12.63288 -4.52 -1.1 14.0548
13.6044 -5.58 -1.1 15.674
13.6044 -5.6 -1.1 15.674
13.6044 -5.62 -1.1 15.674
11.843340000000001 -6.0 -1.1 12.7389
11.843340000000001 -6.02 -1.1 12.7389
11.843340000000001 -6.04 -1.1 12.7389
