VERSION .7
FIELDS x y z rgb
SIZE 4 4 4 4
TYPE F F F F
COUNT 1 1 1 1
WIDTH 990
HEIGHT 1
VIEWPOINT 0 0 0 1 0 0 0
POINTS 990
DATA ascii
10.941320000000001 -1.06 -1.78 5000012.3533
10.79616 -1.08 -1.78 5000011.9904
10.659279999999999 -1.1 -1.78 5000011.6482
10.407720000000001 -1.12 -1.78 5000011.0193
10.291839999999999 -1.14 -1.78 5000010.7296
10.291839999999999 -1.16 -1.78 5000010.7296
10.291839999999999 -5.82 -1.78 5000010.7296
10.291839999999999 -5.84 -1.78 5000010.7296
10.291839999999999 -5.86 -1.78 5000010.7296
10.291839999999999 -1.16 -1.8 5000010.7296
10.291839999999999 -5.66 -1.8 5000010.7296
10.291839999999999 -5.68 -1.8 5000010.7296
10.291839999999999 -5.7 -1.8 5000010.7296
10.18192 -5.72 -1.8 5000010.4548
10.18192 -5.74 -1.8 5000010.4548
10.077480000000001 -5.76 -1.8 5000010.1937
10.407720000000001 -5.54 -1.82 5000011.0193
10.291839999999999 -5.56 -1.82 5000010.7296
10.291839999999999 -5.58 -1.82 5000010.7296
10.18192 -5.6 -1.82 5000010.4548
10.18192 -5.62 -1.82 5000010.4548
10.18192 -5.64 -1.82 5000010.4548
10.18192 -5.6 -1.84 5000010.4548
10.18192 -2.56 -1.86 5000010.4548
9.883496 -2.62 -1.86 5000009.70874
9.97812 -4.32 -1.86 5000009.9453
10.077480000000001 -4.28 -1.88 5000010.1937
9.97812 -4.3 -1.88 5000009.9453
9.97812 -4.32 -1.88 5000009.9453
9.97812 -4.34 -1.88 5000009.9453
10.077480000000001 -6.4 -1.88 5000010.1937
10.077480000000001 -6.42 -1.88 5000010.1937
10.077480000000001 -6.44 -1.88 5000010.1937
10.077480000000001 -6.46 -1.88 5000010.1937
9.97812 -6.48 -1.88 5000009.9453
9.97812 -6.36 -1.9 5000009.9453
10.291839999999999 -6.08 -1.92 5000010.7296
10.18192 -6.1 -1.92 5000010.4548
10.18192 -6.12 -1.92 5000010.4548
10.077480000000001 -6.18 -1.92 5000010.1937
10.077480000000001 -6.2 -1.92 5000010.1937
10.077480000000001 -6.22 -1.92 5000010.1937
9.97812 -6.24 -1.92 5000009.9453
9.883496 -6.26 -1.92 5000009.70874
9.793268000000001 -6.28 -1.92 5000009.48317
9.793268000000001 -6.3 -1.92 5000009.48317
9.793268000000001 -6.32 -1.92 5000009.48317
10.18192 -6.12 -1.94 5000010.4548
9.97812 -6.14 -1.94 5000009.9453
9.97812 -6.16 -1.94 5000009.9453
10.077480000000001 -6.18 -1.94 5000010.1937
9.883496 -4.6 -1.96 5000009.70874
9.883496 -4.62 -1.96 5000009.70874
9.793268000000001 -6.3 -1.98 5000009.48317
9.793268000000001 -6.32 -1.98 5000009.48317
9.793268000000001 -6.34 -1.98 5000009.48317
9.793268000000001 -2.02 -2.0 5000009.48317
9.707136 -3.3 -2.02 5000009.26784
10.077480000000001 -4.92 -2.02 5000010.1937
9.97812 -4.94 -2.02 5000009.9453
9.97812 -4.96 -2.02 5000009.9453
9.883496 -4.98 -2.02 5000009.70874
9.883496 -5.0 -2.02 5000009.70874
9.97812 -4.96 -2.04 5000009.9453
9.883496 -4.98 -2.04 5000009.70874
9.883496 -5.0 -2.04 5000009.70874
9.883496 -5.02 -2.04 5000009.70874
9.707136 -5.04 -2.04 5000009.26784
9.624827999999999 -5.06 -2.04 5000009.06207
9.470716 -5.08 -2.04 5000008.67679
9.470716 -5.1 -2.04 5000008.67679
9.624827999999999 -5.06 -2.06 5000009.06207
9.470716 -5.08 -2.06 5000008.67679
9.470716 -5.1 -2.06 5000008.67679
9.398472000000002 -5.12 -2.06 5000008.49618
9.329172 -5.14 -2.06 5000008.32293
9.707136 -6.72 -2.06 5000009.26784
9.707136 -6.74 -2.06 5000009.26784
9.707136 -6.74 -2.08 5000009.26784
9.5461 -4.08 -2.12 5000008.86525
9.5461 -4.1 -2.12 5000008.86525
9.5461 -4.12 -2.12 5000008.86525
9.5461 -4.1 -2.14 5000008.86525
9.5461 -4.16 -2.14 5000008.86525
9.5461 -4.18 -2.14 5000008.86525
9.470716 -4.2 -2.14 5000008.67679
9.470716 -4.22 -2.14 5000008.67679
9.398472000000002 -4.24 -2.14 5000008.49618
9.470716 -4.2 -2.16 5000008.67679
9.470716 -4.22 -2.16 5000008.67679
9.398472000000002 -4.24 -2.16 5000008.49618
9.329172 -4.28 -2.16 5000008.32293
9.398472000000002 -2.5 -2.18 5000008.49618
9.329172 4.14 -2.2 5000008.32293
9.398472000000002 5.04 -2.22 5000008.49618
9.398472000000002 5.02 -2.22 5000008.49618
9.398472000000002 -1.98 -2.22 5000008.49618
9.19872 4.22 -2.26 5000007.9968
9.19872 4.2 -2.26 5000007.9968
9.19872 4.18 -2.26 5000007.9968
9.19872 -5.88 -2.26 5000007.9968
9.329172 -5.78 -2.28 5000008.32293
9.329172 -5.8 -2.28 5000008.32293
9.329172 -5.82 -2.28 5000008.32293
9.19872 -5.86 -2.28 5000007.9968
9.19872 -5.88 -2.28 5000007.9968
9.19872 -5.9 -2.28 5000007.9968
8.966259999999998 -2.22 -2.3 5000007.41565
9.329172 5.48 -2.32 5000008.32293
9.078108 3.66 -2.32 5000007.69527
9.078108 3.64 -2.32 5000007.69527
9.078108 3.62 -2.32 5000007.69527
9.262644 5.22 -2.34 5000008.15661
9.262644 5.2 -2.34 5000008.15661
9.398472000000002 5.16 -2.34 5000008.49618
9.078108 3.6 -2.34 5000007.69527
9.078108 3.58 -2.34 5000007.69527
9.262644 -0.96 -2.34 5000008.15661
9.262644 5.22 -2.36 5000008.15661
9.329172 2.88 -2.38 5000008.32293
9.329172 2.86 -2.38 5000008.32293
9.19872 -6.34 -2.38 5000007.9968
9.19872 -6.36 -2.38 5000007.9968
9.19872 5.2 -2.4 5000007.9968
9.137255999999999 5.1 -2.4 5000007.84314
9.078108 4.14 -2.4 5000007.69527
9.329172 2.9 -2.4 5000008.32293
9.329172 2.88 -2.4 5000008.32293
9.137255999999999 -2.32 -2.4 5000007.84314
9.137255999999999 -2.34 -2.4 5000007.84314
9.137255999999999 2.96 -2.44 5000007.84314
9.021148 4.14 -2.46 5000007.55287
9.021148 4.12 -2.46 5000007.55287
9.021148 4.1 -2.46 5000007.55287
9.078108 5.22 -2.48 5000007.69527
9.021148 4.06 -2.48 5000007.55287
9.137255999999999 3.1 -2.48 5000007.84314
9.137255999999999 3.08 -2.48 5000007.84314
9.078108 -6.62 -2.48 5000007.69527
9.078108 -6.64 -2.48 5000007.69527
9.078108 5.22 -2.5 5000007.69527
9.021148 4.84 -2.5 5000007.55287
9.021148 4.82 -2.5 5000007.55287
9.021148 4.8 -2.5 5000007.55287
9.021148 -6.66 -2.5 5000007.55287
8.966259999999998 -6.68 -2.5 5000007.41565
8.966259999999998 -6.7 -2.5 5000007.41565
8.913328 -6.72 -2.5 5000007.28332
8.913328 -6.74 -2.5 5000007.28332
8.966259999999998 4.6 -2.52 5000007.41565
8.966259999999998 4.28 -2.52 5000007.41565
8.966259999999998 4.26 -2.52 5000007.41565
8.966259999999998 -6.7 -2.52 5000007.41565
8.913328 -6.72 -2.52 5000007.28332
8.913328 -6.74 -2.52 5000007.28332
8.966259999999998 4.6 -2.54 5000007.41565
8.966259999999998 4.26 -2.54 5000007.41565
8.913328 5.1 -2.56 5000007.28332
9.078108 2.74 -2.56 5000007.69527
8.966259999999998 -1.36 -2.56 5000007.41565
8.913328 -0.64 -2.6 5000007.28332
8.812940000000001 -3.36 -2.62 5000007.03235
8.812940000000001 -3.54 -2.62 5000007.03235
8.812940000000001 -3.56 -2.62 5000007.03235
8.589836 -3.46 -2.64 5000006.47459
8.812940000000001 -3.56 -2.64 5000007.03235
8.765296 -3.02 -2.68 5000006.91324
8.812940000000001 5.38 -2.72 5000007.03235
8.812940000000001 5.36 -2.72 5000007.03235
8.812940000000001 4.84 -2.72 5000007.03235
8.674692 4.56 -2.72 5000006.68673
8.674692 4.54 -2.72 5000006.68673
8.71924 -3.2 -2.72 5000006.7981
8.674692 -3.8 -2.72 5000006.68673
8.812940000000001 5.28 -2.74 5000007.03235
8.765296 5.18 -2.74 5000006.91324
8.765296 5.16 -2.74 5000006.91324
8.765296 5.02 -2.74 5000006.91324
8.765296 5.0 -2.74 5000006.91324
8.812940000000001 3.62 -2.76 5000007.03235
8.812940000000001 3.6 -2.76 5000007.03235
8.812940000000001 3.56 -2.76 5000007.03235
8.812940000000001 3.48 -2.76 5000007.03235
8.765296 3.5 -2.8 5000006.91324
8.765296 3.0 -2.8 5000006.91324
8.674692 -1.24 -2.8 5000006.68673
8.674692 -1.26 -2.8 5000006.68673
8.765296 3.56 -2.82 5000006.91324
8.812940000000001 3.54 -2.82 5000007.03235
8.765296 2.96 -2.82 5000006.91324
8.674692 -1.26 -2.82 5000006.68673
8.510195999999999 -1.32 -2.82 5000006.27549
8.765296 5.12 -2.84 5000006.91324
8.765296 4.94 -2.84 5000006.91324
8.765296 3.66 -2.84 5000006.91324
8.765296 3.64 -2.84 5000006.91324
8.765296 3.62 -2.84 5000006.91324
8.765296 3.58 -2.84 5000006.91324
8.765296 3.56 -2.84 5000006.91324
8.472188 -1.32 -2.84 5000006.18047
8.472188 -1.38 -2.84 5000006.18047
8.549396 -3.86 -2.84 5000006.37349
8.765296 5.12 -2.86 5000006.91324
8.765296 3.64 -2.86 5000006.91324
8.765296 3.62 -2.86 5000006.91324
8.812940000000001 3.6 -2.86 5000007.03235
8.63158 -1.18 -2.86 5000006.57895
8.63158 -1.2 -2.86 5000006.57895
8.472188 -1.32 -2.88 5000006.18047
8.674692 3.96 -2.9 5000006.68673
8.63158 -1.22 -2.9 5000006.57895
8.589836 2.78 -3.0 5000006.47459
8.589836 2.76 -3.0 5000006.47459
8.472188 2.5 -3.04 5000006.18047
8.472188 2.48 -3.04 5000006.18047
8.510195999999999 2.46 -3.04 5000006.27549
8.472188 2.56 -3.06 5000006.18047
8.472188 2.54 -3.06 5000006.18047
8.472188 2.52 -3.06 5000006.18047
8.472188 2.5 -3.06 5000006.18047
8.472188 2.48 -3.06 5000006.18047
8.510195999999999 2.46 -3.06 5000006.27549
8.472188 2.62 -3.1 5000006.18047
8.472188 2.6 -3.1 5000006.18047
8.472188 4.1 -3.12 5000006.18047
8.472188 4.08 -3.12 5000006.18047
8.399519999999999 3.3 -3.2 5000005.9988
8.399519999999999 3.28 -3.2 5000005.9988
8.435312 2.2 -3.2 5000006.08828
8.23526 -5.36 -3.2 5000005.58815
8.23526 -5.38 -3.2 5000005.58815
8.364764000000001 3.26 -3.22 5000005.91191
8.364764000000001 3.24 -3.22 5000005.91191
8.23526 -5.38 -3.22 5000005.58815
8.23526 -5.4 -3.22 5000005.58815
8.364764000000001 3.22 -3.24 5000005.91191
8.331004 3.2 -3.24 5000005.82751
8.119203999999998 -5.48 -3.24 5000005.29801
8.119203999999998 -5.5 -3.24 5000005.29801
8.331004 3.2 -3.26 5000005.82751
8.331004 3.18 -3.26 5000005.82751
8.331004 3.18 -3.28 5000005.82751
8.331004 3.16 -3.28 5000005.82751
8.331004 3.14 -3.28 5000005.82751
8.298192 3.12 -3.28 5000005.74548
8.331004 2.24 -3.28 5000005.82751
8.331004 3.14 -3.3 5000005.82751
8.298192 3.12 -3.3 5000005.74548
8.298192 3.1 -3.3 5000005.74548
8.298192 3.08 -3.3 5000005.74548
8.266288000000001 1.54 -3.34 5000005.66572
8.266288000000001 1.52 -3.34 5000005.66572
8.266288000000001 1.5 -3.34 5000005.66572
8.23526 1.48 -3.34 5000005.58815
8.147076 -5.84 -3.36 5000005.36769
8.119203999999998 -5.86 -3.38 5000005.29801
8.119203999999998 -5.88 -3.38 5000005.29801
8.092051999999999 -5.9 -3.38 5000005.23013
8.23526 2.92 -3.4 5000005.58815
8.23526 2.9 -3.4 5000005.58815
8.092051999999999 -5.9 -3.4 5000005.23013
8.092051999999999 -5.92 -3.4 5000005.23013
8.065584 -6.1 -3.48 5000005.16396
8.065584 -6.12 -3.5 5000005.16396
8.175688 2.22 -3.52 5000005.43922
8.175688 2.2 -3.52 5000005.43922
8.039776 -5.24 -3.52 5000005.09944
8.014604 -5.34 -3.52 5000005.03651
8.014604 -5.36 -3.52 5000005.03651
7.966084000000001 -6.2 -3.52 5000004.91521
7.919848 -6.26 -3.52 5000004.79962
8.147076 2.62 -3.54 5000005.36769
8.147076 2.6 -3.54 5000005.36769
8.147076 2.58 -3.54 5000005.36769
8.119203999999998 2.56 -3.54 5000005.29801
8.014604 -5.36 -3.54 5000005.03651
8.092051999999999 -4.34 -3.56 5000005.23013
8.092051999999999 -4.36 -3.58 5000005.23013
8.039776 -4.4 -3.58 5000005.09944
8.147076 2.66 -3.6 5000005.36769
8.092051999999999 -4.38 -3.6 5000005.23013
7.942692 -4.52 -3.6 5000004.85673
7.942692 -4.54 -3.6 5000004.85673
7.990048000000001 -5.68 -3.6 5000004.97512
7.919848 -5.9 -3.6 5000004.79962
7.942692 -6.24 -3.6 5000004.85673
8.039776 -1.42 -3.62 5000005.09944
7.990048000000001 -4.42 -3.62 5000004.97512
7.990048000000001 -4.44 -3.62 5000004.97512
7.942692 -4.52 -3.62 5000004.85673
7.919848 -4.54 -3.62 5000004.79962
7.990048000000001 -5.7 -3.62 5000004.97512
7.990048000000001 -4.42 -3.64 5000004.97512
7.990048000000001 -4.44 -3.64 5000004.97512
7.966084000000001 -4.46 -3.64 5000004.91521
7.966084000000001 -4.48 -3.64 5000004.91521
7.942692 -4.5 -3.64 5000004.85673
7.942692 -4.52 -3.64 5000004.85673
7.919848 -4.54 -3.64 5000004.79962
7.897531999999999 -4.56 -3.64 5000004.74383
8.039776 0.82 -3.66 5000005.09944
8.039776 0.8 -3.66 5000005.09944
7.897531999999999 -4.54 -3.66 5000004.74383
7.854428 -4.6 -3.66 5000004.63607
8.039776 2.1 -3.68 5000005.09944
7.990048000000001 -0.5 -3.7 5000004.97512
8.039776 2.74 -3.76 5000005.09944
7.897531999999999 -5.98 -3.76 5000004.74383
7.897531999999999 -6.0 -3.76 5000004.74383
7.966084000000001 2.78 -3.84 5000004.91521
7.773835999999999 -4.78 -3.84 5000004.43459
7.813236 -6.72 -3.84 5000004.53309
7.966084000000001 2.8 -3.86 5000004.91521
7.966084000000001 2.78 -3.86 5000004.91521
7.813236 -6.72 -3.86 5000004.53309
7.813236 -6.74 -3.88 5000004.53309
7.8336 -6.06 -3.92 5000004.584
7.8336 -6.08 -3.92 5000004.584
8.549396 3.16 -3.94 5000006.37349
7.919848 2.84 -3.94 5000004.79962
8.549396 3.18 -3.96 5000006.37349
7.919848 2.86 -3.96 5000004.79962
7.919848 2.84 -3.96 5000004.79962
8.549396 3.2 -3.98 5000006.37349
7.919848 2.86 -3.98 5000004.79962
8.549396 3.22 -4.0 5000006.37349
8.549396 3.2 -4.0 5000006.37349
7.813236 -4.26 -4.0 5000004.53309
7.813236 -4.28 -4.0 5000004.53309
7.754772 -6.74 -4.0 5000004.38693
8.549396 3.24 -4.02 5000006.37349
8.549396 3.22 -4.02 5000006.37349
7.754772 -6.56 -4.02 5000004.38693
7.7178439999999995 -6.6 -4.02 5000004.29461
7.7178439999999995 -6.62 -4.02 5000004.29461
8.510195999999999 3.26 -4.04 5000006.27549
8.510195999999999 3.24 -4.04 5000006.27549
7.875731999999999 2.9 -4.04 5000004.68933
8.510195999999999 3.26 -4.06 5000006.27549
7.8336 1.82 -4.06 5000004.584
8.472188 3.28 -4.08 5000006.18047
7.854428 2.94 -4.08 5000004.63607
7.8336 1.78 -4.08 5000004.584
8.472188 3.3 -4.1 5000006.18047
7.773835999999999 -4.0 -4.1 5000004.43459
7.773835999999999 -4.02 -4.1 5000004.43459
8.472188 3.32 -4.12 5000006.18047
8.472188 3.3 -4.12 5000006.18047
7.8336 2.96 -4.12 5000004.584
8.435312 3.34 -4.14 5000006.08828
8.435312 3.32 -4.14 5000006.08828
7.8336 2.96 -4.14 5000004.584
7.754772 -0.78 -4.14 5000004.38693
8.435312 3.36 -4.16 5000006.08828
8.435312 3.34 -4.16 5000006.08828
8.435312 3.38 -4.18 5000006.08828
8.435312 3.36 -4.18 5000006.08828
8.435312 3.4 -4.2 5000006.08828
8.435312 3.38 -4.2 5000006.08828
7.7933200000000005 3.02 -4.2 5000004.4833
8.399519999999999 3.42 -4.22 5000005.9988
8.399519999999999 3.4 -4.22 5000005.9988
7.7933200000000005 3.04 -4.22 5000004.4833
7.66528 -6.7 -4.22 5000004.1632
8.399519999999999 3.42 -4.24 5000005.9988
7.66528 -4.88 -4.24 5000004.1632
8.364764000000001 3.44 -4.26 5000005.91191
7.7933200000000005 3.06 -4.26 5000004.4833
7.736111999999999 1.32 -4.26 5000004.34028
7.7178439999999995 0.26 -4.26 5000004.29461
8.364764000000001 3.46 -4.28 5000005.91191
7.631988 -5.76 -4.28 5000004.07997
8.364764000000001 3.48 -4.3 5000005.91191
7.736111999999999 1.28 -4.3 5000004.34028
8.331004 3.5 -4.32 5000005.82751
7.66528 -3.86 -4.32 5000004.1632
8.331004 3.52 -4.34 5000005.82751
8.331004 3.5 -4.34 5000005.82751
7.736111999999999 3.14 -4.34 5000004.34028
7.68244 -2.74 -4.34 5000004.2061
8.298192 3.54 -4.36 5000005.74548
8.331004 3.52 -4.36 5000005.82751
7.68244 1.14 -4.36 5000004.2061
7.615836 -2.8 -4.36 5000004.03959
8.298192 3.56 -4.38 5000005.74548
8.298192 3.54 -4.38 5000005.74548
7.7178439999999995 3.16 -4.38 5000004.29461
8.298192 3.58 -4.4 5000005.74548
8.298192 3.56 -4.4 5000005.74548
7.66528 1.08 -4.4 5000004.1632
7.648464000000001 -2.04 -4.4 5000004.12116
8.266288000000001 3.6 -4.42 5000005.66572
8.266288000000001 3.58 -4.42 5000005.66572
7.699956 3.2 -4.42 5000004.24989
7.631988 -1.86 -4.42 5000004.07997
7.699956 3.22 -4.44 5000004.24989
7.699956 3.2 -4.44 5000004.24989
8.266288000000001 3.64 -4.46 5000005.66572
8.23526 3.62 -4.46 5000005.58815
7.615836 -5.02 -4.46 5000004.03959
7.615836 -5.04 -4.46 5000004.03959
8.23526 3.64 -4.48 5000005.58815
7.648464000000001 0.36 -4.48 5000004.12116
7.615836 -5.04 -4.48 5000004.03959
7.615836 -5.06 -4.48 5000004.03959
7.648464000000001 3.3 -4.52 5000004.12116
7.615836 0.9 -4.52 5000004.03959
7.615836 -3.1 -4.52 5000004.03959
7.648464000000001 3.3 -4.54 5000004.12116
7.648464000000001 3.32 -4.56 5000004.12116
7.648464000000001 3.3 -4.56 5000004.12116
7.631988 0.76 -4.56 5000004.07997
7.631988 0.74 -4.56 5000004.07997
7.615836 3.38 -4.62 5000004.03959
7.615836 3.36 -4.62 5000004.03959
7.615836 3.38 -4.64 5000004.03959
7.615836 3.42 -4.66 5000004.03959
7.615836 3.4 -4.66 5000004.03959
7.615836 3.44 -4.68 5000004.03959
7.615836 3.46 -4.7 5000004.03959
7.615836 3.44 -4.7 5000004.03959
7.615836 3.5 -4.74 5000004.03959
7.615836 3.56 -4.78 5000004.03959
7.615836 3.54 -4.78 5000004.03959
7.615836 3.6 -4.82 5000004.03959
7.615836 3.7 -4.9 5000004.03959
59
9.615836 3.7 -4.9 5000004.03959
4.228
13.367 1.5666666666666667 3.8 5000101.01
14.474266666666667 1.4 3.8 5000134.228
16.666666666666668 0.8333333333333334 3.8 5000200.0
14.474266666666667 0.5666666666666667 3.8 5000134.228
13.367 -0.4 3.8 5000101.01
13.367 -0.43333333333333335 3.8 5000101.01
11.932366666666667 -0.9666666666666667 3.8 5000057.971
12.699056666666667 -1.1333333333333333 3.8 5000080.9717
12.699056666666667 -1.8 3.8 5000080.9717
12.252253333333334 -3.7333333333333334 3.8 5000067.5676
12.252253333333334 -3.9 3.8 5000067.5676
12.252253333333334 -3.966666666666667 3.8 5000067.5676
12.252253333333334 -4.066666666666666 3.8 5000067.5676
12.252253333333334 -4.266666666666667 3.8 5000067.5676
11.932366666666667 -4.966666666666667 3.8 5000057.971
11.129943333333333 -5.1 3.8 5000033.8983
11.129943333333333 -5.133333333333334 3.8 5000033.8983
11.50489 -5.9 3.8 5000045.1467
10.968993333333334 -6.033333333333333 3.8 5000029.0698
11.692046666666666 -6.466666666666667 3.8 5000050.7614
11.692046666666666 -6.5 3.8 5000050.7614
10.904566666666666 -6.666666666666667 3.8 5000027.137
12.699056666666667 -6.866666666666666 3.8 5000080.9717
12.699056666666667 -6.9 3.8 5000080.9717
11.50489 -7.0 3.8 5000045.1467
10.968993333333334 -7.133333333333334 3.8 5000029.0698
10.968993333333334 -7.166666666666667 3.8 5000029.0698
11.232286666666667 -7.3 3.8 5000036.9686
10.798403333333333 -7.566666666666666 3.8 5000023.9521
12.252253333333334 -8.966666666666667 3.8 5000067.5676
11.232286666666667 -9.133333333333333 3.8 5000036.9686
10.64662 -11.266666666666667 3.8 5000019.3986
10.64662 -11.3 3.8 5000019.3986
10.522466666666666 -11.466666666666667 3.8 5000015.674
10.64662 -11.6 3.8 5000019.3986
12.699056666666667 2.6333333333333333 3.7666666666666666 5000080.9717
14.474266666666667 2.5 3.7666666666666666 5000134.228
12.252253333333334 2.466666666666667 3.7666666666666666 5000067.5676
12.252253333333334 2.4 3.7666666666666666 5000067.5676
14.474266666666667 1.9 3.7666666666666666 5000134.228
13.367 1.5666666666666667 3.7666666666666666 5000101.01
16.666666666666668 1.3666666666666667 3.7666666666666666 5000200.0
16.666666666666668 1.2666666666666666 3.7666666666666666 5000200.0
16.666666666666668 1.2333333333333334 3.7666666666666666 5000200.0
16.666666666666668 0.8333333333333334 3.7666666666666666 5000200.0
14.474266666666667 0.5666666666666667 3.7666666666666666 5000134.228
12.699056666666667 -0.23333333333333334 3.7666666666666666 5000080.9717
14.474266666666667 -0.5666666666666667 3.7666666666666666 5000134.228
11.932366666666667 -0.9 3.7666666666666666 5000057.971
11.932366666666667 -0.9666666666666667 3.7666666666666666 5000057.971
12.699056666666667 -1.8 3.7666666666666666 5000080.9717
13.367 -2.8666666666666667 3.7666666666666666 5000101.01
14.474266666666667 -2.966666666666667 3.7666666666666666 5000134.228
12.252253333333334 -3.7333333333333334 3.7666666666666666 5000067.5676
12.252253333333334 -3.8 3.7666666666666666 5000067.5676
12.252253333333334 -3.9 3.7666666666666666 5000067.5676
11.129943333333333 -5.1 3.7666666666666666 5000033.8983
11.50489 -5.633333333333334 3.7666666666666666 5000045.1467
11.50489 -5.9 3.7666666666666666 5000045.1467
11.692046666666666 -6.466666666666667 3.7666666666666666 5000050.7614
11.692046666666666 -6.5 3.7666666666666666 5000050.7614
10.904566666666666 -6.666666666666667 3.7666666666666666 5000027.137
11.355013333333334 -6.766666666666667 3.7666666666666666 5000040.6504
11.043296666666667 -6.8 3.7666666666666666 5000031.2989
12.699056666666667 -6.9 3.7666666666666666 5000080.9717
11.50489 -7.0 3.7666666666666666 5000045.1467
10.968993333333334 -7.166666666666667 3.7666666666666666 5000029.0698
10.798403333333333 -7.566666666666666 3.7666666666666666 5000023.9521
10.798403333333333 -7.6 3.7666666666666666 5000023.9521
12.252253333333334 -8.966666666666667 3.7666666666666666 5000067.5676
11.232286666666667 -9.133333333333333 3.7666666666666666 5000036.9686
13.367 -9.266666666666667 3.7666666666666666 5000101.01
10.64662 -11.266666666666667 3.7666666666666666 5000019.3986
10.64662 -11.6 3.7666666666666666 5000019.3986
10.64662 -11.633333333333333 3.7666666666666666 5000019.3986
12.252253333333334 2.4 3.7333333333333334 5000067.5676
13.367 1.5666666666666667 3.7333333333333334 5000101.01
12.699056666666667 1.4666666666666666 3.7333333333333334 5000080.9717
16.666666666666668 1.2666666666666666 3.7333333333333334 5000200.0
16.666666666666668 1.2333333333333334 3.7333333333333334 5000200.0
14.474266666666667 0.5666666666666667 3.7333333333333334 5000134.228
12.699056666666667 -0.23333333333333334 3.7333333333333334 5000080.9717
11.932366666666667 -0.9 3.7333333333333334 5000057.971
11.932366666666667 -0.9666666666666667 3.7333333333333334 5000057.971
13.367 -2.1333333333333333 3.7333333333333334 5000101.01
14.474266666666667 -2.8666666666666667 3.7333333333333334 5000134.228
14.474266666666667 -2.966666666666667 3.7333333333333334 5000134.228
12.252253333333334 -3.7333333333333334 3.7333333333333334 5000067.5676
12.252253333333334 -3.9 3.7333333333333334 5000067.5676
11.129943333333333 -5.1 3.7333333333333334 5000033.8983
16.666666666666668 -6.333333333333333 3.7333333333333334 5000200.0
11.692046666666666 -6.5 3.7333333333333334 5000050.7614
11.692046666666666 -6.533333333333333 3.7333333333333334 5000050.7614
10.904566666666666 -6.666666666666667 3.7333333333333334 5000027.137
11.355013333333334 -6.766666666666667 3.7333333333333334 5000040.6504
11.043296666666667 -6.8 3.7333333333333334 5000031.2989
11.50489 -7.0 3.7333333333333334 5000045.1467
10.968993333333334 -7.166666666666667 3.7333333333333334 5000029.0698
10.904566666666666 -7.333333333333333 3.7333333333333334 5000027.137
10.904566666666666 -7.366666666666666 3.7333333333333334 5000027.137
11.129943333333333 -7.466666666666667 3.7333333333333334 5000033.8983
10.54333 -7.566666666666666 3.7333333333333334 5000016.2999
10.54333 -7.6 3.7333333333333334 5000016.2999
10.4852 -7.7 3.7333333333333334 5000014.556
12.252253333333334 -8.966666666666667 3.7333333333333334 5000067.5676
11.232286666666667 -9.133333333333333 3.7333333333333334 5000036.9686
10.64662 -11.233333333333333 3.7333333333333334 5000019.3986
10.64662 -11.266666666666667 3.7333333333333334 5000019.3986
10.904566666666666 -11.4 3.7333333333333334 5000027.137
10.64662 -11.6 3.7333333333333334 5000019.3986
10.64662 -11.633333333333333 3.7333333333333334 5000019.3986
12.252253333333334 2.4 3.7 5000067.5676
13.367 1.5666666666666667 3.7 5000101.01
12.699056666666667 1.4666666666666666 3.7 5000080.9717
16.666666666666668 1.2666666666666666 3.7 5000200.0
16.666666666666668 1.2333333333333334 3.7 5000200.0
14.474266666666667 0.5666666666666667 3.7 5000134.228
14.474266666666667 0.5333333333333333 3.7 5000134.228
12.699056666666667 -0.1 3.7 5000080.9717
12.699056666666667 -0.13333333333333333 3.7 5000080.9717
12.699056666666667 -0.16666666666666666 3.7 5000080.9717
12.699056666666667 -0.2 3.7 5000080.9717
12.699056666666667 -0.23333333333333334 3.7 5000080.9717
11.932366666666667 -0.9666666666666667 3.7 5000057.971
14.474266666666667 -1.3333333333333333 3.7 5000134.228
13.367 -2.8666666666666667 3.7 5000101.01
14.474266666666667 -3.0 3.7 5000134.228
11.50489 -3.1 3.7 5000045.1467
12.252253333333334 -3.7333333333333334 3.7 5000067.5676
13.367 -4.9 3.7 5000101.01
11.129943333333333 -5.1 3.7 5000033.8983
12.699056666666667 -5.766666666666667 3.7 5000080.9717
11.129943333333333 -5.966666666666667 3.7 5000033.8983
11.232286666666667 -6.2 3.7 5000036.9686
11.692046666666666 -6.466666666666667 3.7 5000050.7614
11.692046666666666 -6.5 3.7 5000050.7614
11.692046666666666 -6.533333333333333 3.7 5000050.7614
10.904566666666666 -6.666666666666667 3.7 5000027.137
10.904566666666666 -7.333333333333333 3.7 5000027.137
10.904566666666666 -7.366666666666666 3.7 5000027.137
10.4852 -7.7 3.7 5000014.556
10.4852 -7.733333333333333 3.7 5000014.556
12.699056666666667 -8.966666666666667 3.7 5000080.9717
11.232286666666667 -9.133333333333333 3.7 5000036.9686
11.232286666666667 -9.166666666666666 3.7 5000036.9686
10.64662 -11.2 3.7 5000019.3986
10.64662 -11.233333333333333 3.7 5000019.3986
10.64662 -11.266666666666667 3.7 5000019.3986
10.64662 -11.566666666666666 3.7 5000019.3986
10.64662 -11.6 3.7 5000019.3986
16.666666666666668 2.5 3.6666666666666665 5000200.0
12.252253333333334 2.4 3.6666666666666665 5000067.5676
12.252253333333334 2.3666666666666667 3.6666666666666665 5000067.5676
16.666666666666668 1.8666666666666667 3.6666666666666665 5000200.0
12.699056666666667 1.4666666666666666 3.6666666666666665 5000080.9717
16.666666666666668 0.9333333333333333 3.6666666666666665 5000200.0
16.666666666666668 0.5666666666666667 3.6666666666666665 5000200.0
16.666666666666668 0.5333333333333333 3.6666666666666665 5000200.0
12.699056666666667 -0.1 3.6666666666666665 5000080.9717
12.699056666666667 -0.13333333333333333 3.6666666666666665 5000080.9717
12.699056666666667 -0.16666666666666666 3.6666666666666665 5000080.9717
12.699056666666667 -0.2 3.6666666666666665 5000080.9717
12.699056666666667 -0.23333333333333334 3.6666666666666665 5000080.9717
11.232286666666667 -0.3333333333333333 3.6666666666666665 5000036.9686
11.232286666666667 -0.36666666666666664 3.6666666666666665 5000036.9686
11.232286666666667 -0.4 3.6666666666666665 5000036.9686
13.367 -0.4666666666666667 3.6666666666666665 5000101.01
13.367 -0.5333333333333333 3.6666666666666665 5000101.01
14.474266666666667 -1.3333333333333333 3.6666666666666665 5000134.228
12.252253333333334 -2.066666666666667 3.6666666666666665 5000067.5676
13.367 -2.1666666666666665 3.6666666666666665 5000101.01
14.474266666666667 -2.8666666666666667 3.6666666666666665 5000134.228
14.474266666666667 -3.0 3.6666666666666665 5000134.228
11.129943333333333 -5.1 3.6666666666666665 5000033.8983
10.71454 -5.266666666666667 3.6666666666666665 5000021.4362
12.699056666666667 -5.7 3.6666666666666665 5000080.9717
11.043296666666667 -6.0 3.6666666666666665 5000031.2989
11.043296666666667 -6.033333333333333 3.6666666666666665 5000031.2989
11.232286666666667 -6.2 3.6666666666666665 5000036.9686
16.666666666666668 -6.333333333333333 3.6666666666666665 5000200.0
11.692046666666666 -6.466666666666667 3.6666666666666665 5000050.7614
11.692046666666666 -6.5 3.6666666666666665 5000050.7614
10.4852 -7.7 3.6666666666666665 5000014.556
12.699056666666667 -8.966666666666667 3.6666666666666665 5000080.9717
11.232286666666667 -9.133333333333333 3.6666666666666665 5000036.9686
11.232286666666667 -9.166666666666666 3.6666666666666665 5000036.9686
11.129943333333333 -9.533333333333333 3.6666666666666665 5000033.8983
10.64662 -11.2 3.6666666666666665 5000019.3986
10.64662 -11.233333333333333 3.6666666666666665 5000019.3986
10.64662 -11.266666666666667 3.6666666666666665 5000019.3986
10.64662 -11.566666666666666 3.6666666666666665 5000019.3986
10.64662 -11.6 3.6666666666666665 5000019.3986
12.252253333333334 2.4 3.6333333333333333 5000067.5676
12.252253333333334 2.3666666666666667 3.6333333333333333 5000067.5676
13.367 2.2 3.6333333333333333 5000101.01
13.367 2.1333333333333333 3.6333333333333333 5000101.01
16.666666666666668 1.8666666666666667 3.6333333333333333 5000200.0
12.699056666666667 1.4666666666666666 3.6333333333333333 5000080.9717
16.666666666666668 0.9333333333333333 3.6333333333333333 5000200.0
16.666666666666668 0.5666666666666667 3.6333333333333333 5000200.0
16.666666666666668 0.5333333333333333 3.6333333333333333 5000200.0
12.699056666666667 -0.23333333333333334 3.6333333333333333 5000080.9717
13.367 -0.5333333333333333 3.6333333333333333 5000101.01
11.692046666666666 -2.033333333333333 3.6333333333333333 5000050.7614
12.252253333333334 -2.066666666666667 3.6333333333333333 5000067.5676
13.367 -2.1333333333333333 3.6333333333333333 5000101.01
13.367 -2.1666666666666665 3.6333333333333333 5000101.01
13.367 -2.2 3.6333333333333333 5000101.01
14.474266666666667 -2.8666666666666667 3.6333333333333333 5000134.228
11.692046666666666 -3.433333333333333 3.6333333333333333 5000050.7614
13.367 -4.9 3.6333333333333333 5000101.01
11.043296666666667 -5.1 3.6333333333333333 5000031.2989
11.043296666666667 -5.133333333333334 3.6333333333333333 5000031.2989
10.754146666666667 -5.266666666666667 3.6333333333333333 5000022.6244
10.754146666666667 -5.3 3.6333333333333333 5000022.6244
11.932366666666667 -7.166666666666667 3.6333333333333333 5000057.971
11.50489 -7.233333333333333 3.6333333333333333 5000045.1467
13.367 -7.533333333333333 3.6333333333333333 5000101.01
11.355013333333334 -7.7 3.6333333333333333 5000040.6504
12.699056666666667 -8.966666666666667 3.6333333333333333 5000080.9717
11.232286666666667 -9.133333333333333 3.6333333333333333 5000036.9686
11.232286666666667 -9.166666666666666 3.6333333333333333 5000036.9686
11.129943333333333 -9.533333333333333 3.6333333333333333 5000033.8983
10.64662 -11.2 3.6333333333333333 5000019.3986
10.64662 -11.233333333333333 3.6333333333333333 5000019.3986
10.64662 -11.266666666666667 3.6333333333333333 5000019.3986
10.64662 -11.6 3.6333333333333333 5000019.3986
12.699056666666667 2.4 3.6 5000080.9717
13.367 2.1333333333333333 3.6 5000101.01
16.666666666666668 1.9 3.6 5000200.0
16.666666666666668 1.8666666666666667 3.6 5000200.0
12.699056666666667 1.5 3.6 5000080.9717
12.699056666666667 1.4666666666666666 3.6 5000080.9717
13.367 1.2333333333333334 3.6 5000101.01
16.666666666666668 0.8666666666666667 3.6 5000200.0
16.666666666666668 0.5666666666666667 3.6 5000200.0
16.666666666666668 0.5333333333333333 3.6 5000200.0
14.474266666666667 -3.0 3.6 5000134.228
11.50489 -3.1 3.6 5000045.1467
11.355013333333334 -3.1333333333333333 3.6 5000040.6504
11.932366666666667 -3.3333333333333335 3.6 5000057.971
11.932366666666667 -3.4 3.6 5000057.971
11.692046666666666 -3.433333333333333 3.6 5000050.7614
11.932366666666667 -3.933333333333333 3.6 5000057.971
11.932366666666667 -4.333333333333333 3.6 5000057.971
11.932366666666667 -4.533333333333333 3.6 5000057.971
11.043296666666667 -5.133333333333334 3.6 5000031.2989
10.754146666666667 -5.266666666666667 3.6 5000022.6244
10.754146666666667 -5.3 3.6 5000022.6244
11.932366666666667 -7.166666666666667 3.6 5000057.971
11.50489 -7.233333333333333 3.6 5000045.1467
11.355013333333334 -7.3 3.6 5000040.6504
13.367 -7.533333333333333 3.6 5000101.01
11.355013333333334 -7.7 3.6 5000040.6504
12.699056666666667 -8.966666666666667 3.6 5000080.9717
11.232286666666667 -9.133333333333333 3.6 5000036.9686
11.232286666666667 -9.166666666666666 3.6 5000036.9686
11.129943333333333 -9.533333333333333 3.6 5000033.8983
10.64662 -11.2 3.6 5000019.3986
10.64662 -11.233333333333333 3.6 5000019.3986
10.64662 -11.266666666666667 3.6 5000019.3986
10.617283333333333 -11.3 3.6 5000018.5185
10.522466666666666 -11.433333333333334 3.6 5000015.674
10.522466666666666 -11.466666666666667 3.6 5000015.674
14.474266666666667 2.5 3.566666666666667 5000134.228
12.699056666666667 2.433333333333333 3.566666666666667 5000080.9717
16.666666666666668 1.9 3.566666666666667 5000200.0
16.666666666666668 1.8666666666666667 3.566666666666667 5000200.0
12.699056666666667 1.6 3.566666666666667 5000080.9717
13.367 1.2 3.566666666666667 5000101.01
14.474266666666667 0.8666666666666667 3.566666666666667 5000134.228
14.474266666666667 0.8333333333333334 3.566666666666667 5000134.228
16.666666666666668 0.5333333333333333 3.566666666666667 5000200.0
13.367 -0.23333333333333334 3.566666666666667 5000101.01
13.367 -0.3333333333333333 3.566666666666667 5000101.01
13.367 -0.4 3.566666666666667 5000101.01
13.367 -0.43333333333333335 3.566666666666667 5000101.01
13.367 -0.4666666666666667 3.566666666666667 5000101.01
13.367 -2.566666666666667 3.566666666666667 5000101.01
16.666666666666668 -3.0 3.566666666666667 5000200.0
14.474266666666667 -3.033333333333333 3.566666666666667 5000134.228
11.355013333333334 -3.1 3.566666666666667 5000040.6504
11.355013333333334 -3.1333333333333333 3.566666666666667 5000040.6504
14.474266666666667 -3.2666666666666666 3.566666666666667 5000134.228
11.932366666666667 -3.3333333333333335 3.566666666666667 5000057.971
11.043296666666667 -5.133333333333334 3.566666666666667 5000031.2989
11.043296666666667 -5.166666666666667 3.566666666666667 5000031.2989
10.754146666666667 -5.266666666666667 3.566666666666667 5000022.6244
10.754146666666667 -5.3 3.566666666666667 5000022.6244
11.50489 -6.733333333333333 3.566666666666667 5000045.1467
11.50489 -6.766666666666667 3.566666666666667 5000045.1467
11.50489 -6.8 3.566666666666667 5000045.1467
11.932366666666667 -7.166666666666667 3.566666666666667 5000057.971
11.50489 -7.233333333333333 3.566666666666667 5000045.1467
11.355013333333334 -7.266666666666667 3.566666666666667 5000040.6504
11.355013333333334 -7.7 3.566666666666667 5000040.6504
12.699056666666667 -8.966666666666667 3.566666666666667 5000080.9717
11.232286666666667 -9.133333333333333 3.566666666666667 5000036.9686
11.232286666666667 -9.166666666666666 3.566666666666667 5000036.9686
11.129943333333333 -9.533333333333333 3.566666666666667 5000033.8983
10.64662 -11.266666666666667 3.566666666666667 5000019.3986
10.64662 -11.3 3.566666666666667 5000019.3986
10.522466666666666 -11.433333333333334 3.566666666666667 5000015.674
14.474266666666667 2.5 3.533333333333333 5000134.228
12.699056666666667 2.466666666666667 3.533333333333333 5000080.9717
12.699056666666667 2.433333333333333 3.533333333333333 5000080.9717
16.666666666666668 1.9 3.533333333333333 5000200.0
16.666666666666668 1.4 3.533333333333333 5000200.0
16.666666666666668 1.3666666666666667 3.533333333333333 5000200.0
14.474266666666667 0.8666666666666667 3.533333333333333 5000134.228
16.666666666666668 0.5333333333333333 3.533333333333333 5000200.0
13.367 -0.43333333333333335 3.533333333333333 5000101.01
13.367 -0.4666666666666667 3.533333333333333 5000101.01
13.367 -0.5 3.533333333333333 5000101.01
14.474266666666667 -2.3333333333333335 3.533333333333333 5000134.228
11.355013333333334 -3.1333333333333333 3.533333333333333 5000040.6504
12.699056666666667 -3.2666666666666666 3.533333333333333 5000080.9717
11.043296666666667 -5.133333333333334 3.533333333333333 5000031.2989
11.043296666666667 -5.166666666666667 3.533333333333333 5000031.2989
10.754146666666667 -5.266666666666667 3.533333333333333 5000022.6244
10.754146666666667 -5.3 3.533333333333333 5000022.6244
11.692046666666666 -6.466666666666667 3.533333333333333 5000050.7614
11.50489 -6.733333333333333 3.533333333333333 5000045.1467
11.50489 -6.766666666666667 3.533333333333333 5000045.1467
11.50489 -6.8 3.533333333333333 5000045.1467
11.932366666666667 -7.166666666666667 3.533333333333333 5000057.971
11.50489 -7.233333333333333 3.533333333333333 5000045.1467
11.355013333333334 -7.3 3.533333333333333 5000040.6504
10.503143333333334 -7.7 3.533333333333333 5000015.0943
12.699056666666667 -8.966666666666667 3.533333333333333 5000080.9717
11.232286666666667 -9.133333333333333 3.533333333333333 5000036.9686
11.232286666666667 -9.166666666666666 3.533333333333333 5000036.9686
11.129943333333333 -9.533333333333333 3.533333333333333 5000033.8983
10.64662 -11.266666666666667 3.533333333333333 5000019.3986
10.64662 -11.3 3.533333333333333 5000019.3986
10.64662 -11.566666666666666 3.533333333333333 5000019.3986
14.474266666666667 2.8 3.5 5000134.228
12.699056666666667 2.466666666666667 3.5 5000080.9717
12.699056666666667 2.433333333333333 3.5 5000080.9717
16.666666666666668 1.9 3.5 5000200.0
16.666666666666668 1.3666666666666667 3.5 5000200.0
16.666666666666668 1.3 3.5 5000200.0
14.474266666666667 0.8666666666666667 3.5 5000134.228
16.666666666666668 0.5333333333333333 3.5 5000200.0
12.699056666666667 -0.1 3.5 5000080.9717
12.252253333333334 -2.6333333333333333 3.5 5000067.5676
16.666666666666668 -2.966666666666667 3.5 5000200.0
11.355013333333334 -3.1333333333333333 3.5 5000040.6504
11.355013333333334 -3.1666666666666665 3.5 5000040.6504
11.932366666666667 -5.0 3.5 5000057.971
11.043296666666667 -5.133333333333334 3.5 5000031.2989
11.043296666666667 -5.166666666666667 3.5 5000031.2989
10.754146666666667 -5.266666666666667 3.5 5000022.6244
10.754146666666667 -5.3 3.5 5000022.6244
11.692046666666666 -6.466666666666667 3.5 5000050.7614
11.50489 -6.766666666666667 3.5 5000045.1467
11.50489 -6.8 3.5 5000045.1467
11.932366666666667 -7.166666666666667 3.5 5000057.971
11.50489 -7.233333333333333 3.5 5000045.1467
11.355013333333334 -7.3 3.5 5000040.6504
10.590493333333333 -7.6 3.5 5000017.7148
10.503143333333334 -7.7 3.5 5000015.0943
10.503143333333334 -7.733333333333333 3.5 5000015.0943
12.699056666666667 -8.966666666666667 3.5 5000080.9717
11.129943333333333 -9.133333333333333 3.5 5000033.8983
11.129943333333333 -9.166666666666666 3.5 5000033.8983
11.129943333333333 -9.533333333333333 3.5 5000033.8983
10.64662 -11.266666666666667 3.5 5000019.3986
10.64662 -11.3 3.5 5000019.3986
12.699056666666667 2.433333333333333 3.466666666666667 5000080.9717
12.699056666666667 2.4 3.466666666666667 5000080.9717
16.666666666666668 1.9 3.466666666666667 5000200.0
14.474266666666667 1.5333333333333334 3.466666666666667 5000134.228
16.666666666666668 0.7333333333333333 3.466666666666667 5000200.0
13.367 -0.26666666666666666 3.466666666666667 5000101.01
13.367 -1.3 3.466666666666667 5000101.01
13.367 -2.7 3.466666666666667 5000101.01
11.355013333333334 -3.1333333333333333 3.466666666666667 5000040.6504
11.692046666666666 -3.2333333333333334 3.466666666666667 5000050.7614
12.252253333333334 -4.0 3.466666666666667 5000067.5676
12.252253333333334 -4.066666666666666 3.466666666666667 5000067.5676
12.252253333333334 -4.3 3.466666666666667 5000067.5676
11.043296666666667 -5.133333333333334 3.466666666666667 5000031.2989
11.043296666666667 -5.166666666666667 3.466666666666667 5000031.2989
10.754146666666667 -5.3 3.466666666666667 5000022.6244
10.754146666666667 -5.333333333333333 3.466666666666667 5000022.6244
11.692046666666666 -6.466666666666667 3.466666666666667 5000050.7614
11.692046666666666 -6.5 3.466666666666667 5000050.7614
11.50489 -6.766666666666667 3.466666666666667 5000045.1467
11.50489 -6.8 3.466666666666667 5000045.1467
11.932366666666667 -7.166666666666667 3.466666666666667 5000057.971
11.50489 -7.233333333333333 3.466666666666667 5000045.1467
11.355013333333334 -7.266666666666667 3.466666666666667 5000040.6504
11.355013333333334 -7.3 3.466666666666667 5000040.6504
10.904566666666666 -7.4 3.466666666666667 5000027.137
10.590493333333333 -7.6 3.466666666666667 5000017.7148
10.503143333333334 -7.7 3.466666666666667 5000015.0943
10.503143333333334 -7.733333333333333 3.466666666666667 5000015.0943
12.699056666666667 -8.966666666666667 3.466666666666667 5000080.9717
12.699056666666667 -9.0 3.466666666666667 5000080.9717
11.129943333333333 -9.533333333333333 3.466666666666667 5000033.8983
10.64662 -11.266666666666667 3.466666666666667 5000019.3986
10.64662 -11.3 3.466666666666667 5000019.3986
14.474266666666667 1.8666666666666667 3.433333333333333 5000134.228
14.474266666666667 1.5333333333333334 3.433333333333333 5000134.228
16.666666666666668 1.3333333333333333 3.433333333333333 5000200.0
16.666666666666668 0.7 3.433333333333333 5000200.0
13.367 -0.26666666666666666 3.433333333333333 5000101.01
14.474266666666667 -0.5333333333333333 3.433333333333333 5000134.228
13.367 -1.2666666666666666 3.433333333333333 5000101.01
11.692046666666666 -2.033333333333333 3.433333333333333 5000050.7614
11.355013333333334 -3.1666666666666665 3.433333333333333 5000040.6504
11.043296666666667 -5.133333333333334 3.433333333333333 5000031.2989
11.043296666666667 -5.166666666666667 3.433333333333333 5000031.2989
10.754146666666667 -5.3 3.433333333333333 5000022.6244
10.754146666666667 -5.333333333333333 3.433333333333333 5000022.6244
11.692046666666666 -6.466666666666667 3.433333333333333 5000050.7614
11.692046666666666 -6.5 3.433333333333333 5000050.7614
11.50489 -6.766666666666667 3.433333333333333 5000045.1467
11.50489 -6.8 3.433333333333333 5000045.1467
11.932366666666667 -7.166666666666667 3.433333333333333 5000057.971
11.50489 -7.233333333333333 3.433333333333333 5000045.1467
11.355013333333334 -7.266666666666667 3.433333333333333 5000040.6504
11.355013333333334 -7.3 3.433333333333333 5000040.6504
10.904566666666666 -7.4 3.433333333333333 5000027.137
10.904566666666666 -7.433333333333334 3.433333333333333 5000027.137
10.590493333333333 -7.6 3.433333333333333 5000017.7148
10.503143333333334 -7.7 3.433333333333333 5000015.0943
10.503143333333334 -7.733333333333333 3.433333333333333 5000015.0943
12.699056666666667 -8.966666666666667 3.433333333333333 5000080.9717
11.129943333333333 -9.166666666666666 3.433333333333333 5000033.8983
11.129943333333333 -9.233333333333333 3.433333333333333 5000033.8983
11.129943333333333 -9.533333333333333 3.433333333333333 5000033.8983
10.64662 -11.266666666666667 3.433333333333333 5000019.3986
10.64662 -11.3 3.433333333333333 5000019.3986
10.617283333333333 -11.6 3.433333333333333 5000018.5185
12.252253333333334 2.466666666666667 3.4 5000067.5676
12.252253333333334 2.433333333333333 3.4 5000067.5676
12.699056666666667 2.1666666666666665 3.4 5000080.9717
12.699056666666667 2.033333333333333 3.4 5000080.9717
14.474266666666667 1.8666666666666667 3.4 5000134.228
14.474266666666667 1.8333333333333333 3.4 5000134.228
11.50489 1.7333333333333334 3.4 5000045.1467
14.474266666666667 1.5333333333333334 3.4 5000134.228
13.367 -0.26666666666666666 3.4 5000101.01
13.367 -0.5666666666666667 3.4 5000101.01
11.692046666666666 -2.033333333333333 3.4 5000050.7614
11.932366666666667 -3.8666666666666667 3.4 5000057.971
11.043296666666667 -5.133333333333334 3.4 5000031.2989
10.968993333333334 -5.266666666666667 3.4 5000029.0698
10.968993333333334 -5.333333333333333 3.4 5000029.0698
11.50489 -6.466666666666667 3.4 5000045.1467
11.50489 -6.5 3.4 5000045.1467
11.50489 -6.766666666666667 3.4 5000045.1467
11.50489 -6.8 3.4 5000045.1467
11.932366666666667 -7.166666666666667 3.4 5000057.971
11.355013333333334 -7.233333333333333 3.4 5000040.6504
11.355013333333334 -7.266666666666667 3.4 5000040.6504
11.355013333333334 -7.3 3.4 5000040.6504
10.904566666666666 -7.4 3.4 5000027.137
10.904566666666666 -7.433333333333334 3.4 5000027.137
12.252253333333334 -7.6 3.4 5000067.5676
10.503143333333334 -7.7 3.4 5000015.0943
10.503143333333334 -7.733333333333333 3.4 5000015.0943
10.678886666666667 -7.966666666666667 3.4 5000020.3666
10.590493333333333 -8.0 3.4 5000017.7148
10.323624666666667 -8.1 3.4 5000009.70874
11.129943333333333 -9.133333333333333 3.4 5000033.8983
11.129943333333333 -9.166666666666666 3.4 5000033.8983
11.129943333333333 -9.2 3.4 5000033.8983
11.043296666666667 -9.233333333333333 3.4 5000031.2989
11.129943333333333 -9.533333333333333 3.4 5000033.8983
10.64662 -11.266666666666667 3.4 5000019.3986
10.64662 -11.3 3.4 5000019.3986
10.617283333333333 -11.566666666666666 3.4 5000018.5185
10.617283333333333 -11.6 3.4 5000018.5185
11.043296666666667 3.0 3.3666666666666667 5000031.2989
12.252253333333334 2.433333333333333 3.3666666666666667 5000067.5676
12.699056666666667 2.2 3.3666666666666667 5000080.9717
12.699056666666667 2.1666666666666665 3.3666666666666667 5000080.9717
13.367 2.1 3.3666666666666667 5000101.01
12.699056666666667 2.066666666666667 3.3666666666666667 5000080.9717
12.699056666666667 2.033333333333333 3.3666666666666667 5000080.9717
14.474266666666667 1.8666666666666667 3.3666666666666667 5000134.228
14.474266666666667 1.8333333333333333 3.3666666666666667 5000134.228
14.474266666666667 0.4 3.3666666666666667 5000134.228
14.474266666666667 0.3 3.3666666666666667 5000134.228
14.474266666666667 0.26666666666666666 3.3666666666666667 5000134.228
13.367 -0.5666666666666667 3.3666666666666667 5000101.01
13.367 -0.6 3.3666666666666667 5000101.01
11.50489 -1.9333333333333333 3.3666666666666667 5000045.1467
11.692046666666666 -2.066666666666667 3.3666666666666667 5000050.7614
11.043296666666667 -5.133333333333334 3.3666666666666667 5000031.2989
10.968993333333334 -5.266666666666667 3.3666666666666667 5000029.0698
10.968993333333334 -5.3 3.3666666666666667 5000029.0698
11.692046666666666 -6.466666666666667 3.3666666666666667 5000050.7614
11.692046666666666 -6.5 3.3666666666666667 5000050.7614
11.50489 -6.766666666666667 3.3666666666666667 5000045.1467
11.932366666666667 -7.166666666666667 3.3666666666666667 5000057.971
11.355013333333334 -7.233333333333333 3.3666666666666667 5000040.6504
11.232286666666667 -7.266666666666667 3.3666666666666667 5000036.9686
11.232286666666667 -7.3 3.3666666666666667 5000036.9686
10.904566666666666 -7.366666666666666 3.3666666666666667 5000027.137
10.904566666666666 -7.466666666666667 3.3666666666666667 5000027.137
12.252253333333334 -7.6 3.3666666666666667 5000067.5676
10.503143333333334 -7.7 3.3666666666666667 5000015.0943
10.4852 -7.733333333333333 3.3666666666666667 5000014.556
10.678886666666667 -7.966666666666667 3.3666666666666667 5000020.3666
10.33151 -8.066666666666666 3.3666666666666667 5000009.9453
10.33151 -8.1 3.3666666666666667 5000009.9453
11.129943333333333 -9.133333333333333 3.3666666666666667 5000033.8983
11.129943333333333 -9.166666666666666 3.3666666666666667 5000033.8983
11.129943333333333 -9.2 3.3666666666666667 5000033.8983
10.64662 -11.233333333333333 3.3666666666666667 5000019.3986
10.64662 -11.266666666666667 3.3666666666666667 5000019.3986
10.617283333333333 -11.566666666666666 3.3666666666666667 5000018.5185
10.617283333333333 -11.6 3.3666666666666667 5000018.5185
10.71454 -16.433333333333334 3.3666666666666667 5000021.4362
10.754146666666667 -16.866666666666667 3.3666666666666667 5000022.6244
10.71454 -16.9 3.3666666666666667 5000021.4362
10.71454 -16.933333333333334 3.3666666666666667 5000021.4362
10.71454 -16.966666666666665 3.3666666666666667 5000021.4362
10.678886666666667 -17.0 3.3666666666666667 5000020.3666
10.678886666666667 -17.033333333333335 3.3666666666666667 5000020.3666
10.678886666666667 -17.666666666666668 3.3666666666666667 5000020.3666
12.252253333333334 2.433333333333333 3.3333333333333335 5000067.5676
12.252253333333334 2.4 3.3333333333333335 5000067.5676
12.699056666666667 2.2 3.3333333333333335 5000080.9717
13.367 2.1 3.3333333333333335 5000101.01
12.699056666666667 2.066666666666667 3.3333333333333335 5000080.9717
14.474266666666667 1.8666666666666667 3.3333333333333335 5000134.228
14.474266666666667 1.8333333333333333 3.3333333333333335 5000134.228
14.474266666666667 1.1666666666666667 3.3333333333333335 5000134.228
14.474266666666667 1.1333333333333333 3.3333333333333335 5000134.228
14.474266666666667 0.4 3.3333333333333335 5000134.228
14.474266666666667 0.3 3.3333333333333335 5000134.228
14.474266666666667 0.26666666666666666 3.3333333333333335 5000134.228
13.367 -0.5666666666666667 3.3333333333333335 5000101.01
11.50489 -1.9333333333333333 3.3333333333333335 5000045.1467
11.50489 -2.066666666666667 3.3333333333333335 5000045.1467
11.355013333333334 -3.1333333333333333 3.3333333333333335 5000040.6504
11.355013333333334 -3.3 3.3333333333333335 5000040.6504
11.692046666666666 -4.166666666666667 3.3333333333333335 5000050.7614
11.043296666666667 -5.133333333333334 3.3333333333333335 5000031.2989
10.968993333333334 -5.333333333333333 3.3333333333333335 5000029.0698
11.692046666666666 -6.5 3.3333333333333335 5000050.7614
12.252253333333334 -6.666666666666667 3.3333333333333335 5000067.5676
11.692046666666666 -6.7 3.3333333333333335 5000050.7614
11.50489 -6.766666666666667 3.3333333333333335 5000045.1467
11.50489 -6.8 3.3333333333333335 5000045.1467
11.932366666666667 -7.166666666666667 3.3333333333333335 5000057.971
11.232286666666667 -7.266666666666667 3.3333333333333335 5000036.9686
11.232286666666667 -7.3 3.3333333333333335 5000036.9686
10.968993333333334 -7.366666666666666 3.3333333333333335 5000029.0698
10.4852 -7.7 3.3333333333333335 5000014.556
10.468493333333333 -7.733333333333333 3.3333333333333335 5000014.0548
10.42463 -7.833333333333333 3.3333333333333335 5000012.7389
10.3775 -7.966666666666667 3.3333333333333335 5000011.325
10.33151 -8.066666666666666 3.3333333333333335 5000009.9453
10.33151 -8.1 3.3333333333333335 5000009.9453
10.19996 -8.766666666666667 3.3333333333333335 5000005.9988
