VERSION .7
FIELDS x y z rgb
SIZE 4 4 4 4
TYPE F F F F
COUNT 1 1 1 1
WIDTH 1718
HEIGHT 1
VIEWPOINT 0 0 0 1 0 0 0
POINTS 1718
DATA ascii
44.74056 -0.92 0.88 67.5676
28.590239999999998 -0.98 0.88 40.6504
24.53898 -1.7 0.88 33.8983
24.53898 -1.82 0.88 33.8983
22.97934 -2.06 0.88 31.2989
15.3111 -3.24 0.88 18.5185
15.3111 -3.26 0.88 18.5185
15.3111 -3.4 0.88 18.5185
52.78302 5.28 0.86 80.9717
52.78302 5.1 0.86 80.9717
52.78302 4.66 0.86 80.9717
44.74056 3.98 0.86 67.5676
124.19999999999999 3.82 0.86 200.0
34.65684 3.26 0.86 50.7614
38.9826 2.96 0.86 57.971
38.9826 2.78 0.86 57.971
38.9826 2.76 0.86 57.971
28.590239999999998 2.16 0.86 40.6504
64.806 0.96 0.86 101.01
44.74056 0.9 0.86 67.5676
21.64188 0.8 0.86 29.0698
21.64188 0.78 0.86 29.0698
22.97934 0.64 0.86 31.2989
21.64188 0.58 0.86 29.0698
21.64188 0.56 0.86 29.0698
64.806 -0.1 0.86 101.01
31.28802 -0.16 0.86 45.1467
31.28802 -0.18 0.86 45.1467
52.78302 -0.26 0.86 80.9717
52.78302 -0.3 0.86 80.9717
31.28802 -0.36 0.86 45.1467
31.28802 -0.38 0.86 45.1467
20.4822 -0.46 0.86 27.137
14.386740000000001 -0.6 0.86 16.9779
14.386740000000001 -0.64 0.86 16.9779
11.843340000000001 -0.72 0.86 12.7389
44.74056 -0.92 0.86 67.5676
26.38116 -1.32 0.86 36.9686
26.38116 -1.34 0.86 36.9686
38.9826 -1.6 0.86 57.971
38.9826 -1.62 0.86 57.971
22.97934 -2.06 0.86 31.2989
15.3111 -3.24 0.86 18.5185
15.3111 -3.38 0.86 18.5185
15.3111 -3.4 0.86 18.5185
44.74056 5.56 0.84 67.5676
52.78302 5.1 0.84 80.9717
52.78302 5.08 0.84 80.9717
52.78302 4.98 0.84 80.9717
124.19999999999999 3.82 0.84 200.0
34.65684 3.24 0.84 50.7614
38.9826 2.96 0.84 57.971
38.9826 2.8 0.84 57.971
44.74056 1.6 0.84 67.5676
44.74056 0.9 0.84 67.5676
21.64188 0.76 0.84 29.0698
22.97934 0.64 0.84 31.2989
22.97934 0.62 0.84 31.2989
21.64188 0.58 0.84 29.0698
21.64188 0.56 0.84 29.0698
31.28802 -0.18 0.84 45.1467
52.78302 -0.26 0.84 80.9717
52.78302 -0.3 0.84 80.9717
31.28802 -0.36 0.84 45.1467
31.28802 -0.38 0.84 45.1467
20.4822 -0.46 0.84 27.137
14.386740000000001 -0.6 0.84 16.9779
14.386740000000001 -0.64 0.84 16.9779
11.843340000000001 -0.72 0.84 12.7389
34.65684 -1.28 0.84 50.7614
24.53898 -1.34 0.84 33.8983
38.9826 -1.62 0.84 57.971
24.53898 -1.82 0.84 33.8983
22.97934 -2.06 0.84 31.2989
15.3111 -3.16 0.84 18.5185
15.3111 -3.24 0.84 18.5185
14.82888 -3.38 0.84 17.7148
14.82888 -3.4 0.84 17.7148
84.7368 5.84 0.82 134.228
52.78302 5.22 0.82 80.9717
52.78302 5.08 0.82 80.9717
52.78302 4.98 0.82 80.9717
52.78302 4.88 0.82 80.9717
84.7368 3.86 0.82 134.228
34.65684 3.28 0.82 50.7614
38.9826 2.98 0.82 57.971
52.78302 2.8 0.82 80.9717
34.65684 2.38 0.82 50.7614
22.97934 0.84 0.82 31.2989
22.97934 0.82 0.82 31.2989
22.97934 0.64 0.82 31.2989
22.97934 0.62 0.82 31.2989
21.64188 0.58 0.82 29.0698
21.64188 0.56 0.82 29.0698
31.28802 -0.18 0.82 45.1467
52.78302 -0.3 0.82 80.9717
31.28802 -0.36 0.82 45.1467
31.28802 -0.38 0.82 45.1467
20.4822 -0.46 0.82 27.137
14.386740000000001 -0.6 0.82 16.9779
18.57126 -0.86 0.82 23.9521
11.843340000000001 -0.94 0.82 12.7389
11.61198 -0.98 0.82 12.3533
34.65684 -1.28 0.82 50.7614
24.53898 -1.34 0.82 33.8983
22.97934 -1.72 0.82 31.2989
24.53898 -1.82 0.82 33.8983
52.78302 -1.92 0.82 80.9717
22.97934 -2.06 0.82 31.2989
15.3111 -3.14 0.82 18.5185
15.3111 -3.16 0.82 18.5185
14.82888 -3.38 0.82 17.7148
14.82888 -3.4 0.82 17.7148
84.7368 5.84 0.8 134.228
52.78302 5.42 0.8 80.9717
52.78302 5.2 0.8 80.9717
52.78302 5.08 0.8 80.9717
52.78302 4.98 0.8 80.9717
84.7368 4.78 0.8 134.228
8.569992 3.96 0.8 7.28332
84.7368 3.86 0.8 134.228
84.7368 3.84 0.8 134.228
38.9826 3.26 0.8 57.971
38.9826 2.98 0.8 57.971
34.65684 2.7 0.8 50.7614
34.65684 2.38 0.8 50.7614
26.38116 2.12 0.8 36.9686
44.74056 1.64 0.8 67.5676
38.9826 1.46 0.8 57.971
22.97934 0.84 0.8 31.2989
22.97934 0.82 0.8 31.2989
22.97934 0.64 0.8 31.2989
21.64188 0.58 0.8 29.0698
21.64188 0.56 0.8 29.0698
31.28802 0.1 0.8 45.1467
31.28802 -0.18 0.8 45.1467
52.78302 -0.3 0.8 80.9717
31.28802 -0.36 0.8 45.1467
31.28802 -0.38 0.8 45.1467
20.4822 -0.46 0.8 27.137
84.7368 -0.82 0.8 134.228
84.7368 -0.86 0.8 134.228
11.843340000000001 -0.94 0.8 12.7389
11.843340000000001 -0.98 0.8 12.7389
21.64188 -1.34 0.8 29.0698
22.97934 -1.7 0.8 31.2989
22.97934 -1.72 0.8 31.2989
22.97934 -2.06 0.8 31.2989
15.3111 -3.4 0.8 18.5185
84.7368 5.84 0.78 134.228
52.78302 5.42 0.78 80.9717
52.78302 5.4 0.78 80.9717
52.78302 5.2 0.78 80.9717
52.78302 5.18 0.78 80.9717
52.78302 5.14 0.78 80.9717
52.78302 5.08 0.78 80.9717
52.78302 4.98 0.78 80.9717
84.7368 4.76 0.78 134.228
84.7368 3.86 0.78 134.228
84.7368 3.84 0.78 134.228
38.9826 3.0 0.78 57.971
38.9826 2.98 0.78 57.971
52.78302 2.82 0.78 80.9717
34.65684 2.7 0.78 50.7614
26.38116 2.1 0.78 36.9686
26.38116 2.08 0.78 36.9686
44.74056 1.64 0.78 67.5676
22.97934 0.82 0.78 31.2989
22.97934 0.8 0.78 31.2989
64.806 0.78 0.78 101.01
22.97934 0.66 0.78 31.2989
21.64188 0.58 0.78 29.0698
21.64188 0.56 0.78 29.0698
31.28802 0.1 0.78 45.1467
31.28802 -0.18 0.78 45.1467
52.78302 -0.3 0.78 80.9717
44.74056 -0.32 0.78 67.5676
31.28802 -0.36 0.78 45.1467
31.28802 -0.38 0.78 45.1467
19.467180000000003 -0.68 0.78 25.4453
19.467180000000003 -0.7 0.78 25.4453
84.7368 -0.84 0.78 134.228
12.08952 -0.94 0.78 13.1492
11.843340000000001 -0.98 0.78 12.7389
11.61198 -1.0 0.78 12.3533
10.316220000000001 -1.1 0.78 10.1937
22.97934 -1.72 0.78 31.2989
24.53898 -1.82 0.78 33.8983
22.97934 -2.06 0.78 31.2989
15.3111 -3.22 0.78 18.5185
15.3111 -3.38 0.78 18.5185
15.3111 -3.4 0.78 18.5185
84.7368 5.84 0.76 134.228
38.9826 5.68 0.76 57.971
52.78302 5.18 0.76 80.9717
52.78302 5.08 0.76 80.9717
44.74056 4.98 0.76 67.5676
64.806 4.58 0.76 101.01
84.7368 3.86 0.76 134.228
38.9826 3.3 0.76 57.971
38.9826 3.0 0.76 57.971
38.9826 2.98 0.76 57.971
64.806 2.82 0.76 101.01
34.65684 2.68 0.76 50.7614
34.65684 2.4 0.76 50.7614
84.7368 2.18 0.76 134.228
26.38116 2.1 0.76 36.9686
26.38116 2.08 0.76 36.9686
44.74056 1.64 0.76 67.5676
64.806 0.8 0.76 101.01
64.806 0.78 0.76 101.01
22.97934 0.66 0.76 31.2989
17.77464 0.58 0.76 22.6244
17.77464 0.56 0.76 22.6244
31.28802 -0.18 0.76 45.1467
52.78302 -0.26 0.76 80.9717
52.78302 -0.3 0.76 80.9717
44.74056 -0.32 0.76 67.5676
31.28802 -0.36 0.76 45.1467
31.28802 -0.38 0.76 45.1467
124.19999999999999 -0.46 0.76 200.0
20.4822 -0.68 0.76 27.137
19.467180000000003 -0.7 0.76 25.4453
19.467180000000003 -0.72 0.76 25.4453
84.7368 -0.82 0.76 134.228
84.7368 -0.84 0.76 134.228
12.08952 -0.94 0.76 13.1492
10.316220000000001 -1.1 0.76 10.1937
22.97934 -1.68 0.76 31.2989
22.97934 -1.72 0.76 31.2989
24.53898 -1.82 0.76 33.8983
17.77464 -1.94 0.76 22.6244
22.97934 -2.04 0.76 31.2989
22.97934 -2.06 0.76 31.2989
15.3111 -3.18 0.76 18.5185
15.3111 -3.2 0.76 18.5185
15.3111 -3.22 0.76 18.5185
15.3111 -3.38 0.76 18.5185
15.3111 -3.4 0.76 18.5185
44.74056 5.32 0.74 67.5676
52.78302 5.08 0.74 80.9717
44.74056 4.98 0.74 67.5676
64.806 4.58 0.74 101.01
84.7368 3.86 0.74 134.228
38.9826 3.3 0.74 57.971
38.9826 3.0 0.74 57.971
38.9826 2.98 0.74 57.971
84.7368 2.18 0.74 134.228
84.7368 2.16 0.74 134.228
26.38116 2.08 0.74 36.9686
44.74056 1.3 0.74 67.5676
22.97934 0.66 0.74 31.2989
22.97934 0.64 0.74 31.2989
21.64188 0.58 0.74 29.0698
17.77464 0.56 0.74 22.6244
13.979940000000001 0.48 0.74 16.2999
31.28802 0.14 0.74 45.1467
31.28802 0.12 0.74 45.1467
31.28802 -0.18 0.74 45.1467
52.78302 -0.26 0.74 80.9717
52.78302 -0.3 0.74 80.9717
44.74056 -0.32 0.74 67.5676
31.28802 -0.36 0.74 45.1467
24.53898 -0.64 0.74 33.8983
19.467180000000003 -0.72 0.74 25.4453
124.19999999999999 -0.82 0.74 200.0
38.9826 -0.92 0.74 57.971
16.419959999999996 -1.16 0.74 20.3666
44.74056 -1.28 0.74 67.5676
44.74056 -1.3 0.74 67.5676
16.419959999999996 -1.52 0.74 20.3666
22.97934 -1.72 0.74 31.2989
24.53898 -1.82 0.74 33.8983
22.97934 -2.06 0.74 31.2989
15.3111 -3.2 0.74 18.5185
14.82888 -3.4 0.74 17.7148
14.82888 -3.42 0.74 17.7148
44.74056 5.3 0.72 67.5676
52.78302 5.2 0.72 80.9717
52.78302 5.08 0.72 80.9717
44.74056 4.98 0.72 67.5676
52.78302 4.86 0.72 80.9717
52.78302 4.64 0.72 80.9717
84.7368 3.86 0.72 134.228
84.7368 3.84 0.72 134.228
38.9826 3.28 0.72 57.971
38.9826 2.98 0.72 57.971
31.28802 2.58 0.72 45.1467
31.28802 2.56 0.72 45.1467
84.7368 2.16 0.72 134.228
26.38116 2.04 0.72 36.9686
22.97934 0.66 0.72 31.2989
22.97934 0.64 0.72 31.2989
22.97934 0.62 0.72 31.2989
21.64188 0.58 0.72 29.0698
17.77464 0.56 0.72 22.6244
13.979940000000001 0.46 0.72 16.2999
34.65684 0.24 0.72 50.7614
31.28802 0.14 0.72 45.1467
31.28802 0.12 0.72 45.1467
31.28802 -0.18 0.72 45.1467
52.78302 -0.26 0.72 80.9717
21.64188 -0.64 0.72 29.0698
38.9826 -0.92 0.72 57.971
16.419959999999996 -1.08 0.72 20.3666
44.74056 -1.28 0.72 67.5676
44.74056 -1.3 0.72 67.5676
16.419959999999996 -1.52 0.72 20.3666
22.97934 -1.72 0.72 31.2989
17.77464 -1.9 0.72 22.6244
17.77464 -1.94 0.72 22.6244
22.97934 -2.06 0.72 31.2989
22.97934 -2.08 0.72 31.2989
14.82888 -3.42 0.72 17.7148
84.7368 5.8 0.7 134.228
44.74056 5.28 0.7 67.5676
44.74056 5.18 0.7 67.5676
52.78302 5.08 0.7 80.9717
44.74056 4.96 0.7 67.5676
52.78302 4.86 0.7 80.9717
52.78302 4.84 0.7 80.9717
8.493384 4.1 0.7 7.15564
8.493384 4.08 0.7 7.15564
8.493384 4.06 0.7 7.15564
64.806 4.0 0.7 101.01
84.7368 3.84 0.7 134.228
38.9826 3.28 0.7 57.971
38.9826 3.26 0.7 57.971
52.78302 2.88 0.7 80.9717
44.74056 2.74 0.7 67.5676
84.7368 2.16 0.7 134.228
26.38116 2.04 0.7 36.9686
26.38116 2.02 0.7 36.9686
64.806 1.72 0.7 101.01
64.806 1.7 0.7 101.01
22.97934 0.64 0.7 31.2989
22.97934 0.62 0.7 31.2989
17.77464 0.56 0.7 22.6244
17.77464 0.54 0.7 22.6244
15.83916 0.44 0.7 19.3986
34.65684 0.24 0.7 50.7614
31.28802 0.12 0.7 45.1467
31.28802 -0.18 0.7 45.1467
44.74056 -0.92 0.7 67.5676
44.74056 -0.94 0.7 67.5676
20.4822 -1.08 0.7 27.137
38.9826 -1.28 0.7 57.971
38.9826 -1.3 0.7 57.971
20.4822 -1.36 0.7 27.137
16.419959999999996 -1.5 0.7 20.3666
16.419959999999996 -1.52 0.7 20.3666
22.97934 -1.72 0.7 31.2989
14.82888 -3.42 0.7 17.7148
14.82888 -3.44 0.7 17.7148
84.7368 5.8 0.68 134.228
38.9826 5.68 0.68 57.971
44.74056 5.16 0.68 67.5676
8.493384 4.12 0.68 7.15564
8.493384 4.1 0.68 7.15564
38.9826 3.26 0.68 57.971
52.78302 2.88 0.68 80.9717
34.65684 2.68 0.68 50.7614
26.38116 2.02 0.68 36.9686
22.97934 0.64 0.68 31.2989
22.97934 0.62 0.68 31.2989
21.64188 0.54 0.68 29.0698
34.65684 0.4 0.68 50.7614
64.806 0.32 0.68 101.01
64.806 0.3 0.68 101.01
34.65684 0.24 0.68 50.7614
34.65684 0.22 0.68 50.7614
31.28802 0.12 0.68 45.1467
13.979940000000001 -0.6 0.68 16.2999
12.3522 -0.68 0.68 13.587
44.74056 -0.92 0.68 67.5676
44.74056 -0.94 0.68 67.5676
20.4822 -1.08 0.68 27.137
38.9826 -1.28 0.68 57.971
38.9826 -1.3 0.68 57.971
28.590239999999998 -1.5 0.68 40.6504
28.590239999999998 -1.52 0.68 40.6504
44.74056 -1.62 0.68 67.5676
22.97934 -1.72 0.68 31.2989
17.06172 -1.84 0.68 21.4362
14.82888 -3.4 0.68 17.7148
14.82888 -3.42 0.68 17.7148
52.78302 3.32 0.66 80.9717
52.78302 2.88 0.66 80.9717
34.65684 2.66 0.66 50.7614
64.806 2.28 0.66 101.01
44.74056 1.64 0.66 67.5676
22.97934 0.64 0.66 31.2989
22.97934 0.62 0.66 31.2989
34.65684 0.4 0.66 50.7614
64.806 0.32 0.66 101.01
64.806 0.3 0.66 101.01
31.28802 0.16 0.66 45.1467
31.28802 0.12 0.66 45.1467
31.28802 -0.34 0.66 45.1467
17.77464 -0.5 0.66 22.6244
13.979940000000001 -0.6 0.66 16.2999
12.3522 -0.68 0.66 13.587
44.74056 -0.92 0.66 67.5676
44.74056 -0.94 0.66 67.5676
20.4822 -1.08 0.66 27.137
17.06172 -1.14 0.66 21.4362
38.9826 -1.3 0.66 57.971
28.590239999999998 -1.5 0.66 40.6504
28.590239999999998 -1.54 0.66 40.6504
22.97934 -1.72 0.66 31.2989
24.53898 -2.06 0.66 33.8983
15.83916 -3.14 0.66 19.3986
15.3111 -3.16 0.66 18.5185
15.3111 -3.18 0.66 18.5185
15.3111 -3.2 0.66 18.5185
13.25658 -3.28 0.66 15.0943
15.3111 -3.4 0.66 18.5185
15.3111 -3.42 0.66 18.5185
52.78302 4.92 0.64 80.9717
52.78302 3.34 0.64 80.9717
52.78302 3.32 0.64 80.9717
38.9826 3.24 0.64 57.971
34.65684 2.66 0.64 50.7614
34.65684 2.42 0.64 50.7614
124.19999999999999 1.72 0.64 200.0
44.74056 1.64 0.64 67.5676
22.97934 0.64 0.64 31.2989
22.97934 0.62 0.64 31.2989
21.64188 0.54 0.64 29.0698
64.806 0.46 0.64 101.01
34.65684 0.4 0.64 50.7614
31.28802 0.16 0.64 45.1467
31.28802 0.12 0.64 45.1467
31.28802 -0.34 0.64 45.1467
31.28802 -0.36 0.64 45.1467
28.590239999999998 -0.38 0.64 40.6504
17.77464 -0.5 0.64 22.6244
13.979940000000001 -0.6 0.64 16.2999
12.3522 -0.68 0.64 13.587
18.57126 -0.74 0.64 23.9521
44.74056 -0.92 0.64 67.5676
44.74056 -0.94 0.64 67.5676
26.38116 -1.3 0.64 36.9686
28.590239999999998 -1.5 0.64 40.6504
28.590239999999998 -1.52 0.64 40.6504
28.590239999999998 -1.54 0.64 40.6504
38.9826 -1.6 0.64 57.971
22.97934 -1.72 0.64 31.2989
24.53898 -2.06 0.64 33.8983
15.3111 -3.16 0.64 18.5185
15.3111 -3.18 0.64 18.5185
15.3111 -3.2 0.64 18.5185
14.82888 -3.22 0.64 17.7148
15.3111 -3.4 0.64 18.5185
84.7368 5.72 0.62 134.228
38.9826 3.22 0.62 57.971
52.78302 3.0 0.62 80.9717
34.65684 2.42 0.62 50.7614
52.78302 2.34 0.62 80.9717
44.74056 1.64 0.62 67.5676
34.65684 0.72 0.62 50.7614
21.64188 0.54 0.62 29.0698
64.806 0.46 0.62 101.01
34.65684 0.4 0.62 50.7614
28.590239999999998 -0.18 0.62 40.6504
44.74056 -0.3 0.62 67.5676
38.9826 -0.32 0.62 57.971
28.590239999999998 -0.38 0.62 40.6504
19.467180000000003 -0.46 0.62 25.4453
19.467180000000003 -0.5 0.62 25.4453
14.386740000000001 -0.6 0.62 16.9779
24.53898 -0.68 0.62 33.8983
18.57126 -0.74 0.62 23.9521
44.74056 -0.92 0.62 67.5676
44.74056 -0.94 0.62 67.5676
34.65684 -1.24 0.62 50.7614
26.38116 -1.3 0.62 36.9686
28.590239999999998 -1.36 0.62 40.6504
16.419959999999996 -1.5 0.62 20.3666
16.419959999999996 -1.52 0.62 20.3666
22.97934 -1.72 0.62 31.2989
26.38116 -1.92 0.62 36.9686
26.38116 -1.94 0.62 36.9686
24.53898 -2.06 0.62 33.8983
15.3111 -3.18 0.62 18.5185
15.3111 -3.2 0.62 18.5185
14.82888 -3.22 0.62 17.7148
15.3111 -3.4 0.62 18.5185
84.7368 5.72 0.6 134.228
84.7368 5.18 0.6 134.228
52.78302 3.32 0.6 80.9717
52.78302 3.0 0.6 80.9717
64.806 2.7 0.6 101.01
44.74056 2.68 0.6 67.5676
34.65684 2.46 0.6 50.7614
84.7368 2.18 0.6 134.228
44.74056 1.64 0.6 67.5676
34.65684 0.72 0.6 50.7614
34.65684 0.7 0.6 50.7614
22.97934 0.66 0.6 31.2989
21.64188 0.56 0.6 29.0698
21.64188 0.54 0.6 29.0698
64.806 0.46 0.6 101.01
28.590239999999998 -0.18 0.6 40.6504
28.590239999999998 -0.2 0.6 40.6504
44.74056 -0.32 0.6 67.5676
28.590239999999998 -0.38 0.6 40.6504
19.467180000000003 -0.5 0.6 25.4453
14.386740000000001 -0.6 0.6 16.9779
24.53898 -0.68 0.6 33.8983
19.467180000000003 -0.74 0.6 25.4453
19.467180000000003 -0.76 0.6 25.4453
26.38116 -0.92 0.6 36.9686
14.386740000000001 -1.18 0.6 16.9779
26.38116 -1.3 0.6 36.9686
17.06172 -1.52 0.6 21.4362
9.406074 -1.64 0.6 8.67679
22.97934 -1.72 0.6 31.2989
24.53898 -2.06 0.6 33.8983
14.82888 -3.22 0.6 17.7148
14.82888 -3.24 0.6 17.7148
15.3111 -3.4 0.6 18.5185
84.7368 5.92 0.58 134.228
84.7368 5.6 0.58 134.228
84.7368 5.2 0.58 134.228
52.78302 5.06 0.58 80.9717
52.78302 3.9 0.58 80.9717
52.78302 2.64 0.58 80.9717
52.78302 2.62 0.58 80.9717
84.7368 2.18 0.58 134.228
44.74056 1.64 0.58 67.5676
44.74056 1.62 0.58 67.5676
34.65684 0.76 0.58 50.7614
34.65684 0.72 0.58 50.7614
34.65684 0.7 0.58 50.7614
24.53898 0.66 0.58 33.8983
22.97934 0.64 0.58 31.2989
21.64188 0.56 0.58 29.0698
21.64188 0.54 0.58 29.0698
31.28802 0.08 0.58 45.1467
28.590239999999998 -0.18 0.58 40.6504
28.590239999999998 -0.2 0.58 40.6504
44.74056 -0.32 0.58 67.5676
31.28802 -0.38 0.58 45.1467
22.97934 -0.44 0.58 31.2989
84.7368 -0.52 0.58 134.228
38.9826 -0.6 0.58 57.971
24.53898 -0.66 0.58 33.8983
24.53898 -0.68 0.58 33.8983
19.467180000000003 -0.74 0.58 25.4453
26.38116 -0.94 0.58 36.9686
11.61198 -1.02 0.58 12.3533
20.4822 -1.08 0.58 27.137
14.386740000000001 -1.16 0.58 16.9779
26.38116 -1.3 0.58 36.9686
28.590239999999998 -1.36 0.58 40.6504
17.06172 -1.52 0.58 21.4362
16.419959999999996 -1.54 0.58 20.3666
9.406074 -1.62 0.58 8.67679
9.406074 -1.64 0.58 8.67679
22.97934 -1.72 0.58 31.2989
24.53898 -2.06 0.58 33.8983
14.82888 -3.22 0.58 17.7148
14.82888 -3.24 0.58 17.7148
15.3111 -3.4 0.58 18.5185
84.7368 5.92 0.56 134.228
84.7368 5.88 0.56 134.228
84.7368 5.86 0.56 134.228
84.7368 5.6 0.56 134.228
124.19999999999999 5.46 0.56 200.0
64.806 3.32 0.56 101.01
38.9826 3.2 0.56 57.971
38.9826 3.18 0.56 57.971
52.78302 2.64 0.56 80.9717
52.78302 2.62 0.56 80.9717
31.28802 2.56 0.56 45.1467
64.806 2.5 0.56 101.01
84.7368 2.18 0.56 134.228
44.74056 1.64 0.56 67.5676
44.74056 1.62 0.56 67.5676
38.9826 0.84 0.56 57.971
34.65684 0.76 0.56 50.7614
34.65684 0.72 0.56 50.7614
24.53898 0.66 0.56 33.8983
22.97934 0.64 0.56 31.2989
21.64188 0.22 0.56 29.0698
34.65684 0.16 0.56 50.7614
31.28802 0.08 0.56 45.1467
28.590239999999998 -0.18 0.56 40.6504
28.590239999999998 -0.2 0.56 40.6504
44.74056 -0.32 0.56 67.5676
34.65684 -0.36 0.56 50.7614
31.28802 -0.38 0.56 45.1467
22.97934 -0.44 0.56 31.2989
84.7368 -0.52 0.56 134.228
84.7368 -0.54 0.56 134.228
38.9826 -0.6 0.56 57.971
24.53898 -0.66 0.56 33.8983
24.53898 -0.68 0.56 33.8983
19.467180000000003 -0.74 0.56 25.4453
26.38116 -0.94 0.56 36.9686
124.19999999999999 -1.02 0.56 200.0
20.4822 -1.08 0.56 27.137
14.386740000000001 -1.14 0.56 16.9779
14.386740000000001 -1.16 0.56 16.9779
84.7368 -1.22 0.56 134.228
26.38116 -1.3 0.56 36.9686
17.06172 -1.5 0.56 21.4362
17.06172 -1.52 0.56 21.4362
10.811580000000001 -1.6 0.56 11.0193
10.811580000000001 -1.62 0.56 11.0193
22.97934 -1.72 0.56 31.2989
14.82888 -3.22 0.56 17.7148
14.82888 -3.24 0.56 17.7148
84.7368 5.92 0.54 134.228
84.7368 5.86 0.54 134.228
84.7368 5.6 0.54 134.228
124.19999999999999 5.46 0.54 200.0
84.7368 5.38 0.54 134.228
44.74056 5.12 0.54 67.5676
84.7368 4.48 0.54 134.228
38.9826 3.16 0.54 57.971
38.9826 3.14 0.54 57.971
52.78302 2.62 0.54 80.9717
31.28802 2.56 0.54 45.1467
44.74056 1.64 0.54 67.5676
44.74056 1.62 0.54 67.5676
38.9826 0.98 0.54 57.971
24.53898 0.92 0.54 33.8983
38.9826 0.86 0.54 57.971
38.9826 0.82 0.54 57.971
52.78302 0.76 0.54 80.9717
34.65684 0.72 0.54 50.7614
24.53898 0.66 0.54 33.8983
24.53898 0.64 0.54 33.8983
21.64188 0.56 0.54 29.0698
38.9826 0.3 0.54 57.971
38.9826 0.28 0.54 57.971
21.64188 0.22 0.54 29.0698
34.65684 0.16 0.54 50.7614
28.590239999999998 -0.18 0.54 40.6504
28.590239999999998 -0.2 0.54 40.6504
44.74056 -0.32 0.54 67.5676
34.65684 -0.36 0.54 50.7614
31.28802 -0.38 0.54 45.1467
22.97934 -0.44 0.54 31.2989
22.97934 -0.48 0.54 31.2989
84.7368 -0.54 0.54 134.228
38.9826 -0.6 0.54 57.971
24.53898 -0.68 0.54 33.8983
19.467180000000003 -0.74 0.54 25.4453
19.467180000000003 -0.76 0.54 25.4453
26.38116 -0.94 0.54 36.9686
124.19999999999999 -1.0 0.54 200.0
20.4822 -1.08 0.54 27.137
14.386740000000001 -1.14 0.54 16.9779
14.386740000000001 -1.16 0.54 16.9779
124.19999999999999 -1.22 0.54 200.0
17.06172 -1.3 0.54 21.4362
28.590239999999998 -1.5 0.54 40.6504
10.995 -1.58 0.54 11.325
10.811580000000001 -1.6 0.54 11.0193
22.97934 -1.72 0.54 31.2989
14.82888 -3.22 0.54 17.7148
14.82888 -3.24 0.54 17.7148
84.7368 5.92 0.52 134.228
84.7368 5.6 0.52 134.228
124.19999999999999 5.46 0.52 200.0
84.7368 5.38 0.52 134.228
44.74056 5.1 0.52 67.5676
38.9826 3.14 0.52 57.971
44.74056 2.8 0.52 67.5676
44.74056 2.78 0.52 67.5676
44.74056 2.76 0.52 67.5676
52.78302 2.62 0.52 80.9717
44.74056 1.64 0.52 67.5676
44.74056 1.62 0.52 67.5676
38.9826 1.02 0.52 57.971
38.9826 0.98 0.52 57.971
38.9826 0.46 0.52 57.971
34.65684 0.32 0.52 50.7614
34.65684 0.16 0.52 50.7614
28.590239999999998 -0.2 0.52 40.6504
84.7368 -0.26 0.52 134.228
52.78302 -0.32 0.52 80.9717
34.65684 -0.36 0.52 50.7614
31.28802 -0.38 0.52 45.1467
38.9826 -0.56 0.52 57.971
38.9826 -0.6 0.52 57.971
24.53898 -0.66 0.52 33.8983
24.53898 -0.68 0.52 33.8983
19.467180000000003 -0.74 0.52 25.4453
52.78302 -0.88 0.52 80.9717
26.38116 -0.92 0.52 36.9686
26.38116 -0.94 0.52 36.9686
124.19999999999999 -1.0 0.52 200.0
20.4822 -1.08 0.52 27.137
28.590239999999998 -1.14 0.52 40.6504
28.590239999999998 -1.16 0.52 40.6504
17.06172 -1.3 0.52 21.4362
17.06172 -1.32 0.52 21.4362
13.979940000000001 -1.4 0.52 16.2999
34.65684 -1.5 0.52 50.7614
15.3111 -1.56 0.52 18.5185
15.3111 -1.58 0.52 18.5185
22.97934 -1.72 0.52 31.2989
14.82888 -3.24 0.52 17.7148
14.82888 -3.26 0.52 17.7148
15.3111 -3.38 0.52 18.5185
15.3111 -3.4 0.52 18.5185
84.7368 5.92 0.5 134.228
84.7368 5.86 0.5 134.228
84.7368 5.6 0.5 134.228
124.19999999999999 5.46 0.5 200.0
44.74056 5.1 0.5 67.5676
44.74056 5.08 0.5 67.5676
44.74056 5.0 0.5 67.5676
52.78302 4.76 0.5 80.9717
52.78302 4.74 0.5 80.9717
84.7368 4.58 0.5 134.228
84.7368 4.56 0.5 134.228
64.806 3.86 0.5 101.01
84.7368 3.48 0.5 134.228
44.74056 3.14 0.5 67.5676
38.9826 3.12 0.5 57.971
44.74056 2.74 0.5 67.5676
52.78302 2.62 0.5 80.9717
44.74056 1.88 0.5 67.5676
44.74056 1.86 0.5 67.5676
44.74056 1.84 0.5 67.5676
52.78302 1.7 0.5 80.9717
44.74056 1.66 0.5 67.5676
38.9826 1.1 0.5 57.971
38.9826 1.08 0.5 57.971
64.806 1.04 0.5 101.01
38.9826 1.02 0.5 57.971
38.9826 0.98 0.5 57.971
34.65684 0.52 0.5 50.7614
34.65684 0.46 0.5 50.7614
34.65684 0.44 0.5 50.7614
34.65684 0.32 0.5 50.7614
34.65684 0.16 0.5 50.7614
28.590239999999998 -0.18 0.5 40.6504
28.590239999999998 -0.2 0.5 40.6504
52.78302 -0.28 0.5 80.9717
52.78302 -0.32 0.5 80.9717
34.65684 -0.38 0.5 50.7614
22.97934 -0.44 0.5 31.2989
84.7368 -0.5 0.5 134.228
38.9826 -0.6 0.5 57.971
24.53898 -0.68 0.5 33.8983
19.467180000000003 -0.74 0.5 25.4453
19.467180000000003 -0.78 0.5 25.4453
15.3111 -0.84 0.5 18.5185
52.78302 -0.88 0.5 80.9717
38.9826 -0.92 0.5 57.971
26.38116 -0.94 0.5 36.9686
124.19999999999999 -1.0 0.5 200.0
20.4822 -1.08 0.5 27.137
28.590239999999998 -1.14 0.5 40.6504
28.590239999999998 -1.16 0.5 40.6504
17.06172 -1.3 0.5 21.4362
17.06172 -1.32 0.5 21.4362
13.979940000000001 -1.4 0.5 16.2999
28.590239999999998 -1.54 0.5 40.6504
16.419959999999996 -1.56 0.5 20.3666
24.53898 -1.72 0.5 33.8983
26.38116 -1.92 0.5 36.9686
26.38116 -1.94 0.5 36.9686
24.53898 -2.06 0.5 33.8983
24.53898 -2.08 0.5 33.8983
14.82888 -3.24 0.5 17.7148
14.82888 -3.26 0.5 17.7148
15.3111 -3.4 0.5 18.5185
84.7368 5.92 0.48 134.228
84.7368 5.86 0.48 134.228
84.7368 5.6 0.48 134.228
84.7368 5.32 0.48 134.228
44.74056 5.1 0.48 67.5676
44.74056 5.08 0.48 67.5676
52.78302 4.74 0.48 80.9717
8.569992 3.96 0.48 7.28332
84.7368 3.48 0.48 134.228
44.74056 3.18 0.48 67.5676
44.74056 3.14 0.48 67.5676
44.74056 3.12 0.48 67.5676
64.806 1.74 0.48 101.01
38.9826 1.68 0.48 57.971
38.9826 1.66 0.48 57.971
44.74056 1.22 0.48 67.5676
64.806 1.16 0.48 101.01
38.9826 1.14 0.48 57.971
38.9826 1.1 0.48 57.971
38.9826 0.98 0.48 57.971
22.97934 0.66 0.48 31.2989
34.65684 0.52 0.48 50.7614
34.65684 0.48 0.48 50.7614
34.65684 0.32 0.48 50.7614
34.65684 0.16 0.48 50.7614
28.590239999999998 -0.18 0.48 40.6504
28.590239999999998 -0.2 0.48 40.6504
52.78302 -0.28 0.48 80.9717
52.78302 -0.32 0.48 80.9717
34.65684 -0.36 0.48 50.7614
34.65684 -0.38 0.48 50.7614
22.97934 -0.44 0.48 31.2989
18.57126 -0.5 0.48 23.9521
24.53898 -0.68 0.48 33.8983
19.467180000000003 -0.78 0.48 25.4453
15.3111 -0.84 0.48 18.5185
52.78302 -0.88 0.48 80.9717
52.78302 -0.92 0.48 80.9717
52.78302 -0.94 0.48 80.9717
124.19999999999999 -1.0 0.48 200.0
20.4822 -1.08 0.48 27.137
28.590239999999998 -1.14 0.48 40.6504
28.590239999999998 -1.16 0.48 40.6504
21.64188 -1.22 0.48 29.0698
26.38116 -1.3 0.48 36.9686
26.38116 -1.32 0.48 36.9686
13.979940000000001 -1.38 0.48 16.2999
13.979940000000001 -1.4 0.48 16.2999
17.06172 -1.52 0.48 21.4362
17.06172 -1.54 0.48 21.4362
15.3111 -1.6 0.48 18.5185
31.28802 -1.66 0.48 45.1467
24.53898 -1.72 0.48 33.8983
52.78302 -1.82 0.48 80.9717
26.38116 -1.92 0.48 36.9686
26.38116 -1.94 0.48 36.9686
14.82888 -3.24 0.48 17.7148
14.82888 -3.26 0.48 17.7148
15.3111 -3.4 0.48 18.5185
64.806 5.72 0.46 101.01
84.7368 5.32 0.46 134.228
52.78302 5.1 0.46 80.9717
52.78302 5.08 0.46 80.9717
52.78302 4.94 0.46 80.9717
52.78302 4.72 0.46 80.9717
52.78302 4.66 0.46 80.9717
84.7368 3.46 0.46 134.228
44.74056 3.12 0.46 67.5676
44.74056 3.1 0.46 67.5676
124.19999999999999 2.68 0.46 200.0
34.65684 2.5 0.46 50.7614
44.74056 1.86 0.46 67.5676
64.806 1.74 0.46 101.01
38.9826 1.32 0.46 57.971
44.74056 1.26 0.46 67.5676
44.74056 1.22 0.46 67.5676
38.9826 1.1 0.46 57.971
38.9826 0.76 0.46 57.971
26.38116 0.7 0.46 36.9686
21.64188 0.66 0.46 29.0698
34.65684 0.48 0.46 50.7614
34.65684 0.16 0.46 50.7614
31.28802 -0.18 0.46 45.1467
31.28802 -0.2 0.46 45.1467
52.78302 -0.32 0.46 80.9717
34.65684 -0.36 0.46 50.7614
22.97934 -0.44 0.46 31.2989
18.57126 -0.5 0.46 23.9521
18.57126 -0.52 0.46 23.9521
38.9826 -0.6 0.46 57.971
24.53898 -0.68 0.46 33.8983
19.467180000000003 -0.74 0.46 25.4453
38.9826 -0.84 0.46 57.971
52.78302 -0.88 0.46 80.9717
52.78302 -0.92 0.46 80.9717
52.78302 -0.94 0.46 80.9717
124.19999999999999 -1.0 0.46 200.0
20.4822 -1.08 0.46 27.137
28.590239999999998 -1.14 0.46 40.6504
28.590239999999998 -1.16 0.46 40.6504
26.38116 -1.3 0.46 36.9686
14.386740000000001 -1.38 0.46 16.9779
19.467180000000003 -1.46 0.46 25.4453
17.06172 -1.52 0.46 21.4362
24.53898 -1.72 0.46 33.8983
52.78302 -1.86 0.46 80.9717
15.3111 -3.24 0.46 18.5185
15.3111 -3.26 0.46 18.5185
15.3111 -3.4 0.46 18.5185
15.3111 -3.42 0.46 18.5185
64.806 5.72 0.44 101.01
52.78302 5.1 0.44 80.9717
52.78302 5.08 0.44 80.9717
52.78302 4.94 0.44 80.9717
64.806 4.58 0.44 101.01
64.806 4.56 0.44 101.01
124.19999999999999 4.4 0.44 200.0
44.74056 3.14 0.44 67.5676
44.74056 3.12 0.44 67.5676
44.74056 3.1 0.44 67.5676
52.78302 2.7 0.44 80.9717
64.806 2.62 0.44 101.01
64.806 1.74 0.44 101.01
34.65684 1.68 0.44 50.7614
38.9826 1.32 0.44 57.971
44.74056 1.26 0.44 67.5676
44.74056 1.22 0.44 67.5676
38.9826 0.76 0.44 57.971
38.9826 0.74 0.44 57.971
26.38116 0.7 0.44 36.9686
21.64188 0.66 0.44 29.0698
21.64188 0.64 0.44 29.0698
34.65684 0.48 0.44 50.7614
34.65684 -0.18 0.44 50.7614
34.65684 -0.2 0.44 50.7614
44.74056 -0.32 0.44 67.5676
34.65684 -0.36 0.44 50.7614
34.65684 -0.38 0.44 50.7614
22.97934 -0.44 0.44 31.2989
52.78302 -0.5 0.44 80.9717
52.78302 -0.52 0.44 80.9717
28.590239999999998 -0.58 0.44 40.6504
28.590239999999998 -0.6 0.44 40.6504
24.53898 -0.68 0.44 33.8983
19.467180000000003 -0.74 0.44 25.4453
52.78302 -0.84 0.44 80.9717
52.78302 -0.92 0.44 80.9717
52.78302 -0.94 0.44 80.9717
124.19999999999999 -1.0 0.44 200.0
20.4822 -1.08 0.44 27.137
28.590239999999998 -1.14 0.44 40.6504
26.38116 -1.3 0.44 36.9686
17.06172 -1.52 0.44 21.4362
17.06172 -1.54 0.44 21.4362
24.53898 -1.72 0.44 33.8983
15.3111 -3.24 0.44 18.5185
15.3111 -3.26 0.44 18.5185
15.3111 -3.42 0.44 18.5185
64.806 5.72 0.42 101.01
84.7368 5.34 0.42 134.228
52.78302 5.1 0.42 80.9717
52.78302 5.08 0.42 80.9717
52.78302 4.96 0.42 80.9717
52.78302 4.64 0.42 80.9717
64.806 4.56 0.42 101.01
124.19999999999999 4.4 0.42 200.0
124.19999999999999 4.38 0.42 200.0
64.806 3.26 0.42 101.01
64.806 2.62 0.42 101.01
52.78302 1.74 0.42 80.9717
34.65684 1.68 0.42 50.7614
44.74056 1.42 0.42 67.5676
38.9826 0.9 0.42 57.971
38.9826 0.88 0.42 57.971
34.65684 0.84 0.42 50.7614
84.7368 0.82 0.42 134.228
38.9826 0.76 0.42 57.971
21.64188 0.64 0.42 29.0698
31.28802 -0.18 0.42 45.1467
31.28802 -0.2 0.42 45.1467
34.65684 -0.36 0.42 50.7614
34.65684 -0.38 0.42 50.7614
22.97934 -0.44 0.42 31.2989
52.78302 -0.52 0.42 80.9717
28.590239999999998 -0.6 0.42 40.6504
28.590239999999998 -0.62 0.42 40.6504
20.4822 -0.68 0.42 27.137
52.78302 -0.82 0.42 80.9717
52.78302 -0.84 0.42 80.9717
52.78302 -0.92 0.42 80.9717
52.78302 -0.94 0.42 80.9717
28.590239999999998 -1.0 0.42 40.6504
28.590239999999998 -1.02 0.42 40.6504
20.4822 -1.08 0.42 27.137
28.590239999999998 -1.16 0.42 40.6504
26.38116 -1.3 0.42 36.9686
26.38116 -1.32 0.42 36.9686
21.64188 -1.38 0.42 29.0698
17.06172 -1.52 0.42 21.4362
17.06172 -1.54 0.42 21.4362
44.74056 -1.6 0.42 67.5676
15.3111 -3.22 0.42 18.5185
15.3111 -3.24 0.42 18.5185
15.3111 -3.26 0.42 18.5185
15.3111 -3.42 0.42 18.5185
64.806 5.72 0.4 101.01
64.806 5.34 0.4 101.01
52.78302 5.1 0.4 80.9717
52.78302 5.08 0.4 80.9717
64.806 4.56 0.4 101.01
52.78302 4.48 0.4 80.9717
124.19999999999999 4.4 0.4 200.0
124.19999999999999 4.38 0.4 200.0
84.7368 4.16 0.4 134.228
64.806 3.26 0.4 101.01
64.806 3.24 0.4 101.01
64.806 3.02 0.4 101.01
52.78302 2.74 0.4 80.9717
52.78302 2.72 0.4 80.9717
64.806 2.62 0.4 101.01
64.806 2.6 0.4 101.01
31.28802 1.88 0.4 45.1467
26.38116 1.78 0.4 36.9686
44.74056 1.52 0.4 67.5676
44.74056 1.46 0.4 67.5676
44.74056 1.42 0.4 67.5676
38.9826 1.02 0.4 57.971
38.9826 0.94 0.4 57.971
38.9826 0.9 0.4 57.971
38.9826 0.76 0.4 57.971
21.64188 0.64 0.4 29.0698
16.419959999999996 0.56 0.4 20.3666
31.28802 -0.18 0.4 45.1467
31.28802 -0.2 0.4 45.1467
44.74056 -0.32 0.4 67.5676
34.65684 -0.36 0.4 50.7614
22.97934 -0.44 0.4 31.2989
124.19999999999999 -0.52 0.4 200.0
28.590239999999998 -0.6 0.4 40.6504
28.590239999999998 -0.62 0.4 40.6504
20.4822 -0.68 0.4 27.137
52.78302 -0.82 0.4 80.9717
52.78302 -0.84 0.4 80.9717
52.78302 -0.92 0.4 80.9717
52.78302 -0.94 0.4 80.9717
20.4822 -1.08 0.4 27.137
28.590239999999998 -1.14 0.4 40.6504
28.590239999999998 -1.16 0.4 40.6504
44.74056 -1.22 0.4 67.5676
44.74056 -1.24 0.4 67.5676
26.38116 -1.3 0.4 36.9686
26.38116 -1.32 0.4 36.9686
20.4822 -1.36 0.4 27.137
20.4822 -1.38 0.4 27.137
17.06172 -1.5 0.4 21.4362
15.3111 -3.22 0.4 18.5185
15.3111 -3.24 0.4 18.5185
15.3111 -3.42 0.4 18.5185
15.3111 -3.44 0.4 18.5185
64.806 5.32 0.38 101.01
52.78302 5.08 0.38 80.9717
52.78302 4.66 0.38 80.9717
64.806 4.56 0.38 101.01
52.78302 4.48 0.38 80.9717
84.7368 4.14 0.38 134.228
52.78302 2.74 0.38 80.9717
64.806 2.62 0.38 101.01
31.28802 1.88 0.38 45.1467
26.38116 1.78 0.38 36.9686
44.74056 1.52 0.38 67.5676
44.74056 1.42 0.38 67.5676
38.9826 1.06 0.38 57.971
38.9826 1.02 0.38 57.971
64.806 0.96 0.38 101.01
38.9826 0.94 0.38 57.971
38.9826 0.9 0.38 57.971
44.74056 0.76 0.38 67.5676
22.97934 0.64 0.38 31.2989
16.419959999999996 0.56 0.38 20.3666
20.4822 0.08 0.38 27.137
31.28802 -0.2 0.38 45.1467
44.74056 -0.32 0.38 67.5676
44.74056 -0.36 0.38 67.5676
31.28802 -0.4 0.38 45.1467
22.97934 -0.44 0.38 31.2989
124.19999999999999 -0.52 0.38 200.0
28.590239999999998 -0.6 0.38 40.6504
28.590239999999998 -0.62 0.38 40.6504
20.4822 -0.68 0.38 27.137
52.78302 -0.92 0.38 80.9717
52.78302 -0.94 0.38 80.9717
28.590239999999998 -1.0 0.38 40.6504
28.590239999999998 -1.02 0.38 40.6504
20.4822 -1.08 0.38 27.137
26.38116 -1.14 0.38 36.9686
26.38116 -1.16 0.38 36.9686
44.74056 -1.22 0.38 67.5676
26.38116 -1.26 0.38 36.9686
26.38116 -1.3 0.38 36.9686
24.53898 -1.32 0.38 33.8983
22.97934 -2.08 0.38 31.2989
15.3111 -3.22 0.38 18.5185
15.3111 -3.24 0.38 18.5185
15.3111 -3.42 0.38 18.5185
15.3111 -3.44 0.38 18.5185
84.7368 5.6 0.36 134.228
84.7368 5.28 0.36 134.228
84.7368 5.12 0.36 134.228
84.7368 5.08 0.36 134.228
44.74056 4.96 0.36 67.5676
44.74056 4.94 0.36 67.5676
52.78302 4.66 0.36 80.9717
52.78302 4.64 0.36 80.9717
64.806 4.56 0.36 101.01
52.78302 4.5 0.36 80.9717
52.78302 4.48 0.36 80.9717
84.7368 3.42 0.36 134.228
64.806 3.3 0.36 101.01
64.806 1.98 0.36 101.01
31.28802 1.88 0.36 45.1467
26.38116 1.78 0.36 36.9686
52.78302 1.72 0.36 80.9717
44.74056 1.14 0.36 67.5676
64.806 1.08 0.36 101.01
38.9826 1.06 0.36 57.971
38.9826 1.02 0.36 57.971
38.9826 0.9 0.36 57.971
44.74056 0.76 0.36 67.5676
22.97934 0.64 0.36 31.2989
16.419959999999996 0.56 0.36 20.3666
16.419959999999996 0.54 0.36 20.3666
16.419959999999996 0.52 0.36 20.3666
31.28802 0.16 0.36 45.1467
20.4822 0.08 0.36 27.137
20.4822 0.06 0.36 27.137
31.28802 -0.2 0.36 45.1467
44.74056 -0.32 0.36 67.5676
22.97934 -0.44 0.36 31.2989
52.78302 -0.52 0.36 80.9717
28.590239999999998 -0.6 0.36 40.6504
28.590239999999998 -0.62 0.36 40.6504
22.97934 -0.68 0.36 31.2989
20.4822 -0.7 0.36 27.137
19.467180000000003 -0.74 0.36 25.4453
84.7368 -0.86 0.36 134.228
52.78302 -0.92 0.36 80.9717
52.78302 -0.94 0.36 80.9717
28.590239999999998 -1.0 0.36 40.6504
28.590239999999998 -1.02 0.36 40.6504
26.38116 -1.06 0.36 36.9686
44.74056 -1.08 0.36 67.5676
28.590239999999998 -1.14 0.36 40.6504
28.590239999999998 -1.16 0.36 40.6504
26.38116 -1.8 0.36 36.9686
26.38116 -1.82 0.36 36.9686
26.38116 -1.84 0.36 36.9686
22.97934 -2.06 0.36 31.2989
22.97934 -2.08 0.36 31.2989
15.3111 -3.2 0.36 18.5185
15.3111 -3.22 0.36 18.5185
12.933599999999998 -3.34 0.36 14.556
15.3111 -3.42 0.36 18.5185
15.3111 -3.44 0.36 18.5185
84.7368 5.6 0.34 134.228
84.7368 5.58 0.34 134.228
124.19999999999999 5.46 0.34 200.0
124.19999999999999 5.28 0.34 200.0
124.19999999999999 5.26 0.34 200.0
84.7368 5.12 0.34 134.228
44.74056 4.96 0.34 67.5676
52.78302 4.5 0.34 80.9717
52.78302 4.48 0.34 80.9717
84.7368 4.18 0.34 134.228
84.7368 4.16 0.34 134.228
84.7368 3.42 0.34 134.228
64.806 3.3 0.34 101.01
52.78302 2.74 0.34 80.9717
52.78302 2.6 0.34 80.9717
31.28802 1.88 0.34 45.1467
26.38116 1.78 0.34 36.9686
44.74056 1.26 0.34 67.5676
38.9826 1.24 0.34 57.971
44.74056 1.14 0.34 67.5676
64.806 1.08 0.34 101.01
38.9826 1.02 0.34 57.971
52.78302 0.76 0.34 80.9717
52.78302 0.72 0.34 80.9717
22.97934 0.64 0.34 31.2989
22.97934 0.62 0.34 31.2989
16.419959999999996 0.54 0.34 20.3666
16.419959999999996 0.52 0.34 20.3666
31.28802 0.16 0.34 45.1467
20.4822 0.08 0.34 27.137
31.28802 -0.2 0.34 45.1467
44.74056 -0.44 0.34 67.5676
52.78302 -0.52 0.34 80.9717
26.38116 -0.6 0.34 36.9686
26.38116 -0.62 0.34 36.9686
24.53898 -0.68 0.34 33.8983
22.97934 -0.7 0.34 31.2989
44.74056 -0.86 0.34 67.5676
44.74056 -0.92 0.34 67.5676
52.78302 -0.94 0.34 80.9717
28.590239999999998 -1.0 0.34 40.6504
26.38116 -1.8 0.34 36.9686
26.38116 -1.82 0.34 36.9686
26.38116 -1.84 0.34 36.9686
22.97934 -2.06 0.34 31.2989
22.97934 -2.08 0.34 31.2989
15.3111 -3.2 0.34 18.5185
15.3111 -3.22 0.34 18.5185
15.3111 -3.42 0.34 18.5185
64.806 5.94 0.32 101.01
84.7368 5.8 0.32 134.228
84.7368 5.78 0.32 134.228
84.7368 5.6 0.32 134.228
84.7368 5.58 0.32 134.228
124.19999999999999 5.46 0.32 200.0
84.7368 5.36 0.32 134.228
124.19999999999999 5.26 0.32 200.0
84.7368 5.12 0.32 134.228
84.7368 5.1 0.32 134.228
84.7368 4.8 0.32 134.228
124.19999999999999 4.7 0.32 200.0
52.78302 4.6 0.32 80.9717
64.806 4.5 0.32 101.01
84.7368 4.16 0.32 134.228
64.806 3.54 0.32 101.01
84.7368 3.42 0.32 134.228
64.806 3.28 0.32 101.01
52.78302 2.74 0.32 80.9717
64.806 1.98 0.32 101.01
64.806 1.96 0.32 101.01
31.28802 1.9 0.32 45.1467
31.28802 1.86 0.32 45.1467
28.590239999999998 1.78 0.32 40.6504
38.9826 1.74 0.32 57.971
52.78302 1.72 0.32 80.9717
44.74056 1.36 0.32 67.5676
44.74056 1.32 0.32 67.5676
44.74056 1.26 0.32 67.5676
38.9826 1.24 0.32 57.971
38.9826 1.2 0.32 57.971
44.74056 1.14 0.32 67.5676
38.9826 1.02 0.32 57.971
52.78302 0.76 0.32 80.9717
52.78302 0.72 0.32 80.9717
22.97934 0.64 0.32 31.2989
22.97934 0.62 0.32 31.2989
21.64188 0.52 0.32 29.0698
31.28802 0.16 0.32 45.1467
20.4822 0.08 0.32 27.137
34.65684 -0.2 0.32 50.7614
44.74056 -0.36 0.32 67.5676
34.65684 -0.4 0.32 50.7614
64.806 -0.44 0.32 101.01
31.28802 -0.52 0.32 45.1467
26.38116 -0.6 0.32 36.9686
26.38116 -0.62 0.32 36.9686
19.467180000000003 -0.7 0.32 25.4453
19.467180000000003 -0.74 0.32 25.4453
13.25658 -0.8 0.32 15.0943
44.74056 -1.72 0.32 67.5676
26.38116 -1.82 0.32 36.9686
26.38116 -1.84 0.32 36.9686
22.97934 -2.08 0.32 31.2989
15.3111 -3.2 0.32 18.5185
15.3111 -3.22 0.32 18.5185
12.933599999999998 -3.34 0.32 14.556
15.3111 -3.42 0.32 18.5185
15.3111 -3.44 0.32 18.5185
64.806 5.94 0.3 101.01
84.7368 5.78 0.3 134.228
84.7368 5.58 0.3 134.228
124.19999999999999 5.46 0.3 200.0
84.7368 5.36 0.3 134.228
124.19999999999999 5.26 0.3 200.0
84.7368 5.12 0.3 134.228
84.7368 5.1 0.3 134.228
84.7368 4.78 0.3 134.228
124.19999999999999 4.68 0.3 200.0
52.78302 4.6 0.3 80.9717
84.7368 4.16 0.3 134.228
84.7368 4.14 0.3 134.228
64.806 3.54 0.3 101.01
84.7368 3.42 0.3 134.228
38.9826 3.12 0.3 57.971
52.78302 3.0 0.3 80.9717
52.78302 2.62 0.3 80.9717
124.19999999999999 1.98 0.3 200.0
124.19999999999999 1.96 0.3 200.0
44.74056 1.46 0.3 67.5676
44.74056 1.42 0.3 67.5676
44.74056 1.4 0.3 67.5676
44.74056 1.36 0.3 67.5676
44.74056 1.26 0.3 67.5676
38.9826 1.24 0.3 57.971
44.74056 1.14 0.3 67.5676
22.97934 0.64 0.3 31.2989
34.65684 0.32 0.3 50.7614
31.28802 0.16 0.3 45.1467
20.4822 0.08 0.3 27.137
124.19999999999999 -0.1 0.3 200.0
38.9826 -0.2 0.3 57.971
28.590239999999998 -0.32 0.3 40.6504
31.28802 -0.36 0.3 45.1467
31.28802 -0.4 0.3 45.1467
64.806 -0.44 0.3 101.01
44.74056 -0.46 0.3 67.5676
31.28802 -0.52 0.3 45.1467
21.64188 -0.6 0.3 29.0698
21.64188 -0.62 0.3 29.0698
18.57126 -0.8 0.3 23.9521
19.467180000000003 -0.86 0.3 25.4453
19.467180000000003 -0.88 0.3 25.4453
44.74056 -1.72 0.3 67.5676
26.38116 -1.82 0.3 36.9686
26.38116 -1.84 0.3 36.9686
15.3111 -3.2 0.3 18.5185
15.3111 -3.42 0.3 18.5185
15.3111 -3.44 0.3 18.5185
64.806 5.94 0.28 101.01
84.7368 5.78 0.28 134.228
84.7368 5.6 0.28 134.228
84.7368 5.58 0.28 134.228
124.19999999999999 5.46 0.28 200.0
84.7368 5.36 0.28 134.228
124.19999999999999 5.26 0.28 200.0
84.7368 5.12 0.28 134.228
84.7368 5.1 0.28 134.228
84.7368 4.78 0.28 134.228
124.19999999999999 4.68 0.28 200.0
52.78302 4.6 0.28 80.9717
124.19999999999999 4.46 0.28 200.0
84.7368 4.16 0.28 134.228
84.7368 4.14 0.28 134.228
84.7368 4.0 0.28 134.228
84.7368 3.98 0.28 134.228
64.806 3.54 0.28 101.01
84.7368 3.42 0.28 134.228
38.9826 3.14 0.28 57.971
38.9826 3.12 0.28 57.971
52.78302 2.62 0.28 80.9717
52.78302 2.6 0.28 80.9717
44.74056 1.46 0.28 67.5676
44.74056 1.36 0.28 67.5676
22.97934 0.64 0.28 31.2989
34.65684 0.32 0.28 50.7614
26.38116 -0.02 0.28 36.9686
124.19999999999999 -0.1 0.28 200.0
38.9826 -0.2 0.28 57.971
38.9826 -0.22 0.28 57.971
28.590239999999998 -0.32 0.28 40.6504
31.28802 -0.36 0.28 45.1467
31.28802 -0.38 0.28 45.1467
34.65684 -0.4 0.28 50.7614
64.806 -0.44 0.28 101.01
31.28802 -0.52 0.28 45.1467
19.467180000000003 -0.72 0.28 25.4453
19.467180000000003 -0.74 0.28 25.4453
18.57126 -0.8 0.28 23.9521
18.57126 -0.86 0.28 23.9521
18.57126 -0.88 0.28 23.9521
12.63288 -0.96 0.28 14.0548
24.53898 -1.82 0.28 33.8983
24.53898 -1.84 0.28 33.8983
15.3111 -3.18 0.28 18.5185
15.3111 -3.2 0.28 18.5185
14.82888 -3.42 0.28 17.7148
64.806 5.94 0.26 101.01
84.7368 5.78 0.26 134.228
84.7368 5.6 0.26 134.228
52.78302 5.12 0.26 80.9717
52.78302 5.1 0.26 80.9717
84.7368 4.76 0.26 134.228
124.19999999999999 4.68 0.26 200.0
52.78302 4.6 0.26 80.9717
52.78302 4.58 0.26 80.9717
124.19999999999999 4.46 0.26 200.0
124.19999999999999 4.38 0.26 200.0
84.7368 4.0 0.26 134.228
84.7368 3.98 0.26 134.228
64.806 3.54 0.26 101.01
64.806 3.52 0.26 101.01
84.7368 3.32 0.26 134.228
38.9826 3.14 0.26 57.971
38.9826 3.12 0.26 57.971
64.806 2.4 0.26 101.01
64.806 1.9 0.26 101.01
28.590239999999998 1.84 0.26 40.6504
64.806 1.54 0.26 101.01
44.74056 1.46 0.26 67.5676
44.74056 1.36 0.26 67.5676
22.97934 0.64 0.26 31.2989
22.97934 0.56 0.26 31.2989
22.97934 0.54 0.26 31.2989
64.806 0.32 0.26 101.01
34.65684 0.24 0.26 50.7614
34.65684 0.2 0.26 50.7614
26.38116 -0.02 0.26 36.9686
124.19999999999999 -0.1 0.26 200.0
38.9826 -0.2 0.26 57.971
38.9826 -0.22 0.26 57.971
38.9826 -0.24 0.26 57.971
28.590239999999998 -0.32 0.26 40.6504
31.28802 -0.36 0.26 45.1467
31.28802 -0.38 0.26 45.1467
31.28802 -0.52 0.26 45.1467
19.467180000000003 -0.72 0.26 25.4453
19.467180000000003 -0.74 0.26 25.4453
19.467180000000003 -0.76 0.26 25.4453
18.57126 -0.88 0.26 23.9521
12.63288 -0.94 0.26 14.0548
12.63288 -0.96 0.26 14.0548
44.74056 -1.72 0.26 67.5676
24.53898 -1.84 0.26 33.8983
15.3111 -3.18 0.26 18.5185
15.3111 -3.2 0.26 18.5185
14.82888 -3.4 0.26 17.7148
14.82888 -3.42 0.26 17.7148
64.806 5.94 0.24 101.01
84.7368 5.78 0.24 134.228
52.78302 5.1 0.24 80.9717
52.78302 5.08 0.24 80.9717
52.78302 4.6 0.24 80.9717
52.78302 4.58 0.24 80.9717
52.78302 4.54 0.24 80.9717
124.19999999999999 4.38 0.24 200.0
84.7368 4.0 0.24 134.228
84.7368 3.98 0.24 134.228
52.78302 3.62 0.24 80.9717
38.9826 3.12 0.24 57.971
84.7368 2.88 0.24 134.228
64.806 2.4 0.24 101.01
64.806 1.96 0.24 101.01
64.806 1.9 0.24 101.01
28.590239999999998 1.84 0.24 40.6504
84.7368 1.7 0.24 134.228
44.74056 1.46 0.24 67.5676
64.806 0.76 0.24 101.01
22.97934 0.64 0.24 31.2989
22.97934 0.62 0.24 31.2989
22.97934 0.56 0.24 31.2989
22.97934 0.54 0.24 31.2989
34.65684 0.24 0.24 50.7614
24.53898 0.12 0.24 33.8983
52.78302 0.1 0.24 80.9717
26.38116 -0.02 0.24 36.9686
124.19999999999999 -0.1 0.24 200.0
38.9826 -0.2 0.24 57.971
38.9826 -0.22 0.24 57.971
38.9826 -0.24 0.24 57.971
19.467180000000003 -0.74 0.24 25.4453
12.933599999999998 -0.94 0.24 14.556
12.933599999999998 -0.96 0.24 14.556
52.78302 -1.72 0.24 80.9717
24.53898 -1.84 0.24 33.8983
22.97934 -2.08 0.24 31.2989
15.3111 -3.16 0.24 18.5185
15.3111 -3.18 0.24 18.5185
15.3111 -3.2 0.24 18.5185
14.82888 -3.4 0.24 17.7148
14.82888 -3.42 0.24 17.7148
84.7368 5.78 0.22 134.228
84.7368 5.32 0.22 134.228
84.7368 5.3 0.22 134.228
52.78302 5.12 0.22 80.9717
52.78302 5.1 0.22 80.9717
52.78302 5.08 0.22 80.9717
52.78302 4.54 0.22 80.9717
124.19999999999999 4.38 0.22 200.0
124.19999999999999 4.26 0.22 200.0
84.7368 4.0 0.22 134.228
84.7368 3.98 0.22 134.228
52.78302 3.62 0.22 80.9717
64.806 3.6 0.22 101.01
64.806 3.58 0.22 101.01
64.806 3.56 0.22 101.01
64.806 3.54 0.22 101.01
64.806 3.48 0.22 101.01
21.64188 3.46 0.22 29.0698
22.97934 3.44 0.22 31.2989
38.9826 3.12 0.22 57.971
64.806 2.38 0.22 101.01
64.806 1.96 0.22 101.01
64.806 1.9 0.22 101.01
28.590239999999998 1.8 0.22 40.6504
84.7368 1.74 0.22 134.228
64.806 1.7 0.22 101.01
64.806 0.76 0.22 101.01
22.97934 0.64 0.22 31.2989
22.97934 0.62 0.22 31.2989
22.97934 0.56 0.22 31.2989
22.97934 0.54 0.22 31.2989
64.806 0.28 0.22 101.01
52.78302 0.1 0.22 80.9717
52.78302 0.06 0.22 80.9717
31.28802 -0.64 0.22 45.1467
28.590239999999998 -0.66 0.22 40.6504
18.57126 -0.86 0.22 23.9521
12.933599999999998 -0.94 0.22 14.556
12.933599999999998 -0.96 0.22 14.556
24.53898 -1.84 0.22 33.8983
22.97934 -2.08 0.22 31.2989
15.3111 -3.18 0.22 18.5185
15.3111 -3.2 0.22 18.5185
12.933599999999998 -3.32 0.22 14.556
84.7368 5.78 0.2 134.228
64.806 5.32 0.2 101.01
64.806 5.28 0.2 101.01
52.78302 5.1 0.2 80.9717
52.78302 5.08 0.2 80.9717
44.74056 4.98 0.2 67.5676
84.7368 4.92 0.2 134.228
124.19999999999999 4.76 0.2 200.0
52.78302 4.54 0.2 80.9717
84.7368 4.2 0.2 134.228
84.7368 4.0 0.2 134.228
84.7368 3.98 0.2 134.228
52.78302 3.62 0.2 80.9717
64.806 3.56 0.2 101.01
64.806 3.54 0.2 101.01
64.806 3.52 0.2 101.01
52.78302 3.4 0.2 80.9717
64.806 3.38 0.2 101.01
64.806 3.36 0.2 101.01
64.806 3.34 0.2 101.01
52.78302 3.0 0.2 80.9717
52.78302 2.96 0.2 80.9717
44.74056 2.6 0.2 67.5676
38.9826 2.46 0.2 57.971
64.806 2.38 0.2 101.01
64.806 1.96 0.2 101.01
64.806 1.9 0.2 101.01
38.9826 1.1 0.2 57.971
64.806 0.76 0.2 101.01
22.97934 0.64 0.2 31.2989
22.97934 0.62 0.2 31.2989
21.64188 0.54 0.2 29.0698
31.28802 -0.62 0.2 45.1467
28.590239999999998 -0.66 0.2 40.6504
28.590239999999998 -0.7 0.2 40.6504
15.3111 -0.86 0.2 18.5185
28.590239999999998 -0.94 0.2 40.6504
28.590239999999998 -0.96 0.2 40.6504
24.53898 -1.84 0.2 33.8983
22.97934 -2.08 0.2 31.2989
15.3111 -3.18 0.2 18.5185
15.3111 -3.2 0.2 18.5185
15.3111 -3.22 0.2 18.5185
14.82888 -3.24 0.2 17.7148
12.933599999999998 -3.32 0.2 14.556
12.933599999999998 -3.34 0.2 14.556
64.806 5.72 0.18 101.01
52.78302 5.1 0.18 80.9717
52.78302 5.08 0.18 80.9717
44.74056 4.98 0.18 67.5676
84.7368 4.92 0.18 134.228
84.7368 4.9 0.18 134.228
124.19999999999999 4.76 0.18 200.0
52.78302 4.56 0.18 80.9717
52.78302 4.54 0.18 80.9717
84.7368 4.2 0.18 134.228
84.7368 4.18 0.18 134.228
84.7368 4.16 0.18 134.228
31.28802 4.1 0.18 45.1467
84.7368 3.98 0.18 134.228
64.806 3.52 0.18 101.01
84.7368 3.34 0.18 134.228
52.78302 2.96 0.18 80.9717
38.9826 2.46 0.18 57.971
64.806 2.38 0.18 101.01
64.806 1.9 0.18 101.01
28.590239999999998 1.84 0.18 40.6504
38.9826 1.74 0.18 57.971
64.806 1.68 0.18 101.01
38.9826 1.34 0.18 57.971
38.9826 0.7 0.18 57.971
22.97934 0.64 0.18 31.2989
22.97934 0.62 0.18 31.2989
21.64188 0.56 0.18 29.0698
21.64188 0.54 0.18 29.0698
31.28802 -0.36 0.18 45.1467
31.28802 -0.62 0.18 45.1467
28.590239999999998 -0.66 0.18 40.6504
15.3111 -0.84 0.18 18.5185
28.590239999999998 -0.94 0.18 40.6504
28.590239999999998 -0.96 0.18 40.6504
24.53898 -1.84 0.18 33.8983
15.3111 -3.22 0.18 18.5185
15.3111 -3.24 0.18 18.5185
15.3111 -3.4 0.18 18.5185
64.806 5.3 0.16 101.01
84.7368 5.12 0.16 134.228
44.74056 4.98 0.16 67.5676
84.7368 4.92 0.16 134.228
84.7368 4.9 0.16 134.228
124.19999999999999 4.76 0.16 200.0
52.78302 4.62 0.16 80.9717
52.78302 4.56 0.16 80.9717
52.78302 4.54 0.16 80.9717
64.806 4.38 0.16 101.01
84.7368 4.18 0.16 134.228
84.7368 4.16 0.16 134.228
64.806 3.72 0.16 101.01
64.806 3.52 0.16 101.01
64.806 3.4 0.16 101.01
84.7368 3.34 0.16 134.228
64.806 1.94 0.16 101.01
64.806 1.9 0.16 101.01
44.74056 1.88 0.16 67.5676
28.590239999999998 1.84 0.16 40.6504
38.9826 1.78 0.16 57.971
38.9826 1.74 0.16 57.971
64.806 1.68 0.16 101.01
22.97934 0.62 0.16 31.2989
21.64188 0.54 0.16 29.0698
21.64188 0.52 0.16 29.0698
31.28802 -0.18 0.16 45.1467
31.28802 -0.2 0.16 45.1467
34.65684 -0.32 0.16 50.7614
31.28802 -0.36 0.16 45.1467
31.28802 -0.38 0.16 45.1467
31.28802 -0.4 0.16 45.1467
38.9826 -0.62 0.16 57.971
28.590239999999998 -0.66 0.16 40.6504
26.38116 -0.68 0.16 36.9686
13.979940000000001 -0.94 0.16 16.2999
28.590239999999998 -0.96 0.16 40.6504
24.53898 -1.84 0.16 33.8983
24.53898 -2.08 0.16 33.8983
15.3111 -3.2 0.16 18.5185
15.3111 -3.22 0.16 18.5185
15.3111 -3.24 0.16 18.5185
84.7368 5.58 0.14 134.228
64.806 5.3 0.14 101.01
64.806 5.28 0.14 101.01
84.7368 5.12 0.14 134.228
84.7368 5.1 0.14 134.228
124.19999999999999 4.76 0.14 200.0
84.7368 4.18 0.14 134.228
84.7368 4.16 0.14 134.228
64.806 3.42 0.14 101.01
64.806 3.4 0.14 101.01
64.806 3.38 0.14 101.01
64.806 2.4 0.14 101.01
64.806 2.28 0.14 101.01
28.590239999999998 1.84 0.14 40.6504
28.590239999999998 1.82 0.14 40.6504
38.9826 1.78 0.14 57.971
38.9826 1.74 0.14 57.971
22.97934 0.62 0.14 31.2989
22.97934 0.6 0.14 31.2989
21.64188 0.54 0.14 29.0698
21.64188 0.52 0.14 29.0698
31.28802 -0.18 0.14 45.1467
31.28802 -0.2 0.14 45.1467
34.65684 -0.32 0.14 50.7614
31.28802 -0.36 0.14 45.1467
31.28802 -0.38 0.14 45.1467
31.28802 -0.4 0.14 45.1467
38.9826 -0.62 0.14 57.971
28.590239999999998 -0.66 0.14 40.6504
26.38116 -0.68 0.14 36.9686
26.38116 -0.7 0.14 36.9686
19.467180000000003 -0.76 0.14 25.4453
14.386740000000001 -0.94 0.14 16.9779
28.590239999999998 -0.96 0.14 40.6504
24.53898 -1.84 0.14 33.8983
24.53898 -2.08 0.14 33.8983
15.3111 -3.2 0.14 18.5185
15.3111 -3.22 0.14 18.5185
15.3111 -3.24 0.14 18.5185
13.6044 -3.3 0.14 15.674
84.7368 5.58 0.12 134.228
84.7368 5.36 0.12 134.228
64.806 5.3 0.12 101.01
84.7368 5.12 0.12 134.228
84.7368 5.1 0.12 134.228
124.19999999999999 4.76 0.12 200.0
124.19999999999999 4.48 0.12 200.0
124.19999999999999 4.46 0.12 200.0
84.7368 4.16 0.12 134.228
84.7368 3.98 0.12 134.228
64.806 3.4 0.12 101.01
28.590239999999998 1.82 0.12 40.6504
38.9826 1.74 0.12 57.971
38.9826 0.7 0.12 57.971
22.97934 0.62 0.12 31.2989
21.64188 0.54 0.12 29.0698
21.64188 0.52 0.12 29.0698
31.28802 -0.2 0.12 45.1467
34.65684 -0.32 0.12 50.7614
31.28802 -0.36 0.12 45.1467
31.28802 -0.38 0.12 45.1467
31.28802 -0.4 0.12 45.1467
38.9826 -0.62 0.12 57.971
28.590239999999998 -0.66 0.12 40.6504
26.38116 -0.68 0.12 36.9686
26.38116 -0.7 0.12 36.9686
18.57126 -0.76 0.12 23.9521
28.590239999999998 -0.9 0.12 40.6504
14.386740000000001 -0.94 0.12 16.9779
12.933599999999998 -0.96 0.12 14.556
38.9826 -1.74 0.12 57.971
24.53898 -1.84 0.12 33.8983
24.53898 -2.08 0.12 33.8983
15.3111 -3.22 0.12 18.5185
84.7368 5.7 0.1 134.228
84.7368 5.58 0.1 134.228
84.7368 5.54 0.1 134.228
84.7368 5.4 0.1 134.228
84.7368 5.36 0.1 134.228
64.806 5.3 0.1 101.01
84.7368 5.12 0.1 134.228
84.7368 5.1 0.1 134.228
124.19999999999999 4.76 0.1 200.0
124.19999999999999 4.46 0.1 200.0
64.806 4.3 0.1 101.01
64.806 4.28 0.1 101.01
84.7368 4.16 0.1 134.228
64.806 3.52 0.1 101.01
64.806 2.92 0.1 101.01
44.74056 2.08 0.1 67.5676
28.590239999999998 1.82 0.1 40.6504
38.9826 1.74 0.1 57.971
44.74056 1.12 0.1 67.5676
22.97934 0.62 0.1 31.2989
21.64188 0.54 0.1 29.0698
21.64188 0.52 0.1 29.0698
21.64188 0.5 0.1 29.0698
31.28802 -0.2 0.1 45.1467
31.28802 -0.36 0.1 45.1467
31.28802 -0.38 0.1 45.1467
31.28802 -0.4 0.1 45.1467
38.9826 -0.62 0.1 57.971
28.590239999999998 -0.66 0.1 40.6504
26.38116 -0.68 0.1 36.9686
26.38116 -0.7 0.1 36.9686
19.467180000000003 -0.76 0.1 25.4453
44.74056 -0.88 0.1 67.5676
28.590239999999998 -0.9 0.1 40.6504
13.979940000000001 -0.94 0.1 16.2999
12.933599999999998 -0.96 0.1 14.556
