VERSION .7
FIELDS x y z rgb
SIZE 4 4 4 4
TYPE F F F F
COUNT 1 1 1 1
WIDTH 822
HEIGHT 1
VIEWPOINT 0 0 0 1 0 0 0
POINTS 822
DATA ascii
10.754146666666667 -0.9333333333333333 3.7666666666666666 5000022.6244
13.367 -1.3333333333333333 3.7666666666666666 5000101.01
11.932366666666667 -1.9666666666666666 3.7666666666666666 5000057.971
13.367 -3.2 3.7666666666666666 5000101.01
12.252253333333334 -4.266666666666667 3.7666666666666666 5000067.5676
14.474266666666667 -4.366666666666666 3.7666666666666666 5000134.228
13.367 -5.833333333333333 3.7666666666666666 5000101.01
13.367 -5.9 3.7666666666666666 5000101.01
10.968993333333334 -6.1 3.7666666666666666 5000029.0698
10.678886666666667 -6.233333333333333 3.7666666666666666 5000020.3666
10.678886666666667 -6.266666666666667 3.7666666666666666 5000020.3666
13.367 -6.7 3.7666666666666666 5000101.01
12.699056666666667 -7.0 3.7666666666666666 5000080.9717
12.699056666666667 -7.066666666666666 3.7666666666666666 5000080.9717
16.666666666666668 -7.333333333333333 3.7666666666666666 5000200.0
11.692046666666666 -7.533333333333333 3.7666666666666666 5000050.7614
11.692046666666666 -7.566666666666666 3.7666666666666666 5000050.7614
11.355013333333334 -8.3 3.7666666666666666 5000040.6504
11.232286666666667 -8.8 3.7666666666666666 5000036.9686
11.232286666666667 -8.833333333333334 3.7666666666666666 5000036.9686
11.129943333333333 -10.333333333333334 3.7666666666666666 5000033.8983
11.129943333333333 -10.733333333333333 3.7666666666666666 5000033.8983
11.129943333333333 -10.766666666666667 3.7666666666666666 5000033.8983
10.56593 -12.766666666666667 3.7666666666666666 5000016.9779
10.56593 -12.8 3.7666666666666666 5000016.9779
10.56593 -12.833333333333334 3.7666666666666666 5000016.9779
10.56593 -12.866666666666667 3.7666666666666666 5000016.9779
10.468493333333333 -13.033333333333333 3.7666666666666666 5000014.0548
13.367 2.6333333333333333 3.7333333333333334 5000101.01
14.474266666666667 2.533333333333333 3.7333333333333334 5000134.228
14.474266666666667 2.3666666666666667 3.7333333333333334 5000134.228
13.367 2.3333333333333335 3.7333333333333334 5000101.01
14.474266666666667 1.6 3.7333333333333334 5000134.228
12.699056666666667 1.2666666666666666 3.7333333333333334 5000080.9717
14.474266666666667 0.4666666666666667 3.7333333333333334 5000134.228
16.666666666666668 0.06666666666666667 3.7333333333333334 5000200.0
16.666666666666668 0.03333333333333333 3.7333333333333334 5000200.0
16.666666666666668 -0.03333333333333333 3.7333333333333334 5000200.0
16.666666666666668 -0.13333333333333333 3.7333333333333334 5000200.0
16.666666666666668 -0.16666666666666666 3.7333333333333334 5000200.0
14.474266666666667 -0.5666666666666667 3.7333333333333334 5000134.228
14.474266666666667 -0.6 3.7333333333333334 5000134.228
14.474266666666667 -1.1666666666666667 3.7333333333333334 5000134.228
13.367 -1.2 3.7333333333333334 5000101.01
13.367 -1.2333333333333334 3.7333333333333334 5000101.01
13.367 -1.2666666666666666 3.7333333333333334 5000101.01
13.367 -1.3 3.7333333333333334 5000101.01
13.367 -1.4 3.7333333333333334 5000101.01
11.129943333333333 -1.4333333333333333 3.7333333333333334 5000033.8983
11.932366666666667 -1.9666666666666666 3.7333333333333334 5000057.971
14.474266666666667 -2.4 3.7333333333333334 5000134.228
13.367 -3.2 3.7333333333333334 5000101.01
13.367 -3.2333333333333334 3.7333333333333334 5000101.01
12.252253333333334 -4.266666666666667 3.7333333333333334 5000067.5676
14.474266666666667 -4.366666666666666 3.7333333333333334 5000134.228
13.367 -5.9 3.7333333333333334 5000101.01
10.968993333333334 -6.1 3.7333333333333334 5000029.0698
10.71454 -6.233333333333333 3.7333333333333334 5000021.4362
10.71454 -6.266666666666667 3.7333333333333334 5000021.4362
13.367 -6.7 3.7333333333333334 5000101.01
11.692046666666666 -8.233333333333333 3.7333333333333334 5000050.7614
11.355013333333334 -8.3 3.7333333333333334 5000040.6504
12.699056666666667 -8.666666666666666 3.7333333333333334 5000080.9717
11.232286666666667 -8.766666666666667 3.7333333333333334 5000036.9686
11.232286666666667 -8.8 3.7333333333333334 5000036.9686
11.129943333333333 -10.333333333333334 3.7333333333333334 5000033.8983
10.904566666666666 -10.433333333333334 3.7333333333333334 5000027.137
11.043296666666667 -10.733333333333333 3.7333333333333334 5000031.2989
11.043296666666667 -10.766666666666667 3.7333333333333334 5000031.2989
10.56593 -12.833333333333334 3.7333333333333334 5000016.9779
10.56593 -12.866666666666667 3.7333333333333334 5000016.9779
10.468493333333333 -13.033333333333333 3.7333333333333334 5000014.0548
14.474266666666667 2.3666666666666667 3.7 5000134.228
13.367 2.3333333333333335 3.7 5000101.01
13.367 1.6 3.7 5000101.01
13.367 1.5666666666666667 3.7 5000101.01
12.699056666666667 1.2666666666666666 3.7 5000080.9717
12.699056666666667 1.2333333333333334 3.7 5000080.9717
12.699056666666667 1.0666666666666667 3.7 5000080.9717
14.474266666666667 0.9666666666666667 3.7 5000134.228
16.666666666666668 0.06666666666666667 3.7 5000200.0
16.666666666666668 -0.03333333333333333 3.7 5000200.0
16.666666666666668 -0.26666666666666666 3.7 5000200.0
14.474266666666667 -0.5666666666666667 3.7 5000134.228
14.474266666666667 -0.6 3.7 5000134.228
13.367 -1.2666666666666666 3.7 5000101.01
13.367 -1.3 3.7 5000101.01
13.367 -1.5333333333333334 3.7 5000101.01
14.474266666666667 -1.5666666666666667 3.7 5000134.228
14.474266666666667 -1.6333333333333333 3.7 5000134.228
12.699056666666667 -2.2666666666666666 3.7 5000080.9717
12.699056666666667 -3.066666666666667 3.7 5000080.9717
13.367 -3.2333333333333334 3.7 5000101.01
12.252253333333334 -4.266666666666667 3.7 5000067.5676
14.474266666666667 -4.366666666666666 3.7 5000134.228
13.367 -5.9 3.7 5000101.01
11.043296666666667 -6.1 3.7 5000031.2989
11.043296666666667 -6.133333333333334 3.7 5000031.2989
10.71454 -6.266666666666667 3.7 5000021.4362
10.71454 -6.3 3.7 5000021.4362
11.692046666666666 -6.8 3.7 5000050.7614
11.355013333333334 -7.5 3.7 5000040.6504
11.932366666666667 -8.2 3.7 5000057.971
11.932366666666667 -8.233333333333333 3.7 5000057.971
11.355013333333334 -8.3 3.7 5000040.6504
11.355013333333334 -8.333333333333334 3.7 5000040.6504
12.699056666666667 -8.6 3.7 5000080.9717
12.699056666666667 -8.633333333333333 3.7 5000080.9717
11.232286666666667 -8.766666666666667 3.7 5000036.9686
11.232286666666667 -8.8 3.7 5000036.9686
11.129943333333333 -10.333333333333334 3.7 5000033.8983
10.56593 -12.833333333333334 3.7 5000016.9779
10.56593 -12.866666666666667 3.7 5000016.9779
10.56593 -13.166666666666666 3.7 5000016.9779
12.699056666666667 2.2666666666666666 3.6666666666666665 5000080.9717
13.367 1.6 3.6666666666666665 5000101.01
13.367 1.2666666666666666 3.6666666666666665 5000101.01
13.367 1.2333333333333334 3.6666666666666665 5000101.01
12.699056666666667 1.1 3.6666666666666665 5000080.9717
12.699056666666667 1.0666666666666667 3.6666666666666665 5000080.9717
14.474266666666667 0.9666666666666667 3.6666666666666665 5000134.228
14.474266666666667 0.9333333333333333 3.6666666666666665 5000134.228
14.474266666666667 0.9 3.6666666666666665 5000134.228
16.666666666666668 0.6666666666666666 3.6666666666666665 5000200.0
13.367 0.3333333333333333 3.6666666666666665 5000101.01
16.666666666666668 -0.26666666666666666 3.6666666666666665 5000200.0
14.474266666666667 -0.6 3.6666666666666665 5000134.228
14.474266666666667 -1.6333333333333333 3.6666666666666665 5000134.228
12.699056666666667 -3.066666666666667 3.6666666666666665 5000080.9717
13.367 -3.2333333333333334 3.6666666666666665 5000101.01
11.355013333333334 -4.066666666666666 3.6666666666666665 5000040.6504
12.252253333333334 -4.266666666666667 3.6666666666666665 5000067.5676
14.474266666666667 -4.366666666666666 3.6666666666666665 5000134.228
11.692046666666666 -6.0 3.6666666666666665 5000050.7614
11.043296666666667 -6.1 3.6666666666666665 5000031.2989
11.043296666666667 -6.133333333333334 3.6666666666666665 5000031.2989
10.904566666666666 -6.233333333333333 3.6666666666666665 5000027.137
10.754146666666667 -6.266666666666667 3.6666666666666665 5000022.6244
10.754146666666667 -6.3 3.6666666666666665 5000022.6244
11.355013333333334 -7.5 3.6666666666666665 5000040.6504
11.932366666666667 -7.733333333333333 3.6666666666666665 5000057.971
11.50489 -7.8 3.6666666666666665 5000045.1467
11.932366666666667 -8.233333333333333 3.6666666666666665 5000057.971
11.232286666666667 -8.8 3.6666666666666665 5000036.9686
11.129943333333333 -10.333333333333334 3.6666666666666665 5000033.8983
10.904566666666666 -10.433333333333334 3.6666666666666665 5000027.137
11.043296666666667 -10.766666666666667 3.6666666666666665 5000031.2989
10.56593 -12.833333333333334 3.6666666666666665 5000016.9779
10.56593 -12.866666666666667 3.6666666666666665 5000016.9779
14.474266666666667 3.1666666666666665 3.6333333333333333 5000134.228
14.474266666666667 2.7666666666666666 3.6333333333333333 5000134.228
12.699056666666667 2.2666666666666666 3.6333333333333333 5000080.9717
13.367 1.5666666666666667 3.6333333333333333 5000101.01
13.367 1.2666666666666666 3.6333333333333333 5000101.01
12.699056666666667 1.1 3.6333333333333333 5000080.9717
12.699056666666667 1.0666666666666667 3.6333333333333333 5000080.9717
14.474266666666667 0.9333333333333333 3.6333333333333333 5000134.228
14.474266666666667 0.9 3.6333333333333333 5000134.228
16.666666666666668 0.6666666666666666 3.6333333333333333 5000200.0
16.666666666666668 0.6333333333333333 3.6333333333333333 5000200.0
13.367 0.3333333333333333 3.6333333333333333 5000101.01
16.666666666666668 -0.26666666666666666 3.6333333333333333 5000200.0
16.666666666666668 -0.3 3.6333333333333333 5000200.0
12.699056666666667 -1.1333333333333333 3.6333333333333333 5000080.9717
13.367 -1.3 3.6333333333333333 5000101.01
13.367 -1.3333333333333333 3.6333333333333333 5000101.01
13.367 -3.2 3.6333333333333333 5000101.01
13.367 -3.933333333333333 3.6333333333333333 5000101.01
12.699056666666667 -4.0 3.6333333333333333 5000080.9717
11.355013333333334 -4.066666666666666 3.6333333333333333 5000040.6504
11.932366666666667 -4.1 3.6333333333333333 5000057.971
16.666666666666668 -4.166666666666667 3.6333333333333333 5000200.0
12.252253333333334 -4.266666666666667 3.6333333333333333 5000067.5676
14.474266666666667 -4.366666666666666 3.6333333333333333 5000134.228
14.474266666666667 -4.4 3.6333333333333333 5000134.228
16.666666666666668 -5.866666666666666 3.6333333333333333 5000200.0
11.043296666666667 -6.133333333333334 3.6333333333333333 5000031.2989
11.043296666666667 -6.166666666666667 3.6333333333333333 5000031.2989
10.904566666666666 -6.266666666666667 3.6333333333333333 5000027.137
10.904566666666666 -6.3 3.6333333333333333 5000027.137
11.355013333333334 -7.5 3.6333333333333333 5000040.6504
11.932366666666667 -7.733333333333333 3.6333333333333333 5000057.971
11.50489 -7.8 3.6333333333333333 5000045.1467
11.355013333333334 -7.833333333333333 3.6333333333333333 5000040.6504
11.355013333333334 -7.866666666666666 3.6333333333333333 5000040.6504
11.932366666666667 -8.233333333333333 3.6333333333333333 5000057.971
11.232286666666667 -8.333333333333334 3.6333333333333333 5000036.9686
11.232286666666667 -8.8 3.6333333333333333 5000036.9686
11.232286666666667 -8.833333333333334 3.6333333333333333 5000036.9686
11.129943333333333 -10.333333333333334 3.6333333333333333 5000033.8983
10.904566666666666 -10.433333333333334 3.6333333333333333 5000027.137
11.043296666666667 -10.766666666666667 3.6333333333333333 5000031.2989
10.56593 -12.833333333333334 3.6333333333333333 5000016.9779
10.56593 -12.866666666666667 3.6333333333333333 5000016.9779
14.474266666666667 3.1666666666666665 3.6 5000134.228
12.699056666666667 2.2666666666666666 3.6 5000080.9717
14.474266666666667 2.033333333333333 3.6 5000134.228
14.474266666666667 2.0 3.6 5000134.228
13.367 1.5666666666666667 3.6 5000101.01
13.367 1.2666666666666666 3.6 5000101.01
13.367 1.2333333333333334 3.6 5000101.01
12.699056666666667 1.0666666666666667 3.6 5000080.9717
14.474266666666667 0.8666666666666667 3.6 5000134.228
16.666666666666668 0.6666666666666666 3.6 5000200.0
13.367 0.36666666666666664 3.6 5000101.01
16.666666666666668 -0.26666666666666666 3.6 5000200.0
16.666666666666668 -0.3 3.6 5000200.0
13.367 -1.5 3.6 5000101.01
13.367 -1.5333333333333334 3.6 5000101.01
14.474266666666667 -1.5666666666666667 3.6 5000134.228
13.367 -3.2 3.6 5000101.01
11.932366666666667 -3.433333333333333 3.6 5000057.971
13.367 -3.966666666666667 3.6 5000101.01
11.932366666666667 -4.1 3.6 5000057.971
11.932366666666667 -4.133333333333334 3.6 5000057.971
16.666666666666668 -4.166666666666667 3.6 5000200.0
12.252253333333334 -4.2 3.6 5000067.5676
12.252253333333334 -4.266666666666667 3.6 5000067.5676
11.692046666666666 -5.633333333333334 3.6 5000050.7614
11.043296666666667 -6.133333333333334 3.6 5000031.2989
11.043296666666667 -6.166666666666667 3.6 5000031.2989
10.904566666666666 -6.266666666666667 3.6 5000027.137
10.904566666666666 -6.3 3.6 5000027.137
16.666666666666668 -7.333333333333333 3.6 5000200.0
11.50489 -7.5 3.6 5000045.1467
11.50489 -7.533333333333333 3.6 5000045.1467
11.50489 -7.6 3.6 5000045.1467
11.932366666666667 -7.733333333333333 3.6 5000057.971
11.50489 -7.8 3.6 5000045.1467
11.355013333333334 -7.833333333333333 3.6 5000040.6504
11.355013333333334 -7.866666666666666 3.6 5000040.6504
11.932366666666667 -8.233333333333333 3.6 5000057.971
11.232286666666667 -8.333333333333334 3.6 5000036.9686
11.232286666666667 -8.8 3.6 5000036.9686
11.232286666666667 -8.833333333333334 3.6 5000036.9686
11.129943333333333 -10.333333333333334 3.6 5000033.8983
10.904566666666666 -10.433333333333334 3.6 5000027.137
11.043296666666667 -10.766666666666667 3.6 5000031.2989
10.590493333333333 -12.833333333333334 3.6 5000017.7148
10.503143333333334 -12.966666666666667 3.6 5000015.0943
14.474266666666667 3.1666666666666665 3.566666666666667 5000134.228
14.474266666666667 3.1333333333333333 3.566666666666667 5000134.228
14.474266666666667 2.033333333333333 3.566666666666667 5000134.228
14.474266666666667 2.0 3.566666666666667 5000134.228
13.367 1.5666666666666667 3.566666666666667 5000101.01
13.367 1.2666666666666666 3.566666666666667 5000101.01
16.666666666666668 0.6666666666666666 3.566666666666667 5000200.0
16.666666666666668 0.23333333333333334 3.566666666666667 5000200.0
13.367 -0.06666666666666667 3.566666666666667 5000101.01
16.666666666666668 -0.3 3.566666666666667 5000200.0
13.367 -1.5333333333333334 3.566666666666667 5000101.01
14.474266666666667 -1.5666666666666667 3.566666666666667 5000134.228
12.699056666666667 -4.0 3.566666666666667 5000080.9717
11.932366666666667 -4.1 3.566666666666667 5000057.971
11.932366666666667 -4.133333333333334 3.566666666666667 5000057.971
16.666666666666668 -4.166666666666667 3.566666666666667 5000200.0
12.252253333333334 -4.2 3.566666666666667 5000067.5676
12.252253333333334 -4.266666666666667 3.566666666666667 5000067.5676
11.692046666666666 -5.433333333333334 3.566666666666667 5000050.7614
11.692046666666666 -6.0 3.566666666666667 5000050.7614
11.043296666666667 -6.1 3.566666666666667 5000031.2989
11.043296666666667 -6.133333333333334 3.566666666666667 5000031.2989
11.043296666666667 -6.166666666666667 3.566666666666667 5000031.2989
10.904566666666666 -6.266666666666667 3.566666666666667 5000027.137
10.904566666666666 -6.3 3.566666666666667 5000027.137
10.904566666666666 -6.333333333333333 3.566666666666667 5000027.137
16.666666666666668 -7.333333333333333 3.566666666666667 5000200.0
11.50489 -7.5 3.566666666666667 5000045.1467
11.50489 -7.533333333333333 3.566666666666667 5000045.1467
11.932366666666667 -7.733333333333333 3.566666666666667 5000057.971
11.692046666666666 -7.8 3.566666666666667 5000050.7614
11.355013333333334 -7.833333333333333 3.566666666666667 5000040.6504
11.355013333333334 -7.866666666666666 3.566666666666667 5000040.6504
11.932366666666667 -8.233333333333333 3.566666666666667 5000057.971
11.232286666666667 -8.333333333333334 3.566666666666667 5000036.9686
11.232286666666667 -8.733333333333333 3.566666666666667 5000036.9686
11.232286666666667 -8.8 3.566666666666667 5000036.9686
11.232286666666667 -8.833333333333334 3.566666666666667 5000036.9686
10.904566666666666 -10.433333333333334 3.566666666666667 5000027.137
11.043296666666667 -10.766666666666667 3.566666666666667 5000031.2989
10.590493333333333 -12.833333333333334 3.566666666666667 5000017.7148
10.590493333333333 -12.866666666666667 3.566666666666667 5000017.7148
10.590493333333333 -13.166666666666666 3.566666666666667 5000017.7148
10.590493333333333 -13.2 3.566666666666667 5000017.7148
14.474266666666667 3.1666666666666665 3.533333333333333 5000134.228
14.474266666666667 3.1333333333333333 3.533333333333333 5000134.228
14.474266666666667 2.9 3.533333333333333 5000134.228
14.474266666666667 2.2666666666666666 3.533333333333333 5000134.228
14.474266666666667 2.0 3.533333333333333 5000134.228
14.474266666666667 1.6666666666666667 3.533333333333333 5000134.228
13.367 1.5666666666666667 3.533333333333333 5000101.01
13.367 1.2666666666666666 3.533333333333333 5000101.01
16.666666666666668 0.6666666666666666 3.533333333333333 5000200.0
14.474266666666667 0.36666666666666664 3.533333333333333 5000134.228
16.666666666666668 0.16666666666666666 3.533333333333333 5000200.0
13.367 -0.06666666666666667 3.533333333333333 5000101.01
16.666666666666668 -0.3 3.533333333333333 5000200.0
14.474266666666667 -1.3333333333333333 3.533333333333333 5000134.228
12.699056666666667 -3.7 3.533333333333333 5000080.9717
12.699056666666667 -3.7333333333333334 3.533333333333333 5000080.9717
12.252253333333334 -4.266666666666667 3.533333333333333 5000067.5676
11.932366666666667 -5.033333333333333 3.533333333333333 5000057.971
11.043296666666667 -6.1 3.533333333333333 5000031.2989
11.043296666666667 -6.133333333333334 3.533333333333333 5000031.2989
11.043296666666667 -6.166666666666667 3.533333333333333 5000031.2989
10.904566666666666 -6.266666666666667 3.533333333333333 5000027.137
10.904566666666666 -6.3 3.533333333333333 5000027.137
10.904566666666666 -6.333333333333333 3.533333333333333 5000027.137
11.50489 -7.5 3.533333333333333 5000045.1467
11.50489 -7.533333333333333 3.533333333333333 5000045.1467
12.252253333333334 -7.733333333333333 3.533333333333333 5000067.5676
11.692046666666666 -7.8 3.533333333333333 5000050.7614
11.50489 -7.833333333333333 3.533333333333333 5000045.1467
11.50489 -7.866666666666666 3.533333333333333 5000045.1467
11.932366666666667 -8.233333333333333 3.533333333333333 5000057.971
11.232286666666667 -8.333333333333334 3.533333333333333 5000036.9686
11.232286666666667 -8.366666666666667 3.533333333333333 5000036.9686
10.754146666666667 -8.533333333333333 3.533333333333333 5000022.6244
10.754146666666667 -8.566666666666666 3.533333333333333 5000022.6244
11.932366666666667 -8.7 3.533333333333333 5000057.971
10.54333 -8.8 3.533333333333333 5000016.2999
11.232286666666667 -8.866666666666667 3.533333333333333 5000036.9686
11.129943333333333 -10.333333333333334 3.533333333333333 5000033.8983
11.043296666666667 -10.366666666666667 3.533333333333333 5000031.2989
10.904566666666666 -10.433333333333334 3.533333333333333 5000027.137
11.043296666666667 -10.733333333333333 3.533333333333333 5000031.2989
11.043296666666667 -10.766666666666667 3.533333333333333 5000031.2989
10.590493333333333 -12.766666666666667 3.533333333333333 5000017.7148
10.590493333333333 -12.8 3.533333333333333 5000017.7148
10.590493333333333 -12.833333333333334 3.533333333333333 5000017.7148
10.590493333333333 -13.166666666666666 3.533333333333333 5000017.7148
10.590493333333333 -13.2 3.533333333333333 5000017.7148
14.474266666666667 3.1333333333333333 3.5 5000134.228
14.474266666666667 2.9 3.5 5000134.228
14.474266666666667 2.6 3.5 5000134.228
14.474266666666667 2.2 3.5 5000134.228
14.474266666666667 2.0 3.5 5000134.228
14.474266666666667 1.6666666666666667 3.5 5000134.228
13.367 1.5666666666666667 3.5 5000101.01
13.367 1.2666666666666666 3.5 5000101.01
14.474266666666667 0.6666666666666666 3.5 5000134.228
14.474266666666667 0.36666666666666664 3.5 5000134.228
16.666666666666668 -0.4666666666666667 3.5 5000200.0
14.474266666666667 -1.3333333333333333 3.5 5000134.228
14.474266666666667 -1.6333333333333333 3.5 5000134.228
12.699056666666667 -2.3333333333333335 3.5 5000080.9717
11.692046666666666 -3.0 3.5 5000050.7614
12.252253333333334 -4.266666666666667 3.5 5000067.5676
12.252253333333334 -4.566666666666666 3.5 5000067.5676
11.932366666666667 -5.033333333333333 3.5 5000057.971
11.043296666666667 -6.1 3.5 5000031.2989
11.043296666666667 -6.133333333333334 3.5 5000031.2989
10.904566666666666 -6.266666666666667 3.5 5000027.137
10.904566666666666 -6.3 3.5 5000027.137
10.904566666666666 -6.333333333333333 3.5 5000027.137
11.692046666666666 -7.5 3.5 5000050.7614
11.692046666666666 -7.533333333333333 3.5 5000050.7614
12.252253333333334 -7.733333333333333 3.5 5000067.5676
11.692046666666666 -7.8 3.5 5000050.7614
11.932366666666667 -8.233333333333333 3.5 5000057.971
11.232286666666667 -8.333333333333334 3.5 5000036.9686
10.848176666666667 -8.466666666666667 3.5 5000025.4453
10.848176666666667 -8.533333333333333 3.5 5000025.4453
10.54333 -8.8 3.5 5000016.2999
10.64662 -9.1 3.5 5000019.3986
10.323624666666667 -9.2 3.5 5000009.70874
11.129943333333333 -10.333333333333334 3.5 5000033.8983
11.043296666666667 -10.366666666666667 3.5 5000031.2989
10.904566666666666 -10.433333333333334 3.5 5000027.137
11.043296666666667 -10.766666666666667 3.5 5000031.2989
10.590493333333333 -12.766666666666667 3.5 5000017.7148
10.590493333333333 -12.8 3.5 5000017.7148
10.590493333333333 -12.833333333333334 3.5 5000017.7148
10.590493333333333 -13.166666666666666 3.5 5000017.7148
10.590493333333333 -13.2 3.5 5000017.7148
14.474266666666667 3.1333333333333333 3.466666666666667 5000134.228
14.474266666666667 2.9 3.466666666666667 5000134.228
14.474266666666667 2.6 3.466666666666667 5000134.228
14.474266666666667 2.433333333333333 3.466666666666667 5000134.228
16.666666666666668 2.3333333333333335 3.466666666666667 5000200.0
14.474266666666667 2.2 3.466666666666667 5000134.228
14.474266666666667 2.0 3.466666666666667 5000134.228
13.367 1.5666666666666667 3.466666666666667 5000101.01
13.367 1.2666666666666666 3.466666666666667 5000101.01
14.474266666666667 0.6666666666666666 3.466666666666667 5000134.228
14.474266666666667 0.36666666666666664 3.466666666666667 5000134.228
16.666666666666668 0.13333333333333333 3.466666666666667 5000200.0
16.666666666666668 -0.4666666666666667 3.466666666666667 5000200.0
16.666666666666668 -0.5 3.466666666666667 5000200.0
12.699056666666667 -1.0666666666666667 3.466666666666667 5000080.9717
13.367 -1.3333333333333333 3.466666666666667 5000101.01
14.474266666666667 -1.6333333333333333 3.466666666666667 5000134.228
11.50489 -2.933333333333333 3.466666666666667 5000045.1467
11.692046666666666 -3.0 3.466666666666667 5000050.7614
11.043296666666667 -6.1 3.466666666666667 5000031.2989
11.043296666666667 -6.133333333333334 3.466666666666667 5000031.2989
10.904566666666666 -6.266666666666667 3.466666666666667 5000027.137
10.904566666666666 -6.3 3.466666666666667 5000027.137
11.692046666666666 -7.533333333333333 3.466666666666667 5000050.7614
12.252253333333334 -7.733333333333333 3.466666666666667 5000067.5676
11.692046666666666 -7.8 3.466666666666667 5000050.7614
11.50489 -7.833333333333333 3.466666666666667 5000045.1467
11.932366666666667 -8.233333333333333 3.466666666666667 5000057.971
11.232286666666667 -8.333333333333334 3.466666666666667 5000036.9686
11.232286666666667 -8.366666666666667 3.466666666666667 5000036.9686
10.848176666666667 -8.466666666666667 3.466666666666667 5000025.4453
10.4529 -8.866666666666667 3.466666666666667 5000013.587
10.64662 -9.1 3.466666666666667 5000019.3986
11.129943333333333 -10.333333333333334 3.466666666666667 5000033.8983
10.590493333333333 -12.8 3.466666666666667 5000017.7148
10.590493333333333 -12.833333333333334 3.466666666666667 5000017.7148
10.503143333333334 -12.933333333333334 3.466666666666667 5000015.0943
10.56593 -13.166666666666666 3.466666666666667 5000016.9779
10.678886666666667 -17.5 3.466666666666667 5000020.3666
10.678886666666667 -17.533333333333335 3.466666666666667 5000020.3666
10.678886666666667 -17.566666666666666 3.466666666666667 5000020.3666
10.678886666666667 -17.6 3.466666666666667 5000020.3666
14.474266666666667 3.1333333333333333 3.433333333333333 5000134.228
14.474266666666667 2.9 3.433333333333333 5000134.228
14.474266666666667 2.6 3.433333333333333 5000134.228
14.474266666666667 2.433333333333333 3.433333333333333 5000134.228
14.474266666666667 2.2 3.433333333333333 5000134.228
13.367 1.5666666666666667 3.433333333333333 5000101.01
12.699056666666667 1.3 3.433333333333333 5000080.9717
12.699056666666667 1.2666666666666666 3.433333333333333 5000080.9717
13.367 0.9 3.433333333333333 5000101.01
13.367 0.8666666666666667 3.433333333333333 5000101.01
14.474266666666667 0.7 3.433333333333333 5000134.228
14.474266666666667 0.6666666666666666 3.433333333333333 5000134.228
14.474266666666667 0.6333333333333333 3.433333333333333 5000134.228
14.474266666666667 0.36666666666666664 3.433333333333333 5000134.228
14.474266666666667 -1.3333333333333333 3.433333333333333 5000134.228
14.474266666666667 -1.6333333333333333 3.433333333333333 5000134.228
14.474266666666667 -1.6666666666666667 3.433333333333333 5000134.228
13.367 -2.2333333333333334 3.433333333333333 5000101.01
11.50489 -2.9 3.433333333333333 5000045.1467
11.043296666666667 -6.1 3.433333333333333 5000031.2989
11.043296666666667 -6.133333333333334 3.433333333333333 5000031.2989
10.904566666666666 -6.266666666666667 3.433333333333333 5000027.137
10.904566666666666 -6.3 3.433333333333333 5000027.137
14.474266666666667 -7.533333333333333 3.433333333333333 5000134.228
12.252253333333334 -7.733333333333333 3.433333333333333 5000067.5676
11.692046666666666 -7.8 3.433333333333333 5000050.7614
11.50489 -7.833333333333333 3.433333333333333 5000045.1467
11.932366666666667 -8.233333333333333 3.433333333333333 5000057.971
11.232286666666667 -8.333333333333334 3.433333333333333 5000036.9686
10.848176666666667 -8.466666666666667 3.433333333333333 5000025.4453
10.4529 -8.866666666666667 3.433333333333333 5000013.587
10.64662 -9.1 3.433333333333333 5000019.3986
10.968993333333334 -9.9 3.433333333333333 5000029.0698
10.968993333333334 -9.933333333333334 3.433333333333333 5000029.0698
10.590493333333333 -12.8 3.433333333333333 5000017.7148
10.503143333333334 -12.933333333333334 3.433333333333333 5000015.0943
10.56593 -13.166666666666666 3.433333333333333 5000016.9779
10.71454 -13.566666666666666 3.433333333333333 5000021.4362
10.71454 -13.766666666666667 3.433333333333333 5000021.4362
10.678886666666667 -17.533333333333335 3.433333333333333 5000020.3666
10.678886666666667 -17.566666666666666 3.433333333333333 5000020.3666
10.678886666666667 -17.6 3.433333333333333 5000020.3666
14.474266666666667 3.1666666666666665 3.4 5000134.228
14.474266666666667 3.1333333333333333 3.4 5000134.228
14.474266666666667 2.6 3.4 5000134.228
14.474266666666667 2.433333333333333 3.4 5000134.228
14.474266666666667 2.2 3.4 5000134.228
13.367 1.5666666666666667 3.4 5000101.01
12.699056666666667 1.2666666666666666 3.4 5000080.9717
14.474266666666667 0.9666666666666667 3.4 5000134.228
13.367 0.9 3.4 5000101.01
13.367 0.8666666666666667 3.4 5000101.01
14.474266666666667 0.7 3.4 5000134.228
14.474266666666667 0.6666666666666666 3.4 5000134.228
14.474266666666667 0.6333333333333333 3.4 5000134.228
14.474266666666667 -0.7333333333333333 3.4 5000134.228
14.474266666666667 -0.8333333333333334 3.4 5000134.228
14.474266666666667 -0.8666666666666667 3.4 5000134.228
13.367 -1.3333333333333333 3.4 5000101.01
14.474266666666667 -1.6666666666666667 3.4 5000134.228
11.50489 -2.9 3.4 5000045.1467
11.355013333333334 -4.066666666666666 3.4 5000040.6504
11.043296666666667 -6.1 3.4 5000031.2989
11.043296666666667 -6.133333333333334 3.4 5000031.2989
16.666666666666668 -7.533333333333333 3.4 5000200.0
16.666666666666668 -7.566666666666666 3.4 5000200.0
12.252253333333334 -7.733333333333333 3.4 5000067.5676
11.692046666666666 -7.8 3.4 5000050.7614
11.50489 -7.833333333333333 3.4 5000045.1467
11.50489 -7.866666666666666 3.4 5000045.1467
11.932366666666667 -8.233333333333333 3.4 5000057.971
11.232286666666667 -8.333333333333334 3.4 5000036.9686
11.232286666666667 -8.366666666666667 3.4 5000036.9686
10.848176666666667 -8.466666666666667 3.4 5000025.4453
10.4529 -8.866666666666667 3.4 5000013.587
10.39968 -9.0 3.4 5000011.9904
10.904566666666666 -11.133333333333333 3.4 5000027.137
10.904566666666666 -11.166666666666666 3.4 5000027.137
10.798403333333333 -11.733333333333333 3.4 5000023.9521
10.754146666666667 -11.766666666666667 3.4 5000022.6244
10.798403333333333 -12.033333333333333 3.4 5000023.9521
10.798403333333333 -12.2 3.4 5000023.9521
10.71454 -12.666666666666666 3.4 5000021.4362
10.56593 -12.766666666666667 3.4 5000016.9779
10.56593 -13.2 3.4 5000016.9779
10.71454 -13.5 3.4 5000021.4362
10.71454 -13.533333333333333 3.4 5000021.4362
10.798403333333333 -16.0 3.4 5000023.9521
10.754146666666667 -16.033333333333335 3.4 5000022.6244
10.754146666666667 -16.066666666666666 3.4 5000022.6244
10.71454 -16.1 3.4 5000021.4362
10.71454 -16.133333333333333 3.4 5000021.4362
10.71454 -16.166666666666668 3.4 5000021.4362
10.71454 -17.033333333333335 3.4 5000021.4362
10.71454 -17.066666666666666 3.4 5000021.4362
10.678886666666667 -17.533333333333335 3.4 5000020.3666
10.678886666666667 -17.566666666666666 3.4 5000020.3666
10.678886666666667 -17.766666666666666 3.4 5000020.3666
10.678886666666667 -17.8 3.4 5000020.3666
14.474266666666667 3.1666666666666665 3.3666666666666667 5000134.228
14.474266666666667 3.1333333333333333 3.3666666666666667 5000134.228
14.474266666666667 2.9 3.3666666666666667 5000134.228
14.474266666666667 2.7333333333333334 3.3666666666666667 5000134.228
14.474266666666667 2.433333333333333 3.3666666666666667 5000134.228
14.474266666666667 2.3333333333333335 3.3666666666666667 5000134.228
14.474266666666667 2.2 3.3666666666666667 5000134.228
13.367 1.5666666666666667 3.3666666666666667 5000101.01
12.699056666666667 1.3 3.3666666666666667 5000080.9717
12.699056666666667 1.2666666666666666 3.3666666666666667 5000080.9717
12.252253333333334 1.1 3.3666666666666667 5000067.5676
13.367 0.9 3.3666666666666667 5000101.01
13.367 0.8666666666666667 3.3666666666666667 5000101.01
14.474266666666667 0.6666666666666666 3.3666666666666667 5000134.228
14.474266666666667 0.6333333333333333 3.3666666666666667 5000134.228
16.666666666666668 0.0 3.3666666666666667 5000200.0
16.666666666666668 -0.03333333333333333 3.3666666666666667 5000200.0
14.474266666666667 -0.7333333333333333 3.3666666666666667 5000134.228
14.474266666666667 -0.8333333333333334 3.3666666666666667 5000134.228
14.474266666666667 -0.8666666666666667 3.3666666666666667 5000134.228
14.474266666666667 -1.6666666666666667 3.3666666666666667 5000134.228
11.50489 -2.9 3.3666666666666667 5000045.1467
11.355013333333334 -4.066666666666666 3.3666666666666667 5000040.6504
10.968993333333334 -6.133333333333334 3.3666666666666667 5000029.0698
11.232286666666667 -6.9 3.3666666666666667 5000036.9686
16.666666666666668 -7.566666666666666 3.3666666666666667 5000200.0
16.666666666666668 -7.6 3.3666666666666667 5000200.0
12.252253333333334 -7.733333333333333 3.3666666666666667 5000067.5676
11.355013333333334 -7.833333333333333 3.3666666666666667 5000040.6504
11.355013333333334 -7.866666666666666 3.3666666666666667 5000040.6504
11.932366666666667 -8.233333333333333 3.3666666666666667 5000057.971
11.232286666666667 -8.333333333333334 3.3666666666666667 5000036.9686
11.232286666666667 -8.366666666666667 3.3666666666666667 5000036.9686
10.848176666666667 -8.466666666666667 3.3666666666666667 5000025.4453
10.848176666666667 -8.5 3.3666666666666667 5000025.4453
10.4529 -8.866666666666667 3.3666666666666667 5000013.587
10.39968 -8.966666666666667 3.3666666666666667 5000011.9904
10.904566666666666 -11.133333333333333 3.3666666666666667 5000027.137
10.798403333333333 -12.0 3.3666666666666667 5000023.9521
10.798403333333333 -12.033333333333333 3.3666666666666667 5000023.9521
10.798403333333333 -12.133333333333333 3.3666666666666667 5000023.9521
10.798403333333333 -12.566666666666666 3.3666666666666667 5000023.9521
10.71454 -12.6 3.3666666666666667 5000021.4362
10.56593 -12.766666666666667 3.3666666666666667 5000016.9779
10.754146666666667 -16.033333333333335 3.3666666666666667 5000022.6244
10.754146666666667 -16.066666666666666 3.3666666666666667 5000022.6244
10.71454 -16.1 3.3666666666666667 5000021.4362
10.71454 -16.133333333333333 3.3666666666666667 5000021.4362
10.71454 -16.166666666666668 3.3666666666666667 5000021.4362
10.678886666666667 -17.533333333333335 3.3666666666666667 5000020.3666
10.678886666666667 -17.766666666666666 3.3666666666666667 5000020.3666
10.678886666666667 -17.8 3.3666666666666667 5000020.3666
14.474266666666667 3.1666666666666665 3.3333333333333335 5000134.228
14.474266666666667 3.1333333333333333 3.3333333333333335 5000134.228
14.474266666666667 2.9 3.3333333333333335 5000134.228
14.474266666666667 2.7333333333333334 3.3333333333333335 5000134.228
14.474266666666667 2.566666666666667 3.3333333333333335 5000134.228
14.474266666666667 2.2 3.3333333333333335 5000134.228
13.367 1.5666666666666667 3.3333333333333335 5000101.01
12.699056666666667 1.3 3.3333333333333335 5000080.9717
12.699056666666667 1.2666666666666666 3.3333333333333335 5000080.9717
12.252253333333334 1.1 3.3333333333333335 5000067.5676
14.474266666666667 0.6333333333333333 3.3333333333333335 5000134.228
14.474266666666667 0.0 3.3333333333333335 5000134.228
14.474266666666667 -0.03333333333333333 3.3333333333333335 5000134.228
14.474266666666667 -0.3 3.3333333333333335 5000134.228
14.474266666666667 -0.3333333333333333 3.3333333333333335 5000134.228
14.474266666666667 -0.8333333333333334 3.3333333333333335 5000134.228
14.474266666666667 -0.8666666666666667 3.3333333333333335 5000134.228
11.932366666666667 -2.033333333333333 3.3333333333333335 5000057.971
11.692046666666666 -2.066666666666667 3.3333333333333335 5000050.7614
11.692046666666666 -2.1 3.3333333333333335 5000050.7614
11.355013333333334 -4.066666666666666 3.3333333333333335 5000040.6504
11.355013333333334 -4.1 3.3333333333333335 5000040.6504
10.968993333333334 -6.133333333333334 3.3333333333333335 5000029.0698
11.232286666666667 -6.9 3.3333333333333335 5000036.9686
16.666666666666668 -7.533333333333333 3.3333333333333335 5000200.0
16.666666666666668 -7.6 3.3333333333333335 5000200.0
12.252253333333334 -7.733333333333333 3.3333333333333335 5000067.5676
11.355013333333334 -7.833333333333333 3.3333333333333335 5000040.6504
11.355013333333334 -7.866666666666666 3.3333333333333335 5000040.6504
11.932366666666667 -8.233333333333333 3.3333333333333335 5000057.971
11.232286666666667 -8.333333333333334 3.3333333333333335 5000036.9686
11.232286666666667 -8.366666666666667 3.3333333333333335 5000036.9686
10.848176666666667 -8.466666666666667 3.3333333333333335 5000025.4453
10.848176666666667 -8.5 3.3333333333333335 5000025.4453
10.4529 -8.866666666666667 3.3333333333333335 5000013.587
10.968993333333334 -10.3 3.3333333333333335 5000029.0698
10.798403333333333 -11.666666666666666 3.3333333333333335 5000023.9521
10.798403333333333 -11.7 3.3333333333333335 5000023.9521
10.56593 -12.766666666666667 3.3333333333333335 5000016.9779
10.56593 -12.8 3.3333333333333335 5000016.9779
10.56593 -13.166666666666666 3.3333333333333335 5000016.9779
10.754146666666667 -13.933333333333334 3.3333333333333335 5000022.6244
10.754146666666667 -13.966666666666667 3.3333333333333335 5000022.6244
10.71454 -16.133333333333333 3.3333333333333335 5000021.4362
10.678886666666667 -17.533333333333335 3.3333333333333335 5000020.3666
10.678886666666667 -17.766666666666666 3.3333333333333335 5000020.3666
10.678886666666667 -17.8 3.3333333333333335 5000020.3666
14.474266666666667 3.1666666666666665 3.3 5000134.228
14.474266666666667 3.1333333333333333 3.3 5000134.228
14.474266666666667 2.9 3.3 5000134.228
14.474266666666667 2.7333333333333334 3.3 5000134.228
14.474266666666667 2.6666666666666665 3.3 5000134.228
14.474266666666667 2.566666666666667 3.3 5000134.228
12.699056666666667 1.3 3.3 5000080.9717
12.699056666666667 1.2666666666666666 3.3 5000080.9717
16.666666666666668 0.5333333333333333 3.3 5000200.0
14.474266666666667 0.03333333333333333 3.3 5000134.228
14.474266666666667 0.0 3.3 5000134.228
16.666666666666668 -0.5333333333333333 3.3 5000200.0
16.666666666666668 -0.5666666666666667 3.3 5000200.0
16.666666666666668 -0.8333333333333334 3.3 5000200.0
12.699056666666667 -1.2666666666666666 3.3 5000080.9717
11.692046666666666 -2.1 3.3 5000050.7614
11.692046666666666 -2.1333333333333333 3.3 5000050.7614
11.355013333333334 -4.1 3.3 5000040.6504
10.968993333333334 -6.133333333333334 3.3 5000029.0698
16.666666666666668 -7.366666666666666 3.3 5000200.0
16.666666666666668 -7.533333333333333 3.3 5000200.0
12.252253333333334 -7.733333333333333 3.3 5000067.5676
11.355013333333334 -7.833333333333333 3.3 5000040.6504
11.932366666666667 -8.233333333333333 3.3 5000057.971
11.232286666666667 -8.333333333333334 3.3 5000036.9686
10.798403333333333 -8.566666666666666 3.3 5000023.9521
10.36731 -9.066666666666666 3.3 5000011.0193
10.904566666666666 -9.933333333333334 3.3 5000027.137
10.56593 -12.766666666666667 3.3 5000016.9779
10.56593 -12.8 3.3 5000016.9779
10.54333 -12.866666666666667 3.3 5000016.2999
10.56593 -13.166666666666666 3.3 5000016.9779
10.798403333333333 -14.5 3.3 5000023.9521
10.678886666666667 -17.533333333333335 3.3 5000020.3666
10.678886666666667 -17.566666666666666 3.3 5000020.3666
10.678886666666667 -17.766666666666666 3.3 5000020.3666
10.678886666666667 -17.8 3.3 5000020.3666
14.474266666666667 3.1666666666666665 3.2666666666666666 5000134.228
14.474266666666667 2.7333333333333334 3.2666666666666666 5000134.228
14.474266666666667 2.566666666666667 3.2666666666666666 5000134.228
11.932366666666667 2.2 3.2666666666666666 5000057.971
12.699056666666667 1.3 3.2666666666666666 5000080.9717
12.699056666666667 1.2666666666666666 3.2666666666666666 5000080.9717
14.474266666666667 0.7 3.2666666666666666 5000134.228
16.666666666666668 0.5333333333333333 3.2666666666666666 5000200.0
11.692046666666666 0.43333333333333335 3.2666666666666666 5000050.7614
16.666666666666668 0.3333333333333333 3.2666666666666666 5000200.0
16.666666666666668 0.3 3.2666666666666666 5000200.0
14.474266666666667 0.03333333333333333 3.2666666666666666 5000134.228
14.474266666666667 0.0 3.2666666666666666 5000134.228
16.666666666666668 -0.5333333333333333 3.2666666666666666 5000200.0
16.666666666666668 -0.5666666666666667 3.2666666666666666 5000200.0
13.367 -0.6333333333333333 3.2666666666666666 5000101.01
12.252253333333334 -1.1333333333333333 3.2666666666666666 5000067.5676
12.252253333333334 -1.1666666666666667 3.2666666666666666 5000067.5676
11.692046666666666 -1.5666666666666667 3.2666666666666666 5000050.7614
11.692046666666666 -2.1333333333333333 3.2666666666666666 5000050.7614
10.968993333333334 -6.133333333333334 3.2666666666666666 5000029.0698
10.904566666666666 -7.2 3.2666666666666666 5000027.137
12.252253333333334 -7.733333333333333 3.2666666666666666 5000067.5676
11.355013333333334 -7.833333333333333 3.2666666666666666 5000040.6504
11.932366666666667 -8.233333333333333 3.2666666666666666 5000057.971
10.904566666666666 -9.933333333333334 3.2666666666666666 5000027.137
10.56593 -12.766666666666667 3.2666666666666666 5000016.9779
10.54333 -12.8 3.2666666666666666 5000016.2999
10.798403333333333 -13.766666666666667 3.2666666666666666 5000023.9521
10.798403333333333 -13.8 3.2666666666666666 5000023.9521
10.678886666666667 -17.766666666666666 3.2666666666666666 5000020.3666
10.678886666666667 -17.8 3.2666666666666666 5000020.3666
14.474266666666667 2.566666666666667 3.2333333333333334 5000134.228
11.932366666666667 2.2 3.2333333333333334 5000057.971
11.043296666666667 2.033333333333333 3.2333333333333334 5000031.2989
14.474266666666667 1.4333333333333333 3.2333333333333334 5000134.228
12.699056666666667 1.3 3.2333333333333334 5000080.9717
12.699056666666667 1.2666666666666666 3.2333333333333334 5000080.9717
12.252253333333334 1.1 3.2333333333333334 5000067.5676
14.474266666666667 0.9333333333333333 3.2333333333333334 5000134.228
14.474266666666667 0.8666666666666667 3.2333333333333334 5000134.228
14.474266666666667 0.7 3.2333333333333334 5000134.228
14.474266666666667 0.6333333333333333 3.2333333333333334 5000134.228
16.666666666666668 0.5333333333333333 3.2333333333333334 5000200.0
14.474266666666667 0.03333333333333333 3.2333333333333334 5000134.228
14.474266666666667 0.0 3.2333333333333334 5000134.228
16.666666666666668 -0.5333333333333333 3.2333333333333334 5000200.0
13.367 -0.6333333333333333 3.2333333333333334 5000101.01
11.692046666666666 -1.5333333333333334 3.2333333333333334 5000050.7614
11.692046666666666 -1.5666666666666667 3.2333333333333334 5000050.7614
11.692046666666666 -1.9 3.2333333333333334 5000050.7614
11.692046666666666 -2.1666666666666665 3.2333333333333334 5000050.7614
11.355013333333334 -4.1 3.2333333333333334 5000040.6504
11.043296666666667 -6.133333333333334 3.2333333333333334 5000031.2989
11.043296666666667 -6.333333333333333 3.2333333333333334 5000031.2989
10.904566666666666 -7.2 3.2333333333333334 5000027.137
12.252253333333334 -7.733333333333333 3.2333333333333334 5000067.5676
10.968993333333334 -9.4 3.2333333333333334 5000029.0698
10.968993333333334 -9.433333333333334 3.2333333333333334 5000029.0698
10.503143333333334 -9.8 3.2333333333333334 5000015.0943
10.968993333333334 -10.166666666666666 3.2333333333333334 5000029.0698
10.968993333333334 -10.2 3.2333333333333334 5000029.0698
10.71454 -13.6 3.2333333333333334 5000021.4362
10.798403333333333 -13.766666666666667 3.2333333333333334 5000023.9521
10.798403333333333 -13.8 3.2333333333333334 5000023.9521
10.798403333333333 -13.833333333333334 3.2333333333333334 5000023.9521
10.798403333333333 -13.866666666666667 3.2333333333333334 5000023.9521
10.678886666666667 -14.866666666666667 3.2333333333333334 5000020.3666
10.678886666666667 -14.9 3.2333333333333334 5000020.3666
10.64662 -14.933333333333334 3.2333333333333334 5000019.3986
10.617283333333333 -15.6 3.2333333333333334 5000018.5185
10.617283333333333 -15.633333333333333 3.2333333333333334 5000018.5185
10.617283333333333 -15.9 3.2333333333333334 5000018.5185
10.678886666666667 -17.766666666666666 3.2333333333333334 5000020.3666
10.678886666666667 -17.8 3.2333333333333334 5000020.3666
14.474266666666667 2.566666666666667 3.2 5000134.228
11.932366666666667 2.2 3.2 5000057.971
11.043296666666667 2.033333333333333 3.2 5000031.2989
13.367 1.6 3.2 5000101.01
14.474266666666667 1.4 3.2 5000134.228
12.699056666666667 1.2666666666666666 3.2 5000080.9717
12.252253333333334 1.1 3.2 5000067.5676
12.252253333333334 1.0666666666666667 3.2 5000067.5676
12.252253333333334 1.0333333333333334 3.2 5000067.5676
14.474266666666667 0.9333333333333333 3.2 5000134.228
14.474266666666667 0.9 3.2 5000134.228
11.043296666666667 0.8 3.2 5000031.2989
14.474266666666667 0.7666666666666667 3.2 5000134.228
14.474266666666667 0.7 3.2 5000134.228
14.474266666666667 0.6333333333333333 3.2 5000134.228
14.474266666666667 0.5333333333333333 3.2 5000134.228
14.474266666666667 0.0 3.2 5000134.228
12.252253333333334 -0.8 3.2 5000067.5676
11.692046666666666 -1.5333333333333334 3.2 5000050.7614
11.692046666666666 -1.5666666666666667 3.2 5000050.7614
11.692046666666666 -1.7 3.2 5000050.7614
11.692046666666666 -2.1666666666666665 3.2 5000050.7614
11.355013333333334 -4.1 3.2 5000040.6504
11.355013333333334 -4.233333333333333 3.2 5000040.6504
11.043296666666667 -6.333333333333333 3.2 5000031.2989
11.355013333333334 -7.833333333333333 3.2 5000040.6504
10.968993333333334 -10.2 3.2 5000029.0698
10.71454 -13.6 3.2 5000021.4362
10.678886666666667 -14.6 3.2 5000020.3666
10.71454 -14.833333333333334 3.2 5000021.4362
10.678886666666667 -14.866666666666667 3.2 5000020.3666
10.64662 -14.933333333333334 3.2 5000019.3986
10.617283333333333 -15.666666666666666 3.2 5000018.5185
10.617283333333333 -15.866666666666667 3.2 5000018.5185
10.617283333333333 -15.9 3.2 5000018.5185
10.71454 -16.7 3.2 5000021.4362
10.678886666666667 -16.8 3.2 5000020.3666
10.678886666666667 -16.833333333333332 3.2 5000020.3666
14.474266666666667 2.6333333333333333 3.1666666666666665 5000134.228
11.932366666666667 2.2 3.1666666666666665 5000057.971
11.043296666666667 2.033333333333333 3.1666666666666665 5000031.2989
13.367 1.6 3.1666666666666665 5000101.01
12.699056666666667 1.3 3.1666666666666665 5000080.9717
12.252253333333334 1.0666666666666667 3.1666666666666665 5000067.5676
12.252253333333334 1.0333333333333334 3.1666666666666665 5000067.5676
14.474266666666667 0.9333333333333333 3.1666666666666665 5000134.228
14.474266666666667 0.6333333333333333 3.1666666666666665 5000134.228
14.474266666666667 0.6 3.1666666666666665 5000134.228
14.474266666666667 0.5333333333333333 3.1666666666666665 5000134.228
14.474266666666667 0.5 3.1666666666666665 5000134.228
12.252253333333334 -0.8 3.1666666666666665 5000067.5676
11.692046666666666 -1.5333333333333334 3.1666666666666665 5000050.7614
11.692046666666666 -1.5666666666666667 3.1666666666666665 5000050.7614
11.692046666666666 -1.7333333333333334 3.1666666666666665 5000050.7614
11.692046666666666 -2.1 3.1666666666666665 5000050.7614
11.692046666666666 -2.1666666666666665 3.1666666666666665 5000050.7614
11.043296666666667 -6.1 3.1666666666666665 5000031.2989
10.754146666666667 -8.733333333333333 3.1666666666666665 5000022.6244
10.64662 -8.833333333333334 3.1666666666666665 5000019.3986
11.043296666666667 -9.5 3.1666666666666665 5000031.2989
10.64662 -15.066666666666666 3.1666666666666665 5000019.3986
10.617283333333333 -15.866666666666667 3.1666666666666665 5000018.5185
10.617283333333333 -15.9 3.1666666666666665 5000018.5185
10.617283333333333 -15.933333333333334 3.1666666666666665 5000018.5185
10.617283333333333 -15.966666666666667 3.1666666666666665 5000018.5185
10.71454 -16.7 3.1666666666666665 5000021.4362
10.678886666666667 -16.8 3.1666666666666665 5000020.3666
10.678886666666667 -16.833333333333332 3.1666666666666665 5000020.3666
13.367 2.4 3.1333333333333333 5000101.01
11.692046666666666 2.2 3.1333333333333333 5000050.7614
11.692046666666666 2.1666666666666665 3.1333333333333333 5000050.7614
11.043296666666667 2.033333333333333 3.1333333333333333 5000031.2989
13.367 1.6 3.1333333333333333 5000101.01
12.699056666666667 1.3 3.1333333333333333 5000080.9717
12.252253333333334 1.1 3.1333333333333333 5000067.5676
14.474266666666667 0.5333333333333333 3.1333333333333333 5000134.228
11.692046666666666 0.43333333333333335 3.1333333333333333 5000050.7614
11.692046666666666 0.4 3.1333333333333333 5000050.7614
12.252253333333334 0.36666666666666664 3.1333333333333333 5000067.5676
12.699056666666667 0.3333333333333333 3.1333333333333333 5000080.9717
14.474266666666667 0.3 3.1333333333333333 5000134.228
14.474266666666667 0.26666666666666666 3.1333333333333333 5000134.228
14.474266666666667 0.23333333333333334 3.1333333333333333 5000134.228
14.474266666666667 0.2 3.1333333333333333 5000134.228
11.355013333333334 0.1 3.1333333333333333 5000040.6504
11.692046666666666 0.03333333333333333 3.1333333333333333 5000050.7614
14.474266666666667 0.0 3.1333333333333333 5000134.228
13.367 -0.13333333333333333 3.1333333333333333 5000101.01
13.367 -0.16666666666666666 3.1333333333333333 5000101.01
12.252253333333334 -0.8 3.1333333333333333 5000067.5676
11.692046666666666 -1.5333333333333334 3.1333333333333333 5000050.7614
11.692046666666666 -1.5666666666666667 3.1333333333333333 5000050.7614
11.692046666666666 -1.7333333333333334 3.1333333333333333 5000050.7614
11.692046666666666 -2.1 3.1333333333333333 5000050.7614
11.692046666666666 -2.1666666666666665 3.1333333333333333 5000050.7614
