VERSION .7
FIELDS x y z rgb
SIZE 4 4 4 4
TYPE F F F F
COUNT 1 1 1 1
WIDTH 1051
HEIGHT 1
VIEWPOINT 0 0 0 1 0 0 0
POINTS 1051
DATA ascii
6.647982 4.58 -4.72 5000004.07997
6.623754 3.88 -4.72 5000004.03959
6.647982 3.14 -4.72 5000004.07997
6.647982 3.12 -4.72 5000004.07997
6.623754 3.06 -4.72 5000004.03959
6.623754 3.04 -4.72 5000004.03959
6.623754 3.02 -4.72 5000004.03959
6.623754 3.0 -4.72 5000004.03959
6.623754 2.96 -4.72 5000004.03959
6.647982 2.94 -4.72 5000004.07997
6.623754 4.62 -4.74 5000004.03959
6.647982 3.12 -4.74 5000004.07997
6.623754 3.0 -4.74 5000004.03959
6.623754 4.06 -4.76 5000004.03959
6.623754 4.04 -4.76 5000004.03959
6.623754 4.02 -4.76 5000004.03959
6.623754 3.18 -4.76 5000004.03959
6.623754 2.68 -4.76 5000004.03959
6.623754 4.18 -4.78 5000004.03959
6.623754 4.12 -4.78 5000004.03959
6.623754 4.1 -4.78 5000004.03959
6.623754 3.18 -4.78 5000004.03959
6.623754 5.5 -4.8 5000004.03959
6.623754 4.52 -4.8 5000004.03959
6.623754 3.18 -4.8 5000004.03959
6.623754 4.26 -4.82 5000004.03959
6.623754 3.16 -4.82 5000004.03959
004.2061
11.52366 -6.02 -4.14 5000004.2061
11.949126000000001 4.84 -4.16 5000004.91521
11.750399999999999 4.46 -4.16 5000004.584
11.719854 4.44 -4.16 5000004.53309
11.719854 4.42 -4.16 5000004.53309
11.68998 4.38 -4.16 5000004.4833
11.68998 4.36 -4.16 5000004.4833
11.68998 1.88 -4.16 5000004.4833
11.49792 -4.12 -4.16 5000004.1632
11.719854 4.44 -4.18 5000004.53309
11.719854 4.42 -4.18 5000004.53309
11.68998 4.4 -4.18 5000004.4833
11.660753999999999 4.38 -4.18 5000004.43459
11.719854 4.1 -4.18 5000004.53309
11.719854 3.34 -4.18 5000004.53309
11.719854 3.32 -4.18 5000004.53309
11.423754 4.26 -4.2 5000004.03959
11.719854 4.1 -4.2 5000004.53309
11.719854 4.08 -4.2 5000004.53309
11.719854 4.06 -4.2 5000004.53309
11.68998 3.9 -4.2 5000004.4833
11.719854 3.68 -4.2 5000004.53309
11.719854 3.3 -4.2 5000004.53309
11.660753999999999 3.28 -4.2 5000004.43459
11.660753999999999 3.22 -4.2 5000004.43459
11.447982 -6.08 -4.2 5000004.07997
11.660753999999999 4.68 -4.22 5000004.43459
11.660753999999999 4.66 -4.22 5000004.43459
11.423754 4.28 -4.22 5000004.03959
11.423754 4.26 -4.22 5000004.03959
11.68998 4.06 -4.22 5000004.4833
11.660753999999999 4.04 -4.22 5000004.43459
11.660753999999999 1.94 -4.22 5000004.43459
11.49792 -4.6 -4.22 5000004.1632
11.49792 -4.62 -4.22 5000004.1632
11.660753999999999 4.7 -4.24 5000004.43459
11.660753999999999 4.68 -4.24 5000004.43459
11.660753999999999 4.66 -4.24 5000004.43459
11.660753999999999 4.64 -4.24 5000004.43459
11.660753999999999 4.62 -4.24 5000004.43459
11.423754 4.3 -4.24 5000004.03959
11.68998 3.86 -4.24 5000004.4833
11.660753999999999 3.76 -4.24 5000004.43459
11.549934 -2.28 -4.24 5000004.24989
11.549934 -2.3 -4.24 5000004.24989
11.549934 -3.12 -4.24 5000004.24989
11.549934 -3.14 -4.24 5000004.24989
11.549934 -3.16 -4.24 5000004.24989
11.49792 -4.62 -4.24 5000004.1632
11.660753999999999 4.98 -4.26 5000004.43459
11.447982 4.52 -4.26 5000004.07997
11.447982 4.5 -4.26 5000004.07997
11.660753999999999 4.22 -4.26 5000004.43459
11.660753999999999 4.02 -4.26 5000004.43459
11.660753999999999 3.76 -4.26 5000004.43459
11.660753999999999 3.74 -4.26 5000004.43459
11.660753999999999 3.72 -4.26 5000004.43459
11.549934 -1.7 -4.26 5000004.24989
11.549934 -1.72 -4.26 5000004.24989
11.549934 -3.14 -4.26 5000004.24989
11.423754 -3.22 -4.26 5000004.03959
11.447982 -5.84 -4.26 5000004.07997
11.447982 -5.86 -4.26 5000004.07997
11.660753999999999 4.96 -4.28 5000004.43459
11.719854 4.88 -4.28 5000004.53309
11.49792 3.66 -4.28 5000004.1632
11.576766 1.46 -4.28 5000004.29461
11.576766 1.44 -4.28 5000004.29461
11.576766 1.42 -4.28 5000004.29461
11.549934 -0.26 -4.28 5000004.24989
11.549934 -1.16 -4.28 5000004.24989
11.447982 -5.84 -4.28 5000004.07997
11.447982 -5.86 -4.28 5000004.07997
11.719854 4.86 -4.3 5000004.53309
11.632158 3.98 -4.3 5000004.38693
11.632158 3.96 -4.3 5000004.38693
11.632158 2.38 -4.3 5000004.38693
11.604168 1.18 -4.3 5000004.34028
11.549934 1.16 -4.3 5000004.24989
11.549934 1.1 -4.3 5000004.24989
11.52366 1.08 -4.3 5000004.2061
11.52366 -2.28 -4.3 5000004.2061
11.472696000000001 -4.36 -4.3 5000004.12116
11.472696000000001 -4.38 -4.3 5000004.12116
11.68998 4.86 -4.32 5000004.4833
11.660753999999999 4.66 -4.32 5000004.43459
11.632158 4.64 -4.32 5000004.38693
11.604168 4.58 -4.32 5000004.34028
11.423754 3.84 -4.32 5000004.03959
11.549934 1.16 -4.32 5000004.24989
11.604168 1.14 -4.32 5000004.34028
11.549934 1.12 -4.32 5000004.24989
11.52366 1.08 -4.32 5000004.2061
11.576766 1.06 -4.32 5000004.29461
11.52366 -2.86 -4.32 5000004.2061
11.52366 -2.88 -4.32 5000004.2061
11.447982 -3.26 -4.32 5000004.07997
11.68998 4.84 -4.34 5000004.4833
11.632158 4.6 -4.34 5000004.38693
11.423754 -3.46 -4.34 5000004.03959
11.447982 -4.28 -4.34 5000004.07997
11.447982 -4.3 -4.34 5000004.07997
11.68998 4.82 -4.36 5000004.4833
11.604168 4.54 -4.36 5000004.34028
11.604168 4.4 -4.36 5000004.34028
11.49792 0.38 -4.36 5000004.1632
11.472696000000001 -2.62 -4.36 5000004.12116
11.447982 -3.12 -4.36 5000004.07997
11.447982 -3.14 -4.36 5000004.07997
11.447982 -3.16 -4.36 5000004.07997
11.423754 -3.38 -4.36 5000004.03959
11.423754 -3.4 -4.36 5000004.03959
11.423754 -3.42 -4.36 5000004.03959
11.423754 -3.46 -4.36 5000004.03959
11.576766 4.88 -4.38 5000004.29461
11.576766 4.54 -4.38 5000004.29461
11.52366 1.16 -4.38 5000004.2061
11.52366 1.14 -4.38 5000004.2061
11.447982 -3.14 -4.38 5000004.07997
11.447982 -3.16 -4.38 5000004.07997
11.447982 -3.24 -4.38 5000004.07997
11.447982 -3.26 -4.38 5000004.07997
11.423754 -3.28 -4.38 5000004.03959
11.447982 -3.58 -4.38 5000004.07997
11.447982 -3.6 -4.38 5000004.07997
11.447982 -3.62 -4.38 5000004.07997
11.576766 4.86 -4.4 5000004.29461
11.576766 4.52 -4.4 5000004.29461
11.52366 4.34 -4.4 5000004.2061
11.447982 -3.22 -4.4 5000004.07997
11.447982 -3.24 -4.4 5000004.07997
11.447982 -3.26 -4.4 5000004.07997
11.604168 4.8 -4.42 5000004.34028
11.52366 4.34 -4.42 5000004.2061
11.52366 4.32 -4.42 5000004.2061
11.52366 2.16 -4.42 5000004.2061
11.52366 2.14 -4.42 5000004.2061
11.447982 -1.74 -4.42 5000004.07997
11.447982 -1.76 -4.42 5000004.07997
11.423754 -3.16 -4.42 5000004.03959
11.423754 -3.5 -4.42 5000004.03959
11.423754 -6.7 -4.42 5000004.03959
11.604168 4.78 -4.44 5000004.34028
11.52366 2.12 -4.44 5000004.2061
11.49792 0.96 -4.44 5000004.1632
11.423754 -3.16 -4.44 5000004.03959
11.423754 -3.56 -4.44 5000004.03959
11.423754 -3.64 -4.44 5000004.03959
11.604168 4.76 -4.46 5000004.34028
11.472696000000001 0.94 -4.46 5000004.12116
11.472696000000001 0.92 -4.46 5000004.12116
11.423754 -3.2 -4.46 5000004.03959
11.423754 -3.22 -4.46 5000004.03959
11.604168 4.82 -4.48 5000004.34028
11.576766 4.76 -4.48 5000004.29461
11.472696000000001 3.02 -4.48 5000004.12116
11.447982 3.0 -4.48 5000004.07997
11.447982 2.98 -4.48 5000004.07997
11.49792 2.82 -4.48 5000004.1632
11.49792 2.8 -4.48 5000004.1632
11.49792 2.78 -4.48 5000004.1632
11.472696000000001 0.92 -4.48 5000004.12116
11.472696000000001 0.9 -4.48 5000004.12116
11.447982 0.7 -4.48 5000004.07997
11.423754 -3.06 -4.48 5000004.03959
11.423754 -3.08 -4.48 5000004.03959
11.423754 -3.1 -4.48 5000004.03959
11.423754 -3.2 -4.48 5000004.03959
11.423754 -3.22 -4.48 5000004.03959
11.576766 4.74 -4.5 5000004.29461
11.472696000000001 3.12 -4.5 5000004.12116
11.472696000000001 3.1 -4.5 5000004.12116
11.472696000000001 3.08 -4.5 5000004.12116
11.472696000000001 3.06 -4.5 5000004.12116
11.472696000000001 3.04 -4.5 5000004.12116
11.472696000000001 3.02 -4.5 5000004.12116
11.447982 3.0 -4.5 5000004.07997
11.447982 2.98 -4.5 5000004.07997
11.447982 2.96 -4.5 5000004.07997
11.447982 0.82 -4.5 5000004.07997
11.447982 0.8 -4.5 5000004.07997
11.447982 0.78 -4.5 5000004.07997
11.447982 0.76 -4.5 5000004.07997
11.423754 -1.56 -4.5 5000004.03959
11.423754 -2.4 -4.5 5000004.03959
11.632158 -2.88 -4.5 5000004.38693
11.423754 -2.98 -4.5 5000004.03959
11.423754 -3.0 -4.5 5000004.03959
11.423754 -3.02 -4.5 5000004.03959
11.423754 -3.04 -4.5 5000004.03959
11.423754 -3.06 -4.5 5000004.03959
11.423754 -3.08 -4.5 5000004.03959
11.576766 4.72 -4.52 5000004.29461
11.447982 3.14 -4.52 5000004.07997
11.472696000000001 3.12 -4.52 5000004.12116
11.472696000000001 3.1 -4.52 5000004.12116
11.49792 2.32 -4.52 5000004.1632
11.49792 2.3 -4.52 5000004.1632
11.472696000000001 0.98 -4.52 5000004.12116
11.447982 0.96 -4.52 5000004.07997
11.447982 0.94 -4.52 5000004.07997
11.447982 0.92 -4.52 5000004.07997
11.447982 0.8 -4.52 5000004.07997
11.447982 0.78 -4.52 5000004.07997
11.447982 0.76 -4.52 5000004.07997
11.423754 -3.04 -4.52 5000004.03959
11.423754 -3.06 -4.52 5000004.03959
11.423754 -3.14 -4.52 5000004.03959
11.447982 3.24 -4.54 5000004.07997
11.447982 3.22 -4.54 5000004.07997
11.447982 3.2 -4.54 5000004.07997
11.447982 3.18 -4.54 5000004.07997
11.49792 2.3 -4.54 5000004.1632
11.472696000000001 2.28 -4.54 5000004.12116
11.447982 0.94 -4.54 5000004.07997
11.447982 0.92 -4.54 5000004.07997
11.423754 0.9 -4.54 5000004.03959
11.423754 -3.1 -4.54 5000004.03959
11.423754 -3.12 -4.54 5000004.03959
11.447982 2.62 -4.56 5000004.07997
11.472696000000001 2.28 -4.56 5000004.12116
11.447982 2.26 -4.56 5000004.07997
11.447982 2.24 -4.56 5000004.07997
11.447982 2.22 -4.56 5000004.07997
11.423754 -3.1 -4.56 5000004.03959
11.49792 4.68 -4.58 5000004.1632
11.423754 3.3 -4.58 5000004.03959
11.447982 2.62 -4.58 5000004.07997
11.447982 2.6 -4.58 5000004.07997
11.447982 2.58 -4.58 5000004.07997
11.423754 2.56 -4.58 5000004.03959
11.423754 0.82 -4.58 5000004.03959
11.423754 0.8 -4.58 5000004.03959
11.423754 0.78 -4.58 5000004.03959
11.447982 4.74 -4.6 5000004.07997
11.423754 3.36 -4.6 5000004.03959
11.423754 3.34 -4.6 5000004.03959
11.423754 3.32 -4.6 5000004.03959
11.423754 3.3 -4.6 5000004.03959
11.423754 3.28 -4.6 5000004.03959
11.447982 3.12 -4.6 5000004.07997
11.423754 0.74 -4.6 5000004.03959
11.423754 0.72 -4.6 5000004.03959
11.423754 0.7 -4.6 5000004.03959
11.423754 0.68 -4.6 5000004.03959
11.447982 4.74 -4.62 5000004.07997
11.447982 4.72 -4.62 5000004.07997
11.472696000000001 4.66 -4.62 5000004.12116
11.447982 3.1 -4.62 5000004.07997
11.423754 2.3 -4.62 5000004.03959
11.423754 2.28 -4.62 5000004.03959
11.423754 0.46 -4.62 5000004.03959
11.447982 4.72 -4.64 5000004.07997
11.447982 4.7 -4.64 5000004.07997
11.472696000000001 4.64 -4.64 5000004.12116
11.423754 4.36 -4.64 5000004.03959
11.423754 2.28 -4.64 5000004.03959
11.423754 2.26 -4.64 5000004.03959
11.423754 4.7 -4.66 5000004.03959
11.423754 4.68 -4.66 5000004.03959
11.472696000000001 4.62 -4.66 5000004.12116
11.423754 4.38 -4.66 5000004.03959
11.423754 4.36 -4.66 5000004.03959
11.423754 4.34 -4.66 5000004.03959
11.49792 3.0 -4.66 5000004.1632
11.49792 2.98 -4.66 5000004.1632
11.423754 2.92 -4.66 5000004.03959
11.423754 2.9 -4.66 5000004.03959
11.423754 4.68 -4.68 5000004.03959
11.423754 4.66 -4.68 5000004.03959
11.447982 4.62 -4.68 5000004.07997
11.423754 4.38 -4.68 5000004.03959
11.423754 4.36 -4.68 5000004.03959
11.423754 4.34 -4.68 5000004.03959
11.472696000000001 2.98 -4.68 5000004.12116
11.423754 2.92 -4.68 5000004.03959
11.423754 2.9 -4.68 5000004.03959
11.423754 2.88 -4.68 5000004.03959
11.447982 2.86 -4.68 5000004.07997
11.423754 2.84 -4.68 5000004.03959
11.447982 2.82 -4.68 5000004.07997
11.447982 2.8 -4.68 5000004.07997
11.423754 4.66 -4.7 5000004.03959
11.423754 4.64 -4.7 5000004.03959
11.447982 4.6 -4.7 5000004.07997
11.423754 3.4 -4.7 5000004.03959
11.447982 3.14 -4.7 5000004.07997
11.423754 3.08 -4.7 5000004.03959
11.423754 3.06 -4.7 5000004.03959
11.423754 3.04 -4.7 5000004.03959
11.472696000000001 2.98 -4.7 5000004.12116
11.472696000000001 2.96 -4.7 5000004.12116
11.423754 2.92 -4.7 5000004.03959
11.423754 2.9 -4.7 5000004.03959
11.423754 2.88 -4.7 5000004.03959
11.423754 4.64 -4.72 5000004.03959
11.447982 4.58 -4.72 5000004.07997
11.423754 3.88 -4.72 5000004.03959
11.447982 3.14 -4.72 5000004.07997
11.447982 3.12 -4.72 5000004.07997
11.423754 3.06 -4.72 5000004.03959
11.423754 3.04 -4.72 5000004.03959
11.423754 3.02 -4.72 5000004.03959
11.423754 3.0 -4.72 5000004.03959
11.423754 2.96 -4.72 5000004.03959
11.447982 2.94 -4.72 5000004.07997
11.423754 4.62 -4.74 5000004.03959
11.447982 3.12 -4.74 5000004.07997
11.423754 3.0 -4.74 5000004.03959
11.423754 4.06 -4.76 5000004.03959
11.423754 4.04 -4.76 5000004.03959
11.423754 4.02 -4.76 5000004.03959
11.423754 3.18 -4.76 5000004.03959
11.423754 2.68 -4.76 5000004.03959
11.423754 4.18 -4.78 5000004.03959
11.423754 4.12 -4.78 5000004.03959
11.423754 4.1 -4.78 5000004.03959
11.423754 3.18 -4.78 5000004.03959
11.423754 5.5 -4.8 5000004.03959
11.423754 4.52 -4.8 5000004.03959
11.423754 3.18 -4.8 5000004.03959
11.423754 4.26 -4.82 5000004.03959
11.423754 3.16 -4.82 5000004.03959
2061
7.631988 -3.14 -4.38 5000004.07997
7.631988 -3.16 -4.38 5000004.07997
7.631988 -3.24 -4.38 5000004.07997
7.631988 -3.26 -4.38 5000004.07997
7.615836 -3.28 -4.38 5000004.03959
7.631988 -3.58 -4.38 5000004.07997
7.631988 -3.6 -4.38 5000004.07997
7.631988 -3.62 -4.38 5000004.07997
7.7178439999999995 4.86 -4.4 5000004.29461
7.7178439999999995 4.52 -4.4 5000004.29461
7.68244 4.34 -4.4 5000004.2061
7.631988 -3.22 -4.4 5000004.07997
7.631988 -3.24 -4.4 5000004.07997
7.631988 -3.26 -4.4 5000004.07997
7.736111999999999 4.8 -4.42 5000004.34028
7.68244 4.34 -4.42 5000004.2061
7.68244 4.32 -4.42 5000004.2061
7.68244 2.16 -4.42 5000004.2061
7.68244 2.14 -4.42 5000004.2061
7.631988 -1.74 -4.42 5000004.07997
7.631988 -1.76 -4.42 5000004.07997
7.615836 -3.16 -4.42 5000004.03959
7.615836 -3.5 -4.42 5000004.03959
7.615836 -6.7 -4.42 5000004.03959
7.736111999999999 4.78 -4.44 5000004.34028
7.68244 2.12 -4.44 5000004.2061
7.66528 0.96 -4.44 5000004.1632
7.615836 -3.16 -4.44 5000004.03959
7.615836 -3.56 -4.44 5000004.03959
7.615836 -3.64 -4.44 5000004.03959
7.736111999999999 4.76 -4.46 5000004.34028
7.648464000000001 0.94 -4.46 5000004.12116
7.648464000000001 0.92 -4.46 5000004.12116
7.615836 -3.2 -4.46 5000004.03959
7.615836 -3.22 -4.46 5000004.03959
7.736111999999999 4.82 -4.48 5000004.34028
7.7178439999999995 4.76 -4.48 5000004.29461
7.648464000000001 3.02 -4.48 5000004.12116
7.631988 3.0 -4.48 5000004.07997
7.631988 2.98 -4.48 5000004.07997
7.66528 2.82 -4.48 5000004.1632
7.66528 2.8 -4.48 5000004.1632
7.66528 2.78 -4.48 5000004.1632
7.648464000000001 0.92 -4.48 5000004.12116
7.648464000000001 0.9 -4.48 5000004.12116
7.631988 0.7 -4.48 5000004.07997
7.615836 -3.06 -4.48 5000004.03959
7.615836 -3.08 -4.48 5000004.03959
7.615836 -3.1 -4.48 5000004.03959
7.615836 -3.2 -4.48 5000004.03959
7.615836 -3.22 -4.48 5000004.03959
7.7178439999999995 4.74 -4.5 5000004.29461
7.648464000000001 3.12 -4.5 5000004.12116
7.648464000000001 3.1 -4.5 5000004.12116
7.648464000000001 3.08 -4.5 5000004.12116
7.648464000000001 3.06 -4.5 5000004.12116
7.648464000000001 3.04 -4.5 5000004.12116
7.648464000000001 3.02 -4.5 5000004.12116
7.631988 3.0 -4.5 5000004.07997
7.631988 2.98 -4.5 5000004.07997
7.631988 2.96 -4.5 5000004.07997
7.631988 0.82 -4.5 5000004.07997
7.631988 0.8 -4.5 5000004.07997
7.631988 0.78 -4.5 5000004.07997
7.631988 0.76 -4.5 5000004.07997
7.615836 -1.56 -4.5 5000004.03959
7.615836 -2.4 -4.5 5000004.03959
7.754772 -2.88 -4.5 5000004.38693
7.615836 -2.98 -4.5 5000004.03959
7.615836 -3.0 -4.5 5000004.03959
7.615836 -3.02 -4.5 5000004.03959
7.615836 -3.04 -4.5 5000004.03959
7.615836 -3.06 -4.5 5000004.03959
7.615836 -3.08 -4.5 5000004.03959
7.7178439999999995 4.72 -4.52 5000004.29461
7.631988 3.14 -4.52 5000004.07997
7.648464000000001 3.12 -4.52 5000004.12116
7.648464000000001 3.1 -4.52 5000004.12116
7.66528 2.32 -4.52 5000004.1632
7.66528 2.3 -4.52 5000004.1632
7.648464000000001 0.98 -4.52 5000004.12116
7.631988 0.96 -4.52 5000004.07997
7.631988 0.94 -4.52 5000004.07997
7.631988 0.92 -4.52 5000004.07997
7.631988 0.8 -4.52 5000004.07997
7.631988 0.78 -4.52 5000004.07997
7.631988 0.76 -4.52 5000004.07997
7.615836 -3.04 -4.52 5000004.03959
7.615836 -3.06 -4.52 5000004.03959
7.615836 -3.14 -4.52 5000004.03959
7.631988 3.24 -4.54 5000004.07997
7.631988 3.22 -4.54 5000004.07997
7.631988 3.2 -4.54 5000004.07997
7.631988 3.18 -4.54 5000004.07997
7.66528 2.3 -4.54 5000004.1632
7.648464000000001 2.28 -4.54 5000004.12116
7.631988 0.94 -4.54 5000004.07997
7.631988 0.92 -4.54 5000004.07997
7.615836 0.9 -4.54 5000004.03959
7.615836 -3.1 -4.54 5000004.03959
7.615836 -3.12 -4.54 5000004.03959
7.631988 2.62 -4.56 5000004.07997
7.648464000000001 2.28 -4.56 5000004.12116
7.631988 2.26 -4.56 5000004.07997
7.631988 2.24 -4.56 5000004.07997
7.631988 2.22 -4.56 5000004.07997
7.615836 -3.1 -4.56 5000004.03959
7.66528 4.68 -4.58 5000004.1632
7.615836 3.3 -4.58 5000004.03959
7.631988 2.62 -4.58 5000004.07997
7.631988 2.6 -4.58 5000004.07997
7.631988 2.58 -4.58 5000004.07997
7.615836 2.56 -4.58 5000004.03959
7.615836 0.82 -4.58 5000004.03959
7.615836 0.8 -4.58 5000004.03959
7.615836 0.78 -4.58 5000004.03959
7.631988 4.74 -4.6 5000004.07997
7.615836 3.36 -4.6 5000004.03959
7.615836 3.34 -4.6 5000004.03959
7.615836 3.32 -4.6 5000004.03959
7.615836 3.3 -4.6 5000004.03959
7.615836 3.28 -4.6 5000004.03959
7.631988 3.12 -4.6 5000004.07997
7.615836 0.74 -4.6 5000004.03959
7.615836 0.72 -4.6 5000004.03959
7.615836 0.7 -4.6 5000004.03959
7.615836 0.68 -4.6 5000004.03959
7.631988 4.74 -4.62 5000004.07997
7.631988 4.72 -4.62 5000004.07997
7.648464000000001 4.66 -4.62 5000004.12116
7.631988 3.1 -4.62 5000004.07997
7.615836 2.3 -4.62 5000004.03959
7.615836 2.28 -4.62 5000004.03959
7.615836 0.46 -4.62 5000004.03959
7.631988 4.72 -4.64 5000004.07997
7.631988 4.7 -4.64 5000004.07997
7.648464000000001 4.64 -4.64 5000004.12116
7.615836 4.36 -4.64 5000004.03959
7.615836 2.28 -4.64 5000004.03959
7.615836 2.26 -4.64 5000004.03959
7.615836 4.7 -4.66 5000004.03959
7.615836 4.68 -4.66 5000004.03959
7.648464000000001 4.62 -4.66 5000004.12116
7.615836 4.38 -4.66 5000004.03959
7.615836 4.36 -4.66 5000004.03959
7.615836 4.34 -4.66 5000004.03959
7.66528 3.0 -4.66 5000004.1632
7.66528 2.98 -4.66 5000004.1632
7.615836 2.92 -4.66 5000004.03959
7.615836 2.9 -4.66 5000004.03959
7.615836 4.68 -4.68 5000004.03959
7.615836 4.66 -4.68 5000004.03959
7.631988 4.62 -4.68 5000004.07997
7.615836 4.38 -4.68 5000004.03959
7.615836 4.36 -4.68 5000004.03959
7.615836 4.34 -4.68 5000004.03959
7.648464000000001 2.98 -4.68 5000004.12116
7.615836 2.92 -4.68 5000004.03959
7.615836 2.9 -4.68 5000004.03959
7.615836 2.88 -4.68 5000004.03959
7.631988 2.86 -4.68 5000004.07997
7.615836 2.84 -4.68 5000004.03959
7.631988 2.82 -4.68 5000004.07997
7.631988 2.8 -4.68 5000004.07997
7.615836 4.66 -4.7 5000004.03959
7.615836 4.64 -4.7 5000004.03959
7.631988 4.6 -4.7 5000004.07997
7.615836 3.4 -4.7 5000004.03959
7.631988 3.14 -4.7 5000004.07997
7.615836 3.08 -4.7 5000004.03959
7.615836 3.06 -4.7 5000004.03959
7.615836 3.04 -4.7 5000004.03959
7.648464000000001 2.98 -4.7 5000004.12116
7.648464000000001 2.96 -4.7 5000004.12116
7.615836 2.92 -4.7 5000004.03959
7.615836 2.9 -4.7 5000004.03959
7.615836 2.88 -4.7 5000004.03959
7.615836 4.64 -4.72 5000004.03959
7.631988 4.58 -4.72 5000004.07997
7.615836 3.88 -4.72 5000004.03959
7.631988 3.14 -4.72 5000004.07997
7.631988 3.12 -4.72 5000004.07997
7.615836 3.06 -4.72 5000004.03959
7.615836 3.04 -4.72 5000004.03959
7.615836 3.02 -4.72 5000004.03959
7.615836 3.0 -4.72 5000004.03959
7.615836 2.96 -4.72 5000004.03959
7.631988 2.94 -4.72 5000004.07997
7.615836 4.62 -4.74 5000004.03959
7.631988 3.12 -4.74 5000004.07997
7.615836 3.0 -4.74 5000004.03959
7.615836 4.06 -4.76 5000004.03959
7.615836 4.04 -4.76 5000004.03959
7.615836 4.02 -4.76 5000004.03959
7.615836 3.18 -4.76 5000004.03959
7.615836 2.68 -4.76 5000004.03959
7.615836 4.18 -4.78 5000004.03959
7.615836 4.12 -4.78 5000004.03959
7.615836 4.1 -4.78 5000004.03959
7.615836 3.18 -4.78 5000004.03959
7.615836 5.5 -4.8 5000004.03959
7.615836 4.52 -4.8 5000004.03959
7.615836 3.18 -4.8 5000004.03959
7.615836 4.26 -4.82 5000004.03959
7.615836 3.16 -4.82 5000004.03959
699056666666667 -7.366666666666666 3.9 5000080.9717
11.692046666666666 -7.433333333333334 3.9 5000050.7614
11.232286666666667 -7.733333333333333 3.9 5000036.9686
11.692046666666666 -8.033333333333333 3.9 5000050.7614
11.692046666666666 -8.066666666666666 3.9 5000050.7614
11.692046666666666 -8.266666666666667 3.9 5000050.7614
11.355013333333334 -8.333333333333334 3.9 5000040.6504
10.968993333333334 -8.366666666666667 3.9 5000029.0698
11.692046666666666 -8.4 3.9 5000050.7614
12.699056666666667 -8.466666666666667 3.9 5000080.9717
10.968993333333334 -8.6 3.9 5000029.0698
10.798403333333333 -9.033333333333333 3.9 5000023.9521
10.798403333333333 -9.066666666666666 3.9 5000023.9521
10.522466666666666 -9.266666666666667 3.9 5000015.674
10.798403333333333 -9.3 3.9 5000023.9521
10.798403333333333 -9.333333333333334 3.9 5000023.9521
10.438306666666668 -9.466666666666667 3.9 5000013.1492
11.043296666666667 -10.966666666666667 3.9 5000031.2989
10.968993333333334 -11.4 3.9 5000029.0698
10.54333 -14.066666666666666 3.9 5000016.2999
10.54333 -14.1 3.9 5000016.2999
14.474266666666667 3.066666666666667 3.8666666666666667 5000134.228
14.474266666666667 3.033333333333333 3.8666666666666667 5000134.228
14.474266666666667 2.8 3.8666666666666667 5000134.228
14.474266666666667 2.7 3.8666666666666667 5000134.228
14.474266666666667 2.3666666666666667 3.8666666666666667 5000134.228
14.474266666666667 2.3333333333333335 3.8666666666666667 5000134.228
14.474266666666667 2.2666666666666666 3.8666666666666667 5000134.228
13.367 2.033333333333333 3.8666666666666667 5000101.01
14.474266666666667 1.7333333333333334 3.8666666666666667 5000134.228
16.666666666666668 1.4333333333333333 3.8666666666666667 5000200.0
14.474266666666667 1.4 3.8666666666666667 5000134.228
16.666666666666668 1.2 3.8666666666666667 5000200.0
16.666666666666668 0.9 3.8666666666666667 5000200.0
12.699056666666667 0.7333333333333333 3.8666666666666667 5000080.9717
12.699056666666667 0.7 3.8666666666666667 5000080.9717
12.699056666666667 0.5333333333333333 3.8666666666666667 5000080.9717
16.666666666666668 0.4 3.8666666666666667 5000200.0
16.666666666666668 0.36666666666666664 3.8666666666666667 5000200.0
16.666666666666668 0.13333333333333333 3.8666666666666667 5000200.0
13.367 -0.03333333333333333 3.8666666666666667 5000101.01
13.367 -0.06666666666666667 3.8666666666666667 5000101.01
13.367 -0.1 3.8666666666666667 5000101.01
14.474266666666667 -0.8666666666666667 3.8666666666666667 5000134.228
14.474266666666667 -1.1333333333333333 3.8666666666666667 5000134.228
13.367 -1.8 3.8666666666666667 5000101.01
14.474266666666667 -2.033333333333333 3.8666666666666667 5000134.228
14.474266666666667 -2.066666666666667 3.8666666666666667 5000134.228
11.932366666666667 -2.433333333333333 3.8666666666666667 5000057.971
11.932366666666667 -2.466666666666667 3.8666666666666667 5000057.971
13.367 -2.7 3.8666666666666667 5000101.01
12.252253333333334 -3.3333333333333335 3.8666666666666667 5000067.5676
13.367 -5.166666666666667 3.8666666666666667 5000101.01
12.252253333333334 -5.233333333333333 3.8666666666666667 5000067.5676
12.252253333333334 -5.333333333333333 3.8666666666666667 5000067.5676
12.252253333333334 -5.4 3.8666666666666667 5000067.5676
11.932366666666667 -6.1 3.8666666666666667 5000057.971
13.367 -6.266666666666667 3.8666666666666667 5000101.01
13.367 -6.333333333333333 3.8666666666666667 5000101.01
11.232286666666667 -6.5 3.8666666666666667 5000036.9686
10.904566666666666 -6.6 3.8666666666666667 5000027.137
10.617283333333333 -6.766666666666667 3.8666666666666667 5000018.5185
14.474266666666667 -7.166666666666667 3.8666666666666667 5000134.228
12.699056666666667 -7.3 3.8666666666666667 5000080.9717
12.699056666666667 -7.366666666666666 3.8666666666666667 5000080.9717
11.232286666666667 -7.733333333333333 3.8666666666666667 5000036.9686
12.699056666666667 -8.033333333333333 3.8666666666666667 5000080.9717
14.474266666666667 -8.066666666666666 3.8666666666666667 5000134.228
11.355013333333334 -8.233333333333333 3.8666666666666667 5000040.6504
11.692046666666666 -8.266666666666667 3.8666666666666667 5000050.7614
11.355013333333334 -8.333333333333334 3.8666666666666667 5000040.6504
10.968993333333334 -8.366666666666667 3.8666666666666667 5000029.0698
11.932366666666667 -8.733333333333333 3.8666666666666667 5000057.971
11.355013333333334 -8.766666666666667 3.8666666666666667 5000040.6504
11.692046666666666 -8.966666666666667 3.8666666666666667 5000050.7614
10.798403333333333 -9.0 3.8666666666666667 5000023.9521
10.798403333333333 -9.033333333333333 3.8666666666666667 5000023.9521
10.798403333333333 -9.066666666666666 3.8666666666666667 5000023.9521
10.4529 -9.433333333333334 3.8666666666666667 5000013.587
10.438306666666668 -9.466666666666667 3.8666666666666667 5000013.1492
16.666666666666668 -10.866666666666667 3.8666666666666667 5000200.0
11.043296666666667 -10.966666666666667 3.8666666666666667 5000031.2989
10.968993333333334 -11.4 3.8666666666666667 5000029.0698
10.56593 -13.6 3.8666666666666667 5000016.9779
10.56593 -13.633333333333333 3.8666666666666667 5000016.9779
10.54333 -13.666666666666666 3.8666666666666667 5000016.2999
10.54333 -14.066666666666666 3.8666666666666667 5000016.2999
10.54333 -14.1 3.8666666666666667 5000016.2999
14.474266666666667 2.8 3.8333333333333335 5000134.228
14.474266666666667 2.6666666666666665 3.8333333333333335 5000134.228
14.474266666666667 2.3666666666666667 3.8333333333333335 5000134.228
14.474266666666667 2.3333333333333335 3.8333333333333335 5000134.228
14.474266666666667 2.2666666666666666 3.8333333333333335 5000134.228
13.367 2.033333333333333 3.8333333333333335 5000101.01
14.474266666666667 1.7333333333333334 3.8333333333333335 5000134.228
16.666666666666668 1.4333333333333333 3.8333333333333335 5000200.0
16.666666666666668 1.4 3.8333333333333335 5000200.0
16.666666666666668 1.2 3.8333333333333335 5000200.0
16.666666666666668 0.9 3.8333333333333335 5000200.0
12.699056666666667 0.7333333333333333 3.8333333333333335 5000080.9717
12.699056666666667 0.7 3.8333333333333335 5000080.9717
12.699056666666667 0.5333333333333333 3.8333333333333335 5000080.9717
16.666666666666668 0.4 3.8333333333333335 5000200.0
16.666666666666668 0.36666666666666664 3.8333333333333335 5000200.0
16.666666666666668 0.13333333333333333 3.8333333333333335 5000200.0
16.666666666666668 0.1 3.8333333333333335 5000200.0
13.367 -0.03333333333333333 3.8333333333333335 5000101.01
13.367 -0.06666666666666667 3.8333333333333335 5000101.01
13.367 -0.1 3.8333333333333335 5000101.01
16.666666666666668 -0.2 3.8333333333333335 5000200.0
16.666666666666668 -0.26666666666666666 3.8333333333333335 5000200.0
16.666666666666668 -0.4 3.8333333333333335 5000200.0
14.474266666666667 -1.1333333333333333 3.8333333333333335 5000134.228
12.699056666666667 -1.5666666666666667 3.8333333333333335 5000080.9717
12.699056666666667 -1.6333333333333333 3.8333333333333335 5000080.9717
13.367 -1.8 3.8333333333333335 5000101.01
13.367 -1.8333333333333333 3.8333333333333335 5000101.01
14.474266666666667 -2.2 3.8333333333333335 5000134.228
11.932366666666667 -2.433333333333333 3.8333333333333335 5000057.971
11.932366666666667 -2.466666666666667 3.8333333333333335 5000057.971
13.367 -3.7 3.8333333333333335 5000101.01
14.474266666666667 -5.1 3.8333333333333335 5000134.228
13.367 -5.166666666666667 3.8333333333333335 5000101.01
12.252253333333334 -5.233333333333333 3.8333333333333335 5000067.5676
12.252253333333334 -5.4 3.8333333333333335 5000067.5676
16.666666666666668 -6.266666666666667 3.8333333333333335 5000200.0
13.367 -6.333333333333333 3.8333333333333335 5000101.01
13.367 -6.4 3.8333333333333335 5000101.01
11.232286666666667 -6.5 3.8333333333333335 5000036.9686
10.904566666666666 -6.6 3.8333333333333335 5000027.137
10.617283333333333 -6.766666666666667 3.8333333333333335 5000018.5185
14.474266666666667 -7.166666666666667 3.8333333333333335 5000134.228
12.699056666666667 -7.3 3.8333333333333335 5000080.9717
12.699056666666667 -7.366666666666666 3.8333333333333335 5000080.9717
14.474266666666667 -7.5 3.8333333333333335 5000134.228
13.367 -7.533333333333333 3.8333333333333335 5000101.01
11.232286666666667 -7.733333333333333 3.8333333333333335 5000036.9686
16.666666666666668 -7.966666666666667 3.8333333333333335 5000200.0
12.699056666666667 -8.033333333333333 3.8333333333333335 5000080.9717
14.474266666666667 -8.066666666666666 3.8333333333333335 5000134.228
14.474266666666667 -8.1 3.8333333333333335 5000134.228
11.692046666666666 -8.266666666666667 3.8333333333333335 5000050.7614
10.798403333333333 -9.066666666666666 3.8333333333333335 5000023.9521
11.232286666666667 -9.366666666666667 3.8333333333333335 5000036.9686
10.4529 -9.433333333333334 3.8333333333333335 5000013.587
10.438306666666668 -9.466666666666667 3.8333333333333335 5000013.1492
16.666666666666668 -10.866666666666667 3.8333333333333335 5000200.0
11.043296666666667 -10.966666666666667 3.8333333333333335 5000031.2989
10.968993333333334 -11.4 3.8333333333333335 5000029.0698
10.56593 -13.6 3.8333333333333335 5000016.9779
10.54333 -13.633333333333333 3.8333333333333335 5000016.2999
10.54333 -13.666666666666666 3.8333333333333335 5000016.2999
10.54333 -13.7 3.8333333333333335 5000016.2999
14.474266666666667 2.3666666666666667 3.8 5000134.228
14.474266666666667 2.3333333333333335 3.8 5000134.228
14.474266666666667 2.2666666666666666 3.8 5000134.228
13.367 2.033333333333333 3.8 5000101.01
14.474266666666667 1.7333333333333334 3.8 5000134.228
16.666666666666668 1.4333333333333333 3.8 5000200.0
16.666666666666668 1.4 3.8 5000200.0
12.699056666666667 0.7333333333333333 3.8 5000080.9717
12.699056666666667 0.7 3.8 5000080.9717
14.474266666666667 0.43333333333333335 3.8 5000134.228
16.666666666666668 0.1 3.8 5000200.0
13.367 -0.06666666666666667 3.8 5000101.01
13.367 -0.1 3.8 5000101.01
13.367 -0.16666666666666666 3.8 5000101.01
13.367 -0.2 3.8 5000101.01
13.367 -0.26666666666666666 3.8 5000101.01
16.666666666666668 -0.4 3.8 5000200.0
16.666666666666668 -0.5333333333333333 3.8 5000200.0
14.474266666666667 -1.1333333333333333 3.8 5000134.228
12.699056666666667 -1.5666666666666667 3.8 5000080.9717
12.699056666666667 -1.6333333333333333 3.8 5000080.9717
13.367 -1.8333333333333333 3.8 5000101.01
13.367 -1.8666666666666667 3.8 5000101.01
14.474266666666667 -2.2 3.8 5000134.228
11.932366666666667 -2.433333333333333 3.8 5000057.971
11.932366666666667 -2.466666666666667 3.8 5000057.971
14.474266666666667 -2.933333333333333 3.8 5000134.228
13.367 -3.7 3.8 5000101.01
14.474266666666667 -4.8 3.8 5000134.228
14.474266666666667 -4.833333333333333 3.8 5000134.228
14.474266666666667 -5.1 3.8 5000134.228
13.367 -6.266666666666667 3.8 5000101.01
13.367 -6.333333333333333 3.8 5000101.01
13.367 -6.4 3.8 5000101.01
11.232286666666667 -6.5 3.8 5000036.9686
10.904566666666666 -6.6 3.8 5000027.137
10.64662 -6.766666666666667 3.8 5000019.3986
10.64662 -6.8 3.8 5000019.3986
12.699056666666667 -7.3 3.8 5000080.9717
14.474266666666667 -7.4 3.8 5000134.228
13.367 -7.5 3.8 5000101.01
13.367 -7.533333333333333 3.8 5000101.01
16.666666666666668 -7.833333333333333 3.8 5000200.0
16.666666666666668 -7.966666666666667 3.8 5000200.0
12.699056666666667 -8.033333333333333 3.8 5000080.9717
11.692046666666666 -8.066666666666666 3.8 5000050.7614
11.355013333333334 -8.833333333333334 3.8 5000040.6504
11.232286666666667 -9.333333333333334 3.8 5000036.9686
11.232286666666667 -9.366666666666667 3.8 5000036.9686
11.043296666666667 -10.966666666666667 3.8 5000031.2989
10.968993333333334 -11.4 3.8 5000029.0698
10.54333 -13.7 3.8 5000016.2999
10.522466666666666 -13.733333333333333 3.8 5000015.674
10.522466666666666 -13.766666666666667 3.8 5000015.674
14.474266666666667 2.3666666666666667 3.7666666666666666 5000134.228
14.474266666666667 2.3333333333333335 3.7666666666666666 5000134.228
13.367 2.033333333333333 3.7666666666666666 5000101.01
13.367 1.9666666666666666 3.7666666666666666 5000101.01
14.474266666666667 1.7333333333333334 3.7666666666666666 5000134.228
12.699056666666667 0.7333333333333333 3.7666666666666666 5000080.9717
12.699056666666667 0.7 3.7666666666666666 5000080.9717
13.367 -0.16666666666666666 3.7666666666666666 5000101.01
13.367 -0.2 3.7666666666666666 5000101.01
13.367 -0.26666666666666666 3.7666666666666666 5000101.01
16.666666666666668 -0.5333333333333333 3.7666666666666666 5000200.0
14.474266666666667 -1.1 3.7666666666666666 5000134.228
14.474266666666667 -1.1333333333333333 3.7666666666666666 5000134.228
12.699056666666667 -1.5666666666666667 3.7666666666666666 5000080.9717
13.367 -1.7 3.7666666666666666 5000101.01
13.367 -1.7333333333333334 3.7666666666666666 5000101.01
13.367 -1.7666666666666666 3.7666666666666666 5000101.01
13.367 -1.8 3.7666666666666666 5000101.01
14.474266666666667 -2.933333333333333 3.7666666666666666 5000134.228
13.367 -3.7333333333333334 3.7666666666666666 5000101.01
13.367 -4.866666666666666 3.7666666666666666 5000101.01
12.252253333333334 -5.233333333333333 3.7666666666666666 5000067.5676
13.367 -6.266666666666667 3.7666666666666666 5000101.01
13.367 -6.333333333333333 3.7666666666666666 5000101.01
13.367 -6.4 3.7666666666666666 5000101.01
11.355013333333334 -6.5 3.7666666666666666 5000040.6504
10.968993333333334 -6.6 3.7666666666666666 5000029.0698
10.64662 -6.766666666666667 3.7666666666666666 5000019.3986
10.64662 -6.8 3.7666666666666666 5000019.3986
14.474266666666667 -7.133333333333334 3.7666666666666666 5000134.228
14.474266666666667 -7.2 3.7666666666666666 5000134.228
13.367 -7.5 3.7666666666666666 5000101.01
11.355013333333334 -8.1 3.7666666666666666 5000040.6504
11.932366666666667 -8.766666666666667 3.7666666666666666 5000057.971
11.355013333333334 -8.833333333333334 3.7666666666666666 5000040.6504
11.232286666666667 -8.866666666666667 3.7666666666666666 5000036.9686
11.232286666666667 -9.333333333333334 3.7666666666666666 5000036.9686
11.232286666666667 -9.366666666666667 3.7666666666666666 5000036.9686
11.043296666666667 -10.966666666666667 3.7666666666666666 5000031.2989
10.968993333333334 -11.4 3.7666666666666666 5000029.0698
10.54333 -13.7 3.7666666666666666 5000016.2999
10.522466666666666 -13.733333333333333 3.7666666666666666 5000015.674
10.522466666666666 -13.766666666666667 3.7666666666666666 5000015.674
10.54333 -14.066666666666666 3.7666666666666666 5000016.2999
10.54333 -14.1 3.7666666666666666 5000016.2999
13.367 2.033333333333333 3.7333333333333334 5000101.01
13.367 1.9666666666666666 3.7333333333333334 5000101.01
14.474266666666667 1.7333333333333334 3.7333333333333334 5000134.228
12.699056666666667 1.0333333333333334 3.7333333333333334 5000080.9717
12.699056666666667 0.7333333333333333 3.7333333333333334 5000080.9717
12.699056666666667 0.7 3.7333333333333334 5000080.9717
12.699056666666667 0.5333333333333333 3.7333333333333334 5000080.9717
16.666666666666668 0.3 3.7333333333333334 5000200.0
14.474266666666667 -0.2 3.7333333333333334 5000134.228
16.666666666666668 -0.5 3.7333333333333334 5000200.0
16.666666666666668 -0.5333333333333333 3.7333333333333334 5000200.0
16.666666666666668 -0.6 3.7333333333333334 5000200.0
16.666666666666668 -0.7 3.7333333333333334 5000200.0
14.474266666666667 -1.1 3.7333333333333334 5000134.228
14.474266666666667 -1.1333333333333333 3.7333333333333334 5000134.228
12.699056666666667 -1.5666666666666667 3.7333333333333334 5000080.9717
13.367 -1.7 3.7333333333333334 5000101.01
13.367 -1.7333333333333334 3.7333333333333334 5000101.01
13.367 -1.7666666666666666 3.7333333333333334 5000101.01
13.367 -1.8 3.7333333333333334 5000101.01
11.043296666666667 -1.9333333333333333 3.7333333333333334 5000031.2989
11.043296666666667 -1.9666666666666666 3.7333333333333334 5000031.2989
13.367 -2.066666666666667 3.7333333333333334 5000101.01
13.367 -2.1 3.7333333333333334 5000101.01
14.474266666666667 -2.1666666666666665 3.7333333333333334 5000134.228
14.474266666666667 -2.933333333333333 3.7333333333333334 5000134.228
11.50489 -3.433333333333333 3.7333333333333334 5000045.1467
13.367 -3.566666666666667 3.7333333333333334 5000101.01
13.367 -3.7333333333333334 3.7333333333333334 5000101.01
11.932366666666667 -4.866666666666666 3.7333333333333334 5000057.971
13.367 -6.333333333333333 3.7333333333333334 5000101.01
13.367 -6.4 3.7333333333333334 5000101.01
10.968993333333334 -6.6 3.7333333333333334 5000029.0698
10.968993333333334 -6.633333333333334 3.7333333333333334 5000029.0698
10.678886666666667 -6.766666666666667 3.7333333333333334 5000020.3666
12.699056666666667 -7.333333333333333 3.7333333333333334 5000080.9717
10.197063666666667 -8.1 3.7333333333333334 5000005.91191
11.932366666666667 -8.766666666666667 3.7333333333333334 5000057.971
11.355013333333334 -8.866666666666667 3.7333333333333334 5000040.6504
11.355013333333334 -9.333333333333334 3.7333333333333334 5000040.6504
11.355013333333334 -9.366666666666667 3.7333333333333334 5000040.6504
11.043296666666667 -10.966666666666667 3.7333333333333334 5000031.2989
10.968993333333334 -11.4 3.7333333333333334 5000029.0698
10.54333 -13.733333333333333 3.7333333333333334 5000016.2999
10.54333 -14.066666666666666 3.7333333333333334 5000016.2999
10.54333 -14.1 3.7333333333333334 5000016.2999
14.474266666666667 1.7333333333333334 3.7 5000134.228
12.699056666666667 1.0333333333333334 3.7 5000080.9717
12.699056666666667 0.7333333333333333 3.7 5000080.9717
12.699056666666667 0.7 3.7 5000080.9717
12.699056666666667 0.5333333333333333 3.7 5000080.9717
16.666666666666668 0.4 3.7 5000200.0
16.666666666666668 0.3333333333333333 3.7 5000200.0
16.666666666666668 0.06666666666666667 3.7 5000200.0
16.666666666666668 -0.8333333333333334 3.7 5000200.0
14.474266666666667 -1.1333333333333333 3.7 5000134.228
12.699056666666667 -1.5666666666666667 3.7 5000080.9717
13.367 -1.8333333333333333 3.7 5000101.01
13.367 -2.066666666666667 3.7 5000101.01
13.367 -2.1333333333333333 3.7 5000101.01
14.474266666666667 -2.1666666666666665 3.7 5000134.228
12.699056666666667 -2.7666666666666666 3.7 5000080.9717
13.367 -3.566666666666667 3.7 5000101.01
13.367 -3.7333333333333334 3.7 5000101.01
12.252253333333334 -4.8 3.7 5000067.5676
13.367 -4.9 3.7 5000101.01
13.367 -6.333333333333333 3.7 5000101.01
11.50489 -6.5 3.7 5000045.1467
10.968993333333334 -6.6 3.7 5000029.0698
10.968993333333334 -6.633333333333334 3.7 5000029.0698
10.968993333333334 -6.666666666666667 3.7 5000029.0698
10.678886666666667 -6.766666666666667 3.7 5000020.3666
10.678886666666667 -6.8 3.7 5000020.3666
10.197063666666667 -8.1 3.7 5000005.91191
10.197063666666667 -8.133333333333333 3.7 5000005.91191
11.932366666666667 -8.266666666666667 3.7 5000057.971
11.355013333333334 -8.333333333333334 3.7 5000040.6504
11.932366666666667 -8.766666666666667 3.7 5000057.971
11.355013333333334 -8.866666666666667 3.7 5000040.6504
11.232286666666667 -9.333333333333334 3.7 5000036.9686
11.232286666666667 -9.366666666666667 3.7 5000036.9686
10.438306666666668 -9.466666666666667 3.7 5000013.1492
11.043296666666667 -10.966666666666667 3.7 5000031.2989
10.968993333333334 -11.4 3.7 5000029.0698
10.54333 -13.7 3.7 5000016.2999
10.54333 -13.733333333333333 3.7 5000016.2999
13.367 2.566666666666667 3.6666666666666665 5000101.01
12.699056666666667 1.0333333333333334 3.6666666666666665 5000080.9717
12.699056666666667 0.7333333333333333 3.6666666666666665 5000080.9717
12.699056666666667 0.7 3.6666666666666665 5000080.9717
12.699056666666667 0.5333333333333333 3.6666666666666665 5000080.9717
16.666666666666668 0.4 3.6666666666666665 5000200.0
16.666666666666668 0.3333333333333333 3.6666666666666665 5000200.0
16.666666666666668 0.3 3.6666666666666665 5000200.0
11.932366666666667 0.2 3.6666666666666665 5000057.971
16.666666666666668 0.06666666666666667 3.6666666666666665 5000200.0
14.474266666666667 -0.23333333333333334 3.6666666666666665 5000134.228
16.666666666666668 -0.8333333333333334 3.6666666666666665 5000200.0
12.699056666666667 -1.5666666666666667 3.6666666666666665 5000080.9717
13.367 -1.8333333333333333 3.6666666666666665 5000101.01
14.474266666666667 -2.1666666666666665 3.6666666666666665 5000134.228
14.474266666666667 -2.2666666666666666 3.6666666666666665 5000134.228
12.699056666666667 -2.7666666666666666 3.6666666666666665 5000080.9717
13.367 -3.7333333333333334 3.6666666666666665 5000101.01
12.699056666666667 -4.433333333333334 3.6666666666666665 5000080.9717
11.355013333333334 -4.533333333333333 3.6666666666666665 5000040.6504
11.355013333333334 -4.566666666666666 3.6666666666666665 5000040.6504
12.252253333333334 -4.8 3.6666666666666665 5000067.5676
11.932366666666667 -4.866666666666666 3.6666666666666665 5000057.971
13.367 -4.9 3.6666666666666665 5000101.01
13.367 -6.333333333333333 3.6666666666666665 5000101.01
11.50489 -6.5 3.6666666666666665 5000045.1467
10.968993333333334 -6.6 3.6666666666666665 5000029.0698
10.968993333333334 -6.633333333333334 3.6666666666666665 5000029.0698
10.968993333333334 -6.666666666666667 3.6666666666666665 5000029.0698
10.71454 -6.766666666666667 3.6666666666666665 5000021.4362
10.71454 -6.8 3.6666666666666665 5000021.4362
11.50489 -8.033333333333333 3.6666666666666665 5000045.1467
11.932366666666667 -8.266666666666667 3.6666666666666665 5000057.971
11.50489 -8.333333333333334 3.6666666666666665 5000045.1467
11.355013333333334 -8.366666666666667 3.6666666666666665 5000040.6504
11.932366666666667 -8.766666666666667 3.6666666666666665 5000057.971
11.355013333333334 -8.866666666666667 3.6666666666666665 5000040.6504
11.232286666666667 -9.333333333333334 3.6666666666666665 5000036.9686
11.232286666666667 -9.366666666666667 3.6666666666666665 5000036.9686
10.438306666666668 -9.466666666666667 3.6666666666666665 5000013.1492
11.043296666666667 -10.966666666666667 3.6666666666666665 5000031.2989
11.043296666666667 -11.4 3.6666666666666665 5000031.2989
10.54333 -13.7 3.6666666666666665 5000016.2999
10.54333 -13.733333333333333 3.6666666666666665 5000016.2999
14.474266666666667 2.566666666666667 3.6333333333333333 5000134.228
14.474266666666667 2.533333333333333 3.6333333333333333 5000134.228
14.474266666666667 2.1666666666666665 3.6333333333333333 5000134.228
14.474266666666667 1.7333333333333334 3.6333333333333333 5000134.228
10.186271666666666 0.8666666666666667 3.6333333333333333 5000005.58815
12.699056666666667 0.7333333333333333 3.6333333333333333 5000080.9717
12.699056666666667 0.5333333333333333 3.6333333333333333 5000080.9717
16.666666666666668 0.3333333333333333 3.6333333333333333 5000200.0
16.666666666666668 0.3 3.6333333333333333 5000200.0
11.932366666666667 0.23333333333333334 3.6333333333333333 5000057.971
11.932366666666667 0.2 3.6333333333333333 5000057.971
16.666666666666668 0.06666666666666667 3.6333333333333333 5000200.0
14.474266666666667 -0.2 3.6333333333333333 5000134.228
14.474266666666667 -0.8333333333333334 3.6333333333333333 5000134.228
12.699056666666667 -1.5666666666666667 3.6333333333333333 5000080.9717
12.699056666666667 -1.6333333333333333 3.6333333333333333 5000080.9717
13.367 -1.8333333333333333 3.6333333333333333 5000101.01
13.367 -2.033333333333333 3.6333333333333333 5000101.01
13.367 -2.066666666666667 3.6333333333333333 5000101.01
13.367 -2.1 3.6333333333333333 5000101.01
13.367 -3.7 3.6333333333333333 5000101.01
11.355013333333334 -4.566666666666666 3.6333333333333333 5000040.6504
11.692046666666666 -4.6 3.6333333333333333 5000050.7614
13.367 -4.666666666666667 3.6333333333333333 5000101.01
12.699056666666667 -4.733333333333333 3.6333333333333333 5000080.9717
12.252253333333334 -4.766666666666667 3.6333333333333333 5000067.5676
12.252253333333334 -4.8 3.6333333333333333 5000067.5676
11.692046666666666 -6.133333333333334 3.6333333333333333 5000050.7614
10.968993333333334 -6.6 3.6333333333333333 5000029.0698
10.968993333333334 -6.633333333333334 3.6333333333333333 5000029.0698
10.968993333333334 -6.666666666666667 3.6333333333333333 5000029.0698
10.904566666666666 -6.766666666666667 3.6333333333333333 5000027.137
10.904566666666666 -6.8 3.6333333333333333 5000027.137
14.474266666666667 -7.866666666666666 3.6333333333333333 5000134.228
11.50489 -8.033333333333333 3.6333333333333333 5000045.1467
11.932366666666667 -8.266666666666667 3.6333333333333333 5000057.971
11.692046666666666 -8.333333333333334 3.6333333333333333 5000050.7614
11.355013333333334 -8.366666666666667 3.6333333333333333 5000040.6504
11.355013333333334 -8.4 3.6333333333333333 5000040.6504
11.932366666666667 -8.766666666666667 3.6333333333333333 5000057.971
11.355013333333334 -8.866666666666667 3.6333333333333333 5000040.6504
11.232286666666667 -9.366666666666667 3.6333333333333333 5000036.9686
10.438306666666668 -9.466666666666667 3.6333333333333333 5000013.1492
11.043296666666667 -10.966666666666667 3.6333333333333333 5000031.2989
11.043296666666667 -11.4 3.6333333333333333 5000031.2989
10.54333 -13.7 3.6333333333333333 5000016.2999
10.54333 -13.733333333333333 3.6333333333333333 5000016.2999
10.4852 -13.833333333333334 3.6333333333333333 5000014.556
10.522466666666666 -14.1 3.6333333333333333 5000015.674
14.474266666666667 3.1666666666666665 3.6 5000134.228
14.474266666666667 3.033333333333333 3.6 5000134.228
14.474266666666667 2.566666666666667 3.6 5000134.228
14.474266666666667 2.533333333333333 3.6 5000134.228
14.474266666666667 2.1666666666666665 3.6 5000134.228
16.666666666666668 1.4333333333333333 3.6 5000200.0
14.474266666666667 1.4 3.6 5000134.228
12.699056666666667 0.7333333333333333 3.6 5000080.9717
12.699056666666667 0.7 3.6 5000080.9717
16.666666666666668 0.06666666666666667 3.6 5000200.0
14.474266666666667 -0.2 3.6 5000134.228
14.474266666666667 -0.8333333333333334 3.6 5000134.228
13.367 -1.8333333333333333 3.6 5000101.01
13.367 -2.033333333333333 3.6 5000101.01
13.367 -2.066666666666667 3.6 5000101.01
13.367 -2.1 3.6 5000101.01
12.699056666666667 -2.8 3.6 5000080.9717
13.367 -3.6 3.6 5000101.01
12.699056666666667 -3.9 3.6 5000080.9717
12.699056666666667 -3.933333333333333 3.6 5000080.9717
12.252253333333334 -4.466666666666667 3.6 5000067.5676
11.355013333333334 -4.566666666666666 3.6 5000040.6504
11.692046666666666 -4.6 3.6 5000050.7614
13.367 -4.666666666666667 3.6 5000101.01
12.699056666666667 -4.733333333333333 3.6 5000080.9717
12.252253333333334 -4.766666666666667 3.6 5000067.5676
11.692046666666666 -6.5 3.6 5000050.7614
11.043296666666667 -6.6 3.6 5000031.2989
11.043296666666667 -6.633333333333334 3.6 5000031.2989
10.904566666666666 -6.8 3.6 5000027.137
10.904566666666666 -6.833333333333333 3.6 5000027.137
10.295508333333334 -7.666666666666667 3.6 5000008.86525
14.474266666666667 -7.866666666666666 3.6 5000134.228
11.50489 -8.033333333333333 3.6 5000045.1467
11.50489 -8.066666666666666 3.6 5000045.1467
11.932366666666667 -8.266666666666667 3.6 5000057.971
11.692046666666666 -8.333333333333334 3.6 5000050.7614
11.355013333333334 -8.366666666666667 3.6 5000040.6504
11.932366666666667 -8.766666666666667 3.6 5000057.971
11.355013333333334 -8.866666666666667 3.6 5000040.6504
10.754146666666667 -9.1 3.6 5000022.6244
11.232286666666667 -9.366666666666667 3.6 5000036.9686
11.043296666666667 -10.966666666666667 3.6 5000031.2989
11.043296666666667 -11.4 3.6 5000031.2989
10.54333 -13.7 3.6 5000016.2999
10.54333 -13.733333333333333 3.6 5000016.2999
10.522466666666666 -14.066666666666666 3.6 5000015.674
10.522466666666666 -14.1 3.6 5000015.674
14.474266666666667 3.1666666666666665 3.566666666666667 5000134.228
14.474266666666667 3.033333333333333 3.566666666666667 5000134.228
14.474266666666667 2.7666666666666666 3.566666666666667 5000134.228
14.474266666666667 2.533333333333333 3.566666666666667 5000134.228
14.474266666666667 2.3 3.566666666666667 5000134.228
14.474266666666667 2.2666666666666666 3.566666666666667 5000134.228
14.474266666666667 1.4 3.566666666666667 5000134.228
14.474266666666667 1.3333333333333333 3.566666666666667 5000134.228
12.699056666666667 0.7333333333333333 3.566666666666667 5000080.9717
16.666666666666668 0.1 3.566666666666667 5000200.0
16.666666666666668 0.06666666666666667 3.566666666666667 5000200.0
14.474266666666667 -0.2 3.566666666666667 5000134.228
16.666666666666668 -0.3 3.566666666666667 5000200.0
14.474266666666667 -0.4 3.566666666666667 5000134.228
13.367 -0.6333333333333333 3.566666666666667 5000101.01
