VERSION .7
FIELDS x y z rgb
SIZE 4 4 4 4
TYPE F F F F
COUNT 1 1 1 1
WIDTH 1369
HEIGHT 1
VIEWPOINT 0 0 0 1 0 0 0
POINTS 1369
DATA ascii
7.298376 -2.5 -3.5 5.16396
7.259664000000001 -4.3 -3.5 5.09944
7.221906000000001 -4.78 -3.52 5.03651
7.221906000000001 -4.8 -3.52 5.03651
7.114037999999999 -4.86 -3.52 4.85673
7.221906000000001 -6.32 -3.52 5.03651
7.221906000000001 -6.34 -3.54 5.03651
7.149126 5.12 -3.56 4.91521
7.259664000000001 4.26 -3.56 5.09944
7.221906000000001 -4.5 -3.56 5.03651
7.079772 -4.6 -3.58 4.79962
7.338077999999999 -5.6 -3.58 5.23013
7.185072 4.6 -3.6 4.97512
7.259664000000001 3.96 -3.6 5.09944
7.338077999999999 -5.62 -3.6 5.23013
7.149126 -5.9 -3.6 4.91521
7.114037999999999 -5.92 -3.6 4.85673
7.114037999999999 -5.94 -3.6 4.85673
7.114037999999999 -5.96 -3.6 4.85673
7.079772 -5.98 -3.6 4.79962
7.221906000000001 4.2 -3.62 5.03651
7.259664000000001 3.98 -3.62 5.09944
7.259664000000001 3.96 -3.62 5.09944
7.259664000000001 3.94 -3.62 5.09944
7.259664000000001 -5.64 -3.62 5.09944
7.221906000000001 -5.66 -3.62 5.03651
7.221906000000001 -5.68 -3.62 5.03651
7.185072 -5.7 -3.62 4.97512
7.149126 -5.72 -3.62 4.91521
7.149126 -5.74 -3.62 4.91521
7.114037999999999 -5.76 -3.62 4.85673
7.114037999999999 -5.78 -3.62 4.85673
7.079772 -5.8 -3.62 4.79962
7.079772 -5.82 -3.62 4.79962
7.046298 -5.84 -3.62 4.74383
7.046298 -5.86 -3.62 4.74383
7.046298 -5.88 -3.62 4.74383
7.114037999999999 -5.92 -3.62 4.85673
7.114037999999999 -5.94 -3.62 4.85673
7.114037999999999 -5.96 -3.62 4.85673
7.079772 -5.98 -3.62 4.79962
7.013598 -6.0 -3.62 4.68933
7.221906000000001 4.2 -3.64 5.03651
7.221906000000001 4.18 -3.64 5.03651
7.221906000000001 4.16 -3.64 5.03651
7.185072 4.14 -3.64 4.97512
7.114037999999999 4.06 -3.64 4.85673
7.221906000000001 -5.68 -3.64 5.03651
7.185072 -5.7 -3.64 4.97512
7.149126 -5.72 -3.64 4.91521
7.149126 -5.74 -3.64 4.91521
7.114037999999999 -5.76 -3.64 4.85673
7.079772 -5.78 -3.64 4.79962
7.079772 -5.8 -3.64 4.79962
7.046298 -5.82 -3.64 4.74383
7.046298 -5.84 -3.64 4.74383
7.046298 -5.86 -3.64 4.74383
7.046298 -5.88 -3.64 4.74383
7.114037999999999 -5.9 -3.64 4.85673
7.114037999999999 -5.96 -3.64 4.85673
7.079772 -5.98 -3.64 4.79962
7.013598 -6.0 -3.64 4.68933
6.981642 -6.02 -3.64 4.63607
6.919854 -6.04 -3.64 4.53309
7.221906000000001 4.16 -3.66 5.03651
7.185072 4.14 -3.66 4.97512
7.185072 4.12 -3.66 4.97512
7.114037999999999 4.1 -3.66 4.85673
7.114037999999999 4.08 -3.66 4.85673
7.114037999999999 4.06 -3.66 4.85673
7.149126 -5.74 -3.66 4.91521
7.114037999999999 -5.76 -3.66 4.85673
7.079772 -5.78 -3.66 4.79962
7.079772 -5.8 -3.66 4.79962
7.046298 -5.84 -3.66 4.74383
7.046298 -5.86 -3.66 4.74383
7.046298 -5.88 -3.66 4.74383
6.9504 -6.02 -3.66 4.584
6.919854 -6.04 -3.66 4.53309
6.88998 -6.06 -3.66 4.4833
7.046298 -5.8 -3.68 4.74383
6.860754 -6.08 -3.68 4.43459
6.832158 -6.1 -3.68 4.38693
7.185072 3.94 -3.7 4.97512
7.185072 3.92 -3.7 4.97512
7.185072 3.9 -3.7 4.97512
6.804168 -6.12 -3.7 4.34028
7.079772 4.6 -3.72 4.79962
7.079772 4.58 -3.72 4.79962
7.149126 3.1 -3.76 4.91521
7.149126 3.08 -3.76 4.91521
7.149126 3.06 -3.76 4.91521
7.149126 3.04 -3.76 4.91521
7.149126 3.02 -3.76 4.91521
7.149126 3.0 -3.76 4.91521
7.149126 2.98 -3.76 4.91521
7.149126 2.96 -3.76 4.91521
7.149126 2.94 -3.76 4.91521
6.623754 -6.2 -3.76 4.03959
7.013598 4.4 -3.78 4.68933
7.013598 4.38 -3.78 4.68933
7.149126 3.1 -3.78 4.91521
7.149126 3.08 -3.78 4.91521
7.149126 3.06 -3.78 4.91521
7.149126 3.04 -3.78 4.91521
7.149126 3.02 -3.78 4.91521
7.149126 3.0 -3.78 4.91521
7.149126 2.98 -3.78 4.91521
7.013598 4.58 -3.82 4.68933
7.013598 -1.16 -3.82 4.68933
7.013598 -1.16 -3.84 4.68933
7.013598 -1.18 -3.84 4.68933
6.9504 -5.24 -3.84 4.584
6.9504 -5.26 -3.84 4.584
7.046298 4.1 -3.86 4.74383
6.9504 -5.36 -3.86 4.584
6.9504 -5.38 -3.86 4.584
6.860754 5.36 -3.9 4.43459
6.860754 5.36 -3.92 4.43459
7.013598 4.18 -3.92 4.68933
6.981642 4.14 -3.92 4.63607
7.013598 4.04 -3.92 4.68933
6.860754 -6.66 -3.92 4.43459
6.88998 4.44 -3.94 4.4833
6.9504 4.24 -3.94 4.584
6.981642 4.14 -3.94 4.63607
6.981642 4.12 -3.94 4.63607
6.981642 4.1 -3.94 4.63607
6.88998 4.48 -3.96 4.4833
6.88998 4.46 -3.96 4.4833
6.88998 4.44 -3.96 4.4833
6.88998 4.42 -3.96 4.4833
6.9504 4.26 -3.96 4.584
6.9504 4.22 -3.96 4.584
6.860754 -5.32 -3.96 4.43459
6.860754 -5.34 -3.96 4.43459
6.832158 -5.42 -3.96 4.38693
6.832158 -5.44 -3.96 4.38693
6.9504 4.26 -3.98 4.584
6.9504 4.24 -3.98 4.584
6.832158 -5.44 -3.98 4.38693
6.804168 5.28 -4.0 4.34028
6.804168 5.26 -4.0 4.34028
6.9504 4.24 -4.0 4.584
6.919854 4.22 -4.0 4.53309
6.981642 4.1 -4.0 4.63607
6.804168 5.26 -4.02 4.34028
6.832158 4.44 -4.02 4.38693
6.919854 4.22 -4.02 4.53309
6.919854 4.2 -4.02 4.53309
6.981642 4.08 -4.02 4.63607
6.832158 -2.92 -4.02 4.38693
6.832158 4.44 -4.04 4.38693
6.88998 4.28 -4.04 4.4833
6.88998 4.18 -4.04 4.4833
6.88998 4.16 -4.04 4.4833
6.776765999999999 5.12 -4.06 4.29461
6.860754 -0.9 -4.06 4.43459
6.776765999999999 4.64 -4.08 4.29461
6.88998 4.32 -4.08 4.4833
6.88998 4.3 -4.08 4.4833
6.88998 4.28 -4.08 4.4833
6.672695999999999 -5.84 -4.08 4.12116
6.804168 4.52 -4.1 4.34028
6.88998 4.3 -4.1 4.4833
6.88998 4.28 -4.1 4.4833
6.860754 4.26 -4.1 4.43459
6.860754 4.1 -4.1 4.43459
6.860754 4.08 -4.1 4.43459
6.672695999999999 -5.92 -4.1 4.12116
6.804168 4.52 -4.12 4.34028
6.804168 1.26 -4.12 4.34028
6.804168 1.24 -4.12 4.34028
6.776765999999999 -3.88 -4.12 4.29461
6.7499340000000005 4.42 -4.14 4.24989
6.860754 3.92 -4.14 4.43459
6.860754 3.88 -4.14 4.43459
6.776765999999999 -3.9 -4.14 4.29461
6.7499340000000005 4.42 -4.16 4.24989
6.7499340000000005 4.4 -4.16 4.24989
6.7499340000000005 4.38 -4.16 4.24989
6.860754 3.88 -4.16 4.43459
6.72366 -6.58 -4.16 4.2061
6.69792 -6.6 -4.16 4.1632
6.69792 -6.62 -4.16 4.1632
6.7499340000000005 4.4 -4.18 4.24989
6.69792 -6.62 -4.18 4.1632
6.69792 -6.64 -4.18 4.1632
6.7499340000000005 4.7 -4.2 4.24989
6.804168 4.3 -4.22 4.34028
6.804168 4.28 -4.22 4.34028
6.7499340000000005 -1.02 -4.22 4.24989
6.7499340000000005 4.66 -4.24 4.24989
6.804168 4.26 -4.24 4.34028
6.776765999999999 4.24 -4.24 4.29461
6.804168 4.1 -4.24 4.34028
6.7499340000000005 4.06 -4.24 4.24989
6.7499340000000005 -1.06 -4.24 4.24989
6.672695999999999 -5.8 -4.24 4.12116
6.672695999999999 -5.82 -4.24 4.12116
6.647982 -5.9 -4.24 4.07997
6.7499340000000005 4.06 -4.26 4.24989
6.7499340000000005 4.04 -4.26 4.24989
6.7499340000000005 4.02 -4.26 4.24989
6.647982 -5.98 -4.26 4.07997
6.647982 -6.0 -4.26 4.07997
6.647982 -6.2 -4.26 4.07997
6.776765999999999 4.14 -4.28 4.29461
6.776765999999999 4.12 -4.28 4.29461
6.776765999999999 3.94 -4.28 4.29461
6.647982 -6.28 -4.28 4.07997
6.647982 -6.3 -4.28 4.07997
6.647982 -6.32 -4.28 4.07997
6.647982 -6.38 -4.28 4.07997
6.647982 5.6 -4.3 4.07997
6.776765999999999 4.16 -4.3 4.29461
6.7499340000000005 4.14 -4.3 4.24989
6.7499340000000005 4.1 -4.3 4.24989
6.72366 4.08 -4.3 4.2061
6.72366 4.06 -4.3 4.2061
6.7499340000000005 4.04 -4.3 4.24989
6.647982 -3.82 -4.3 4.07997
6.647982 -6.3 -4.3 4.07997
6.623754 5.62 -4.32 4.03959
6.647982 5.6 -4.32 4.07997
6.647982 5.56 -4.32 4.07997
6.623754 4.72 -4.32 4.03959
6.623754 4.7 -4.32 4.03959
6.7499340000000005 4.18 -4.32 4.24989
6.776765999999999 4.16 -4.32 4.29461
6.7499340000000005 4.14 -4.32 4.24989
6.647982 -6.56 -4.32 4.07997
6.647982 5.52 -4.34 4.07997
6.623754 5.5 -4.34 4.03959
6.623754 5.04 -4.34 4.03959
6.623754 5.02 -4.34 4.03959
6.623754 4.68 -4.34 4.03959
6.623754 4.66 -4.34 4.03959
6.623754 4.58 -4.34 4.03959
6.623754 4.56 -4.34 4.03959
6.623754 4.52 -4.34 4.03959
6.623754 4.5 -4.34 4.03959
6.7499340000000005 4.14 -4.34 4.24989
6.72366 3.8 -4.34 4.2061
6.72366 3.78 -4.34 4.2061
6.623754 5.48 -4.36 4.03959
6.647982 5.46 -4.36 4.07997
6.623754 4.5 -4.36 4.03959
6.623754 -1.18 -4.36 4.03959
6.647982 5.46 -4.38 4.07997
6.647982 -1.1 -4.38 4.07997
6.623754 -1.14 -4.38 4.03959
6.623754 -1.16 -4.38 4.03959
6.623754 -1.18 -4.38 4.03959
6.623754 -2.44 -4.38 4.03959
6.623754 -2.46 -4.38 4.03959
6.623754 -6.6 -4.38 4.03959
6.623754 5.2 -4.4 4.03959
6.672695999999999 4.3 -4.4 4.12116
6.672695999999999 4.28 -4.4 4.12116
6.623754 -6.6 -4.4 4.03959
6.623754 -6.62 -4.4 4.03959
6.623754 4.44 -4.42 4.03959
6.672695999999999 4.28 -4.42 4.12116
6.672695999999999 4.26 -4.42 4.12116
6.647982 0.8 -4.42 4.07997
6.623754 4.44 -4.44 4.03959
6.647982 1.92 -4.44 4.07997
6.623754 -1.54 -4.44 4.03959
6.647982 1.92 -4.46 4.07997
6.647982 1.9 -4.46 4.07997
6.647982 1.88 -4.46 4.07997
6.647982 2.12 -4.48 4.07997
6.647982 2.04 -4.48 4.07997
6.647982 1.88 -4.48 4.07997
6.623754 4.08 -4.52 4.03959
6.623754 1.92 -4.54 4.03959
6.623754 2.18 -4.56 4.03959
6.623754 1.86 -4.56 4.03959
6.623754 1.88 -4.68 4.03959
6.623754 4.4 -5.02 4.03959
6.623754 4.42 -5.04 4.03959
1.32 -0.74 5000027.137
20.4822 -1.36 -0.74 5000027.137
15.83916 -1.42 -0.74 5000019.3986
15.83916 -1.44 -0.74 5000019.3986
15.83916 -1.46 -0.74 5000019.3986
12.3522 -1.58 -0.74 5000013.587
10.995 -1.7 -0.74 5000011.325
84.7368 -1.96 -0.74 5000134.228
14.386740000000001 -2.12 -0.74 5000016.9779
14.386740000000001 -2.14 -0.74 5000016.9779
12.3522 -2.24 -0.74 5000013.587
12.3522 -2.26 -0.74 5000013.587
13.25658 -2.44 -0.74 5000015.0943
13.979940000000001 -2.64 -0.74 5000016.2999
13.979940000000001 -2.66 -0.74 5000016.2999
13.6044 -2.68 -0.74 5000015.674
13.6044 -2.7 -0.74 5000015.674
12.933599999999998 -3.16 -0.74 5000014.556
12.63288 -3.18 -0.74 5000014.0548
12.63288 -3.2 -0.74 5000014.0548
12.3522 -3.22 -0.74 5000013.587
12.08952 -3.24 -0.74 5000013.1492
12.08952 -3.26 -0.74 5000013.1492
12.08952 -3.68 -0.74 5000013.1492
10.995 -5.36 -0.74 5000011.325
10.995 -5.38 -0.74 5000011.325
12.3522 -5.44 -0.74 5000013.587
12.63288 -5.46 -0.74 5000014.0548
12.3522 -5.48 -0.74 5000013.587
12.08952 -5.5 -0.74 5000013.1492
11.61198 -5.52 -0.74 5000012.3533
11.18892 -5.54 -0.74 5000011.6482
11.18892 -5.56 -0.74 5000011.6482
10.995 -5.58 -0.74 5000011.325
10.995 -5.6 -0.74 5000011.325
10.811580000000001 -5.62 -0.74 5000011.0193
10.637759999999998 -5.64 -0.74 5000010.7296
10.637759999999998 -5.66 -0.74 5000010.7296
10.995 -5.82 -0.74 5000011.325
10.995 -5.84 -0.74 5000011.325
10.995 -5.86 -0.74 5000011.325
10.811580000000001 -5.9 -0.74 5000011.0193
10.811580000000001 -5.92 -0.74 5000011.0193
10.811580000000001 -5.94 -0.74 5000011.0193
10.811580000000001 -5.96 -0.74 5000011.0193
11.18892 -6.1 -0.74 5000011.6482
10.995 -6.12 -0.74 5000011.325
10.995 -6.14 -0.74 5000011.325
15.83916 -6.4 -0.74 5000019.3986
15.83916 -6.42 -0.74 5000019.3986
15.83916 -6.44 -0.74 5000019.3986
15.3111 -6.46 -0.74 5000018.5185
14.386740000000001 -6.72 -0.74 5000016.9779
19.467180000000003 1.82 -0.76 5000025.4453
19.467180000000003 1.8 -0.76 5000025.4453
19.467180000000003 1.78 -0.76 5000025.4453
20.4822 0.02 -0.76 5000027.137
20.4822 0.0 -0.76 5000027.137
13.979940000000001 -0.2 -0.76 5000016.2999
24.53898 -0.22 -0.76 5000033.8983
52.78302 -0.5 -0.76 5000080.9717
22.97934 -0.72 -0.76 5000031.2989
17.06172 -0.84 -0.76 5000021.4362
12.63288 -0.98 -0.76 5000014.0548
12.63288 -1.0 -0.76 5000014.0548
21.64188 -1.18 -0.76 5000029.0698
20.4822 -1.32 -0.76 5000027.137
15.83916 -1.42 -0.76 5000019.3986
15.3111 -1.46 -0.76 5000018.5185
12.3522 -1.56 -0.76 5000013.587
12.3522 -1.58 -0.76 5000013.587
15.83916 -2.04 -0.76 5000019.3986
15.83916 -2.06 -0.76 5000019.3986
14.386740000000001 -2.12 -0.76 5000016.9779
12.3522 -2.22 -0.76 5000013.587
13.6044 -2.42 -0.76 5000015.674
13.25658 -2.44 -0.76 5000015.0943
13.979940000000001 -2.66 -0.76 5000016.2999
13.6044 -2.68 -0.76 5000015.674
13.6044 -2.7 -0.76 5000015.674
13.25658 -2.72 -0.76 5000015.0943
12.933599999999998 -3.12 -0.76 5000014.556
12.933599999999998 -3.14 -0.76 5000014.556
12.63288 -3.16 -0.76 5000014.0548
12.63288 -3.18 -0.76 5000014.0548
12.3522 -3.2 -0.76 5000013.587
11.394240000000002 -4.54 -0.76 5000011.9904
11.18892 -4.56 -0.76 5000011.6482
11.18892 -4.58 -0.76 5000011.6482
11.18892 -4.62 -0.76 5000011.6482
10.811580000000001 -5.26 -0.76 5000011.0193
10.995 -5.36 -0.76 5000011.325
10.995 -5.38 -0.76 5000011.325
10.995 -5.4 -0.76 5000011.325
11.18892 -5.56 -0.76 5000011.6482
10.995 -5.58 -0.76 5000011.325
10.995 -5.6 -0.76 5000011.325
10.811580000000001 -5.62 -0.76 5000011.0193
10.637759999999998 -5.64 -0.76 5000010.7296
10.637759999999998 -5.66 -0.76 5000010.7296
10.637759999999998 -5.68 -0.76 5000010.7296
10.995 -5.84 -0.76 5000011.325
10.995 -5.86 -0.76 5000011.325
10.995 -5.92 -0.76 5000011.325
10.995 -5.94 -0.76 5000011.325
10.811580000000001 -5.96 -0.76 5000011.0193
12.63288 -6.02 -0.76 5000014.0548
12.63288 -6.04 -0.76 5000014.0548
10.995 -6.1 -0.76 5000011.325
10.995 -6.12 -0.76 5000011.325
10.995 -6.14 -0.76 5000011.325
10.995 -6.2 -0.76 5000011.325
10.995 -6.22 -0.76 5000011.325
10.995 -6.24 -0.76 5000011.325
18.57126 -6.58 -0.76 5000023.9521
18.57126 -6.6 -0.76 5000023.9521
14.82888 -6.66 -0.76 5000017.7148
14.386740000000001 -6.7 -0.76 5000016.9779
14.386740000000001 -6.72 -0.76 5000016.9779
14.386740000000001 -6.74 -0.76 5000016.9779
19.467180000000003 1.8 -0.78 5000025.4453
19.467180000000003 1.78 -0.78 5000025.4453
22.97934 -0.2 -0.78 5000031.2989
18.57126 -0.3 -0.78 5000023.9521
18.57126 -0.32 -0.78 5000023.9521
18.57126 -0.34 -0.78 5000023.9521
14.82888 -0.4 -0.78 5000017.7148
14.82888 -0.42 -0.78 5000017.7148
52.78302 -0.54 -0.78 5000080.9717
38.9826 -0.62 -0.78 5000057.971
24.53898 -0.72 -0.78 5000033.8983
17.06172 -0.82 -0.78 5000021.4362
17.06172 -0.84 -0.78 5000021.4362
12.63288 -1.0 -0.78 5000014.0548
12.63288 -1.02 -0.78 5000014.0548
84.7368 -1.12 -0.78 5000134.228
44.74056 -1.18 -0.78 5000067.5676
44.74056 -1.2 -0.78 5000067.5676
22.97934 -1.3 -0.78 5000031.2989
20.4822 -1.32 -0.78 5000027.137
15.83916 -1.42 -0.78 5000019.3986
15.83916 -2.04 -0.78 5000019.3986
15.83916 -2.06 -0.78 5000019.3986
14.82888 -2.08 -0.78 5000017.7148
14.386740000000001 -2.1 -0.78 5000016.9779
14.386740000000001 -2.12 -0.78 5000016.9779
12.3522 -2.2 -0.78 5000013.587
13.25658 -3.1 -0.78 5000015.0943
12.933599999999998 -3.12 -0.78 5000014.556
12.933599999999998 -3.14 -0.78 5000014.556
12.63288 -3.16 -0.78 5000014.0548
12.63288 -3.18 -0.78 5000014.0548
10.995 -4.04 -0.78 5000011.325
10.811580000000001 -5.4 -0.78 5000011.0193
10.637759999999998 -5.64 -0.78 5000010.7296
10.811580000000001 -5.92 -0.78 5000011.0193
10.811580000000001 -5.94 -0.78 5000011.0193
10.811580000000001 -5.96 -0.78 5000011.0193
10.995 -6.12 -0.78 5000011.325
10.995 -6.14 -0.78 5000011.325
10.995 -6.16 -0.78 5000011.325
10.995 -6.2 -0.78 5000011.325
10.995 -6.22 -0.78 5000011.325
10.995 -6.24 -0.78 5000011.325
10.316220000000001 -6.26 -0.78 5000010.1937
10.316220000000001 -6.28 -0.78 5000010.1937
10.025244 -6.3 -0.78 5000009.70874
10.025244 -6.32 -0.78 5000009.70874
10.025244 -6.34 -0.78 5000009.70874
14.82888 -6.66 -0.78 5000017.7148
19.467180000000003 -0.22 -0.8 5000025.4453
19.467180000000003 -0.24 -0.8 5000025.4453
18.57126 -0.3 -0.8 5000023.9521
18.57126 -0.32 -0.8 5000023.9521
14.82888 -0.4 -0.8 5000017.7148
52.78302 -0.5 -0.8 5000080.9717
52.78302 -0.52 -0.8 5000080.9717
38.9826 -0.62 -0.8 5000057.971
24.53898 -0.72 -0.8 5000033.8983
17.06172 -0.8 -0.8 5000021.4362
17.06172 -0.82 -0.8 5000021.4362
44.74056 -1.2 -0.8 5000067.5676
22.97934 -1.26 -0.8 5000031.2989
22.97934 -1.3 -0.8 5000031.2989
21.64188 -1.32 -0.8 5000029.0698
15.3111 -1.44 -0.8 5000018.5185
15.3111 -1.46 -0.8 5000018.5185
15.3111 -1.48 -0.8 5000018.5185
124.19999999999999 -1.84 -0.8 5000200.0
13.979940000000001 -2.3 -0.8 5000016.2999
13.979940000000001 -2.32 -0.8 5000016.2999
12.63288 -3.16 -0.8 5000014.0548
13.25658 -3.38 -0.8 5000015.0943
12.933599999999998 -3.4 -0.8 5000014.556
12.3522 -3.42 -0.8 5000013.587
12.3522 -3.44 -0.8 5000013.587
12.3522 -3.46 -0.8 5000013.587
11.843340000000001 -3.92 -0.8 5000012.7389
11.843340000000001 -3.94 -0.8 5000012.7389
11.843340000000001 -3.96 -0.8 5000012.7389
11.843340000000001 -3.98 -0.8 5000012.7389
10.995 -4.04 -0.8 5000011.325
10.995 -4.06 -0.8 5000011.325
11.61198 -4.48 -0.8 5000012.3533
11.394240000000002 -4.5 -0.8 5000011.9904
11.394240000000002 -4.52 -0.8 5000011.9904
11.18892 -4.54 -0.8 5000011.6482
10.811580000000001 -5.22 -0.8 5000011.0193
10.811580000000001 -5.92 -0.8 5000011.0193
17.06172 4.12 -0.82 5000021.4362
19.467180000000003 -0.22 -0.82 5000025.4453
19.467180000000003 -0.24 -0.82 5000025.4453
18.57126 -0.3 -0.82 5000023.9521
18.57126 -0.32 -0.82 5000023.9521
14.82888 -0.38 -0.82 5000017.7148
14.82888 -0.4 -0.82 5000017.7148
38.9826 -0.62 -0.82 5000057.971
38.9826 -0.64 -0.82 5000057.971
17.06172 -0.82 -0.82 5000021.4362
22.97934 -1.26 -0.82 5000031.2989
22.97934 -1.3 -0.82 5000031.2989
22.97934 -1.32 -0.82 5000031.2989
15.83916 -1.44 -0.82 5000019.3986
15.83916 -1.46 -0.82 5000019.3986
15.3111 -1.48 -0.82 5000018.5185
13.979940000000001 -2.3 -0.82 5000016.2999
13.979940000000001 -2.32 -0.82 5000016.2999
13.979940000000001 -2.34 -0.82 5000016.2999
13.25658 -2.4 -0.82 5000015.0943
13.979940000000001 -2.52 -0.82 5000016.2999
13.25658 -2.54 -0.82 5000015.0943
10.637759999999998 -2.58 -0.82 5000010.7296
14.386740000000001 -2.86 -0.82 5000016.9779
13.979940000000001 -2.9 -0.82 5000016.2999
13.6044 -2.92 -0.82 5000015.674
13.6044 -2.94 -0.82 5000015.674
13.25658 -2.96 -0.82 5000015.0943
12.3522 -3.42 -0.82 5000013.587
12.3522 -3.44 -0.82 5000013.587
12.3522 -3.46 -0.82 5000013.587
9.637241999999999 -3.52 -0.82 5000009.06207
9.637241999999999 -3.54 -0.82 5000009.06207
11.843340000000001 -3.94 -0.82 5000012.7389
11.843340000000001 -3.96 -0.82 5000012.7389
11.843340000000001 -3.98 -0.82 5000012.7389
10.995 -4.04 -0.82 5000011.325
11.394240000000002 -4.52 -0.82 5000011.9904
11.394240000000002 -4.54 -0.82 5000011.9904
11.18892 -4.56 -0.82 5000011.6482
10.472879999999998 -4.62 -0.82 5000010.4548
10.472879999999998 -4.64 -0.82 5000010.4548
10.472879999999998 -4.66 -0.82 5000010.4548
10.316220000000001 -4.68 -0.82 5000010.1937
10.811580000000001 -5.2 -0.82 5000011.0193
10.811580000000001 -5.22 -0.82 5000011.0193
10.995 -5.54 -0.82 5000011.325
10.995 -5.56 -0.82 5000011.325
10.995 -6.12 -0.82 5000011.325
10.995 -6.14 -0.82 5000011.325
10.995 -6.16 -0.82 5000011.325
19.467180000000003 -0.22 -0.84 5000025.4453
19.467180000000003 -0.24 -0.84 5000025.4453
19.467180000000003 -0.26 -0.84 5000025.4453
14.82888 -0.38 -0.84 5000017.7148
14.82888 -0.4 -0.84 5000017.7148
22.97934 -0.72 -0.84 5000031.2989
17.06172 -0.82 -0.84 5000021.4362
17.06172 -0.84 -0.84 5000021.4362
13.6044 -0.94 -0.84 5000015.674
22.97934 -1.3 -0.84 5000031.2989
22.97934 -1.32 -0.84 5000031.2989
15.83916 -1.44 -0.84 5000019.3986
15.83916 -1.46 -0.84 5000019.3986
15.3111 -1.48 -0.84 5000018.5185
21.64188 -2.14 -0.84 5000029.0698
13.979940000000001 -2.3 -0.84 5000016.2999
13.979940000000001 -2.32 -0.84 5000016.2999
13.979940000000001 -2.34 -0.84 5000016.2999
13.6044 -2.36 -0.84 5000015.674
12.63288 -2.4 -0.84 5000014.0548
10.637759999999998 -2.58 -0.84 5000010.7296
10.637759999999998 -2.6 -0.84 5000010.7296
10.637759999999998 -2.62 -0.84 5000010.7296
34.65684 -2.7 -0.84 5000050.7614
13.979940000000001 -2.9 -0.84 5000016.2999
13.6044 -2.92 -0.84 5000015.674
13.6044 -2.94 -0.84 5000015.674
13.25658 -2.96 -0.84 5000015.0943
12.933599999999998 -3.08 -0.84 5000014.556
12.3522 -3.24 -0.84 5000013.587
12.3522 -3.26 -0.84 5000013.587
12.3522 -3.44 -0.84 5000013.587
12.3522 -3.46 -0.84 5000013.587
11.18892 -4.98 -0.84 5000011.6482
10.995 -5.34 -0.84 5000011.325
10.995 -5.36 -0.84 5000011.325
10.995 -5.38 -0.84 5000011.325
10.995 -5.4 -0.84 5000011.325
10.811580000000001 -5.42 -0.84 5000011.0193
10.637759999999998 -5.46 -0.84 5000010.7296
10.995 -5.54 -0.84 5000011.325
10.995 -5.56 -0.84 5000011.325
10.472879999999998 -5.62 -0.84 5000010.4548
10.472879999999998 -5.64 -0.84 5000010.4548
10.995 -6.12 -0.84 5000011.325
10.995 -6.14 -0.84 5000011.325
10.995 -6.16 -0.84 5000011.325
17.06172 -6.24 -0.84 5000021.4362
14.82888 -6.3 -0.84 5000017.7148
14.82888 -6.32 -0.84 5000017.7148
18.57126 1.48 -0.86 5000023.9521
84.7368 -0.56 -0.86 5000134.228
22.97934 -0.72 -0.86 5000031.2989
22.97934 -0.74 -0.86 5000031.2989
17.06172 -0.8 -0.86 5000021.4362
17.06172 -0.82 -0.86 5000021.4362
17.06172 -0.84 -0.86 5000021.4362
13.6044 -0.94 -0.86 5000015.674
38.9826 -1.04 -0.86 5000057.971
38.9826 -1.06 -0.86 5000057.971
11.18892 -1.12 -0.86 5000011.6482
22.97934 -1.3 -0.86 5000031.2989
22.97934 -1.32 -0.86 5000031.2989
15.83916 -1.42 -0.86 5000019.3986
15.83916 -1.44 -0.86 5000019.3986
13.979940000000001 -2.2 -0.86 5000016.2999
13.6044 -2.36 -0.86 5000015.674
12.933599999999998 -3.08 -0.86 5000014.556
12.933599999999998 -3.1 -0.86 5000014.556
12.933599999999998 -3.18 -0.86 5000014.556
12.63288 -3.2 -0.86 5000014.0548
12.3522 -3.22 -0.86 5000013.587
12.3522 -3.24 -0.86 5000013.587
12.3522 -3.32 -0.86 5000013.587
12.3522 -3.34 -0.86 5000013.587
12.3522 -3.36 -0.86 5000013.587
11.394240000000002 -4.96 -0.86 5000011.9904
10.811580000000001 -5.04 -0.86 5000011.0193
10.995 -5.36 -0.86 5000011.325
10.995 -5.38 -0.86 5000011.325
10.995 -6.14 -0.86 5000011.325
14.82888 -6.3 -0.86 5000017.7148
14.82888 -6.32 -0.86 5000017.7148
14.386740000000001 -6.42 -0.86 5000016.9779
14.386740000000001 -6.44 -0.86 5000016.9779
18.57126 1.44 -0.88 5000023.9521
18.57126 1.42 -0.88 5000023.9521
84.7368 -0.56 -0.88 5000134.228
21.64188 -0.72 -0.88 5000029.0698
21.64188 -0.74 -0.88 5000029.0698
17.06172 -0.8 -0.88 5000021.4362
17.06172 -0.82 -0.88 5000021.4362
22.97934 -1.3 -0.88 5000031.2989
22.97934 -1.32 -0.88 5000031.2989
15.83916 -1.42 -0.88 5000019.3986
15.83916 -1.44 -0.88 5000019.3986
8.024094 -1.56 -0.88 5000006.37349
8.024094 -1.58 -0.88 5000006.37349
13.979940000000001 -2.18 -0.88 5000016.2999
13.979940000000001 -2.2 -0.88 5000016.2999
13.979940000000001 -2.24 -0.88 5000016.2999
13.979940000000001 -2.26 -0.88 5000016.2999
13.979940000000001 -2.3 -0.88 5000016.2999
13.6044 -2.38 -0.88 5000015.674
13.979940000000001 -2.82 -0.88 5000016.2999
13.979940000000001 -2.84 -0.88 5000016.2999
12.933599999999998 -3.08 -0.88 5000014.556
12.933599999999998 -3.14 -0.88 5000014.556
12.933599999999998 -3.16 -0.88 5000014.556
12.63288 -3.18 -0.88 5000014.0548
10.995 -3.38 -0.88 5000011.325
11.394240000000002 -4.94 -0.88 5000011.9904
11.394240000000002 -4.96 -0.88 5000011.9904
10.811580000000001 -5.02 -0.88 5000011.0193
11.18892 -5.08 -0.88 5000011.6482
11.18892 -5.1 -0.88 5000011.6482
10.995 -5.16 -0.88 5000011.325
14.386740000000001 -6.42 -0.88 5000016.9779
14.386740000000001 -6.44 -0.88 5000016.9779
13.979940000000001 -6.52 -0.88 5000016.2999
13.979940000000001 -6.54 -0.88 5000016.2999
14.82888 -6.7 -0.88 5000017.7148
14.386740000000001 -6.74 -0.88 5000016.9779
17.77464 1.38 -0.9 5000022.6244
17.77464 1.36 -0.9 5000022.6244
17.06172 1.34 -0.9 5000021.4362
17.06172 -0.8 -0.9 5000021.4362
17.06172 -0.82 -0.9 5000021.4362
38.9826 -1.08 -0.9 5000057.971
22.97934 -1.3 -0.9 5000031.2989
21.64188 -1.32 -0.9 5000029.0698
15.83916 -1.42 -0.9 5000019.3986
15.83916 -1.44 -0.9 5000019.3986
34.65684 -2.0 -0.9 5000050.7614
34.65684 -2.02 -0.9 5000050.7614
13.979940000000001 -2.18 -0.9 5000016.2999
13.979940000000001 -2.2 -0.9 5000016.2999
13.25658 -2.26 -0.9 5000015.0943
13.979940000000001 -2.3 -0.9 5000016.2999
13.979940000000001 -2.64 -0.9 5000016.2999
13.979940000000001 -2.66 -0.9 5000016.2999
13.979940000000001 -2.82 -0.9 5000016.2999
13.979940000000001 -2.84 -0.9 5000016.2999
12.933599999999998 -3.14 -0.9 5000014.556
12.933599999999998 -3.16 -0.9 5000014.556
11.61198 -3.26 -0.9 5000012.3533
11.18892 -4.6 -0.9 5000011.6482
11.394240000000002 -4.92 -0.9 5000011.9904
11.18892 -5.1 -0.9 5000011.6482
11.18892 -5.12 -0.9 5000011.6482
14.386740000000001 -6.62 -0.9 5000016.9779
14.386740000000001 -6.74 -0.9 5000016.9779
17.06172 1.32 -0.92 5000021.4362
17.06172 1.3 -0.92 5000021.4362
17.06172 1.28 -0.92 5000021.4362
19.467180000000003 -0.74 -0.92 5000025.4453
18.57126 -0.76 -0.92 5000023.9521
22.97934 -1.28 -0.92 5000031.2989
21.64188 -1.3 -0.92 5000029.0698
20.4822 -1.32 -0.92 5000027.137
18.57126 -1.36 -0.92 5000023.9521
18.57126 -1.38 -0.92 5000023.9521
15.83916 -1.44 -0.92 5000019.3986
15.83916 -1.46 -0.92 5000019.3986
34.65684 -2.02 -0.92 5000050.7614
31.28802 -2.04 -0.92 5000045.1467
28.590239999999998 -2.06 -0.92 5000040.6504
26.38116 -2.08 -0.92 5000036.9686
26.38116 -2.1 -0.92 5000036.9686
13.979940000000001 -2.18 -0.92 5000016.2999
13.6044 -2.36 -0.92 5000015.674
13.6044 -2.38 -0.92 5000015.674
12.933599999999998 -3.12 -0.92 5000014.556
12.933599999999998 -3.14 -0.92 5000014.556
11.843340000000001 -3.22 -0.92 5000012.7389
11.61198 -3.24 -0.92 5000012.3533
11.394240000000002 -4.92 -0.92 5000011.9904
11.18892 -6.28 -0.92 5000011.6482
11.18892 -6.3 -0.92 5000011.6482
14.386740000000001 -6.66 -0.92 5000016.9779
17.06172 1.26 -0.94 5000021.4362
17.06172 1.24 -0.94 5000021.4362
18.57126 -0.76 -0.94 5000023.9521
21.64188 -1.3 -0.94 5000029.0698
20.4822 -1.32 -0.94 5000027.137
18.57126 -1.36 -0.94 5000023.9521
15.83916 -1.44 -0.94 5000019.3986
15.83916 -1.46 -0.94 5000019.3986
15.3111 -1.48 -0.94 5000018.5185
26.38116 -2.08 -0.94 5000036.9686
26.38116 -2.1 -0.94 5000036.9686
13.979940000000001 -2.18 -0.94 5000016.2999
13.979940000000001 -2.2 -0.94 5000016.2999
13.979940000000001 -2.36 -0.94 5000016.2999
13.979940000000001 -2.38 -0.94 5000016.2999
12.933599999999998 -3.04 -0.94 5000014.556
12.933599999999998 -3.12 -0.94 5000014.556
12.933599999999998 -3.14 -0.94 5000014.556
11.843340000000001 -3.2 -0.94 5000012.7389
11.61198 -3.22 -0.94 5000012.3533
11.394240000000002 -4.84 -0.94 5000011.9904
11.18892 -6.28 -0.94 5000011.6482
11.18892 -6.3 -0.94 5000011.6482
10.995 -6.34 -0.94 5000011.325
13.979940000000001 -6.36 -0.94 5000016.2999
17.06172 1.22 -0.96 5000021.4362
17.06172 1.2 -0.96 5000021.4362
20.4822 -1.32 -0.96 5000027.137
19.467180000000003 -1.34 -0.96 5000025.4453
15.3111 -1.44 -0.96 5000018.5185
15.3111 -1.46 -0.96 5000018.5185
11.18892 -1.66 -0.96 5000011.6482
11.18892 -1.68 -0.96 5000011.6482
26.38116 -2.1 -0.96 5000036.9686
13.979940000000001 -2.18 -0.96 5000016.2999
13.979940000000001 -2.36 -0.96 5000016.2999
13.979940000000001 -2.38 -0.96 5000016.2999
11.394240000000002 -2.52 -0.96 5000011.9904
11.394240000000002 -2.54 -0.96 5000011.9904
11.394240000000002 -2.56 -0.96 5000011.9904
12.933599999999998 -3.04 -0.96 5000014.556
10.995 -4.64 -0.96 5000011.325
10.995 -4.66 -0.96 5000011.325
12.63288 -4.7 -0.96 5000014.0548
12.63288 -4.72 -0.96 5000014.0548
10.995 -4.92 -0.96 5000011.325
10.995 -4.94 -0.96 5000011.325
11.18892 -6.28 -0.96 5000011.6482
11.18892 -6.3 -0.96 5000011.6482
15.3111 3.74 -0.98 5000018.5185
17.06172 -0.16 -0.98 5000021.4362
15.83916 -0.18 -0.98 5000019.3986
19.467180000000003 -1.34 -0.98 5000025.4453
16.419959999999996 -1.38 -0.98 5000020.3666
15.83916 -1.4 -0.98 5000019.3986
15.83916 -1.42 -0.98 5000019.3986
15.3111 -1.44 -0.98 5000018.5185
11.18892 -1.68 -0.98 5000011.6482
11.18892 -1.7 -0.98 5000011.6482
31.28802 -2.0 -0.98 5000045.1467
13.979940000000001 -2.18 -0.98 5000016.2999
13.979940000000001 -2.22 -0.98 5000016.2999
12.933599999999998 -2.24 -0.98 5000014.556
14.386740000000001 -2.3 -0.98 5000016.9779
13.6044 -2.8 -0.98 5000015.674
13.6044 -2.82 -0.98 5000015.674
11.18892 -4.58 -0.98 5000011.6482
11.18892 -4.6 -0.98 5000011.6482
10.995 -4.62 -0.98 5000011.325
10.995 -4.64 -0.98 5000011.325
10.995 -4.66 -0.98 5000011.325
12.63288 -4.72 -0.98 5000014.0548
12.63288 -4.74 -0.98 5000014.0548
12.3522 -4.76 -0.98 5000013.587
11.394240000000002 -4.78 -0.98 5000011.9904
11.18892 -4.8 -0.98 5000011.6482
10.811580000000001 -4.9 -0.98 5000011.0193
10.995 -4.92 -0.98 5000011.325
10.995 -4.94 -0.98 5000011.325
10.811580000000001 -5.46 -0.98 5000011.0193
10.811580000000001 -5.48 -0.98 5000011.0193
10.995 -5.58 -0.98 5000011.325
10.811580000000001 -5.6 -0.98 5000011.0193
10.811580000000001 -5.62 -0.98 5000011.0193
10.811580000000001 -5.64 -0.98 5000011.0193
11.18892 -6.28 -0.98 5000011.6482
15.3111 3.74 -1.0 5000018.5185
17.06172 -0.12 -1.0 5000021.4362
17.06172 -0.14 -1.0 5000021.4362
17.06172 -0.16 -1.0 5000021.4362
15.83916 -0.18 -1.0 5000019.3986
18.57126 -1.3 -1.0 5000023.9521
18.57126 -1.32 -1.0 5000023.9521
15.83916 -1.4 -1.0 5000019.3986
15.83916 -1.42 -1.0 5000019.3986
15.83916 -1.44 -1.0 5000019.3986
12.3522 -1.54 -1.0 5000013.587
12.3522 -1.56 -1.0 5000013.587
12.3522 -1.58 -1.0 5000013.587
21.64188 -2.12 -1.0 5000029.0698
13.979940000000001 -2.14 -1.0 5000016.2999
13.979940000000001 -2.18 -1.0 5000016.2999
14.386740000000001 -2.3 -1.0 5000016.9779
13.979940000000001 -2.32 -1.0 5000016.2999
13.6044 -2.82 -1.0 5000015.674
12.63288 -3.2 -1.0 5000014.0548
13.6044 -3.26 -1.0 5000015.674
12.3522 -3.34 -1.0 5000013.587
12.3522 -3.36 -1.0 5000013.587
11.394240000000002 -4.54 -1.0 5000011.9904
11.394240000000002 -4.56 -1.0 5000011.9904
11.18892 -4.58 -1.0 5000011.6482
11.18892 -4.6 -1.0 5000011.6482
10.995 -4.62 -1.0 5000011.325
11.394240000000002 -4.78 -1.0 5000011.9904
11.18892 -4.8 -1.0 5000011.6482
11.18892 -4.82 -1.0 5000011.6482
10.995 -4.84 -1.0 5000011.325
10.811580000000001 -4.94 -1.0 5000011.0193
10.811580000000001 -5.48 -1.0 5000011.0193
10.995 -5.58 -1.0 5000011.325
10.811580000000001 -5.6 -1.0 5000011.0193
10.811580000000001 -5.62 -1.0 5000011.0193
14.386740000000001 -6.74 -1.0 5000016.9779
15.3111 3.74 -1.02 5000018.5185
16.419959999999996 -1.32 -1.02 5000020.3666
16.419959999999996 -1.34 -1.02 5000020.3666
12.3522 -1.54 -1.02 5000013.587
12.3522 -1.56 -1.02 5000013.587
12.3522 -1.58 -1.02 5000013.587
13.979940000000001 -2.18 -1.02 5000016.2999
13.979940000000001 -2.3 -1.02 5000016.2999
13.979940000000001 -2.32 -1.02 5000016.2999
12.63288 -3.18 -1.02 5000014.0548
12.63288 -3.2 -1.02 5000014.0548
13.25658 -3.26 -1.02 5000015.0943
13.6044 -3.28 -1.02 5000015.674
12.3522 -3.36 -1.02 5000013.587
11.394240000000002 -4.52 -1.02 5000011.9904
11.394240000000002 -4.54 -1.02 5000011.9904
11.394240000000002 -4.56 -1.02 5000011.9904
11.18892 -4.58 -1.02 5000011.6482
11.18892 -4.82 -1.02 5000011.6482
10.995 -4.84 -1.02 5000011.325
10.995 -4.86 -1.02 5000011.325
11.18892 -6.24 -1.02 5000011.6482
11.18892 -6.26 -1.02 5000011.6482
11.18892 -6.28 -1.02 5000011.6482
14.386740000000001 4.48 -1.04 5000016.9779
15.83916 -1.32 -1.04 5000019.3986
15.83916 -1.34 -1.04 5000019.3986
15.83916 -1.36 -1.04 5000019.3986
12.3522 -1.58 -1.04 5000013.587
20.4822 -2.0 -1.04 5000027.137
20.4822 -2.02 -1.04 5000027.137
19.467180000000003 -2.18 -1.04 5000025.4453
15.83916 -2.22 -1.04 5000019.3986
16.419959999999996 -2.24 -1.04 5000020.3666
13.979940000000001 -2.32 -1.04 5000016.2999
13.6044 -2.38 -1.04 5000015.674
19.467180000000003 -3.06 -1.04 5000025.4453
12.63288 -3.2 -1.04 5000014.0548
12.63288 -3.22 -1.04 5000014.0548
13.25658 -3.3 -1.04 5000015.0943
12.3522 -3.38 -1.04 5000013.587
11.394240000000002 -4.52 -1.04 5000011.9904
11.394240000000002 -4.54 -1.04 5000011.9904
11.18892 -4.56 -1.04 5000011.6482
10.995 -4.84 -1.04 5000011.325
10.995 -4.86 -1.04 5000011.325
10.811580000000001 -4.88 -1.04 5000011.0193
10.811580000000001 -4.9 -1.04 5000011.0193
11.18892 -5.36 -1.04 5000011.6482
11.18892 -5.38 -1.04 5000011.6482
11.18892 -6.26 -1.04 5000011.6482
11.18892 -6.28 -1.04 5000011.6482
11.18892 -6.3 -1.04 5000011.6482
20.4822 -2.1 -1.06 5000027.137
19.467180000000003 -2.14 -1.06 5000025.4453
19.467180000000003 -2.16 -1.06 5000025.4453
15.83916 -2.24 -1.06 5000019.3986
15.83916 -2.26 -1.06 5000019.3986
13.979940000000001 -2.32 -1.06 5000016.2999
13.979940000000001 -2.34 -1.06 5000016.2999
19.467180000000003 -3.06 -1.06 5000025.4453
12.63288 -3.22 -1.06 5000014.0548
12.63288 -3.24 -1.06 5000014.0548
12.63288 -3.32 -1.06 5000014.0548
12.63288 -3.34 -1.06 5000014.0548
12.3522 -3.38 -1.06 5000013.587
11.394240000000002 -4.5 -1.06 5000011.9904
11.394240000000002 -4.52 -1.06 5000011.9904
11.394240000000002 -4.54 -1.06 5000011.9904
10.316220000000001 -4.68 -1.06 5000010.1937
10.316220000000001 -4.7 -1.06 5000010.1937
10.995 -4.88 -1.06 5000011.325
10.811580000000001 -4.9 -1.06 5000011.0193
10.811580000000001 -4.92 -1.06 5000011.0193
13.6044 -6.64 -1.06 5000015.674
14.386740000000001 3.76 -1.08 5000016.9779
15.83916 -0.06 -1.08 5000019.3986
15.83916 -0.08 -1.08 5000019.3986
15.83916 -0.1 -1.08 5000019.3986
20.4822 -2.12 -1.08 5000027.137
19.467180000000003 -2.14 -1.08 5000025.4453
19.467180000000003 -2.16 -1.08 5000025.4453
18.57126 -2.18 -1.08 5000023.9521
13.979940000000001 -2.32 -1.08 5000016.2999
13.6044 -2.34 -1.08 5000015.674
13.6044 -2.36 -1.08 5000015.674
12.63288 -3.16 -1.08 5000014.0548
12.63288 -3.18 -1.08 5000014.0548
12.63288 -3.32 -1.08 5000014.0548
12.63288 -3.34 -1.08 5000014.0548
12.3522 -3.36 -1.08 5000013.587
12.3522 -3.38 -1.08 5000013.587
12.08952 -3.4 -1.08 5000013.1492
11.394240000000002 -4.5 -1.08 5000011.9904
11.394240000000002 -4.52 -1.08 5000011.9904
11.18892 -4.62 -1.08 5000011.6482
10.995 -4.88 -1.08 5000011.325
10.811580000000001 -4.9 -1.08 5000011.0193
10.811580000000001 -4.92 -1.08 5000011.0193
14.386740000000001 3.76 -1.1 5000016.9779
19.467180000000003 -2.14 -1.1 5000025.4453
19.467180000000003 -2.16 -1.1 5000025.4453
18.57126 -2.18 -1.1 5000023.9521
17.06172 -2.2 -1.1 5000021.4362
16.419959999999996 -2.22 -1.1 5000020.3666
13.979940000000001 -2.32 -1.1 5000016.2999
13.6044 -2.34 -1.1 5000015.674
13.6044 -2.36 -1.1 5000015.674
12.933599999999998 -3.16 -1.1 5000014.556
12.933599999999998 -3.18 -1.1 5000014.556
12.63288 -3.32 -1.1 5000014.0548
12.63288 -3.34 -1.1 5000014.0548
12.3522 -3.36 -1.1 5000013.587
12.3522 -3.38 -1.1 5000013.587
12.08952 -3.4 -1.1 5000013.1492
11.394240000000002 -4.5 -1.1 5000011.9904
10.995 -4.92 -1.1 5000011.325
10.995 -5.36 -1.1 5000011.325
10.995 -5.38 -1.1 5000011.325
10.995 -5.4 -1.1 5000011.325
11.18892 -6.32 -1.1 5000011.6482
11.18892 -6.34 -1.1 5000011.6482
13.6044 4.5 -1.12 5000015.674
13.6044 4.48 -1.12 5000015.674
14.386740000000001 3.76 -1.12 5000016.9779
15.3111 0.84 -1.12 5000018.5185
14.82888 0.72 -1.12 5000017.7148
18.57126 -2.18 -1.12 5000023.9521
17.06172 -2.2 -1.12 5000021.4362
16.419959999999996 -2.22 -1.12 5000020.3666
14.386740000000001 -2.26 -1.12 5000016.9779
14.386740000000001 -2.28 -1.12 5000016.9779
13.979940000000001 -2.3 -1.12 5000016.2999
13.979940000000001 -2.32 -1.12 5000016.2999
13.25658 -2.38 -1.12 5000015.0943
13.25658 -2.4 -1.12 5000015.0943
12.63288 -3.34 -1.12 5000014.0548
12.3522 -3.36 -1.12 5000013.587
11.394240000000002 -4.5 -1.12 5000011.9904
10.995 -4.94 -1.12 5000011.325
10.995 -5.38 -1.12 5000011.325
11.18892 -6.3 -1.12 5000011.6482
11.18892 -6.32 -1.12 5000011.6482
11.18892 -6.34 -1.12 5000011.6482
14.386740000000001 3.76 -1.14 5000016.9779
14.386740000000001 -2.28 -1.14 5000016.9779
13.979940000000001 -2.3 -1.14 5000016.2999
13.979940000000001 -2.32 -1.14 5000016.2999
12.933599999999998 -3.16 -1.14 5000014.556
12.63288 -3.34 -1.14 5000014.0548
12.3522 -3.36 -1.14 5000013.587
11.18892 -4.64 -1.14 5000011.6482
11.18892 -4.66 -1.14 5000011.6482
11.18892 -4.68 -1.14 5000011.6482
11.18892 -4.76 -1.14 5000011.6482
11.18892 -4.78 -1.14 5000011.6482
11.18892 -4.8 -1.14 5000011.6482
11.18892 -6.32 -1.14 5000011.6482
11.18892 -6.34 -1.14 5000011.6482
14.386740000000001 0.62 -1.16 5000016.9779
14.386740000000001 0.6 -1.16 5000016.9779
14.386740000000001 -1.44 -1.16 5000016.9779
14.386740000000001 -1.46 -1.16 5000016.9779
14.386740000000001 -1.48 -1.16 5000016.9779
12.933599999999998 -3.16 -1.16 5000014.556
12.933599999999998 -3.18 -1.16 5000014.556
12.63288 -3.34 -1.16 5000014.0548
12.63288 -3.36 -1.16 5000014.0548
12.63288 -3.38 -1.16 5000014.0548
11.18892 -4.64 -1.16 5000011.6482
11.18892 -4.66 -1.16 5000011.6482
11.18892 -4.72 -1.16 5000011.6482
11.18892 -4.78 -1.16 5000011.6482
11.18892 -4.8 -1.16 5000011.6482
11.18892 -4.82 -1.16 5000011.6482
10.995 -4.84 -1.16 5000011.325
11.394240000000002 -5.66 -1.16 5000011.9904
10.995 -5.68 -1.16 5000011.325
10.995 -5.7 -1.16 5000011.325
10.811580000000001 -5.72 -1.16 5000011.0193
10.811580000000001 -5.74 -1.16 5000011.0193
10.811580000000001 -5.76 -1.16 5000011.0193
11.18892 -6.06 -1.16 5000011.6482
10.995 -6.08 -1.16 5000011.325
10.995 -6.1 -1.16 5000011.325
11.18892 -6.32 -1.16 5000011.6482
11.18892 -6.34 -1.16 5000011.6482
13.6044 3.78 -1.18 5000015.674
14.386740000000001 -1.44 -1.18 5000016.9779
14.386740000000001 -1.46 -1.18 5000016.9779
14.386740000000001 -1.48 -1.18 5000016.9779
12.933599999999998 -3.16 -1.18 5000014.556
12.933599999999998 -3.18 -1.18 5000014.556
13.979940000000001 -3.26 -1.18 5000016.2999
13.6044 -3.28 -1.18 5000015.674
12.63288 -3.36 -1.18 5000014.0548
12.63288 -3.38 -1.18 5000014.0548
12.3522 -3.4 -1.18 5000013.587
11.394240000000002 -3.48 -1.18 5000011.9904
11.18892 -4.62 -1.18 5000011.6482
11.18892 -4.82 -1.18 5000011.6482
10.995 -4.84 -1.18 5000011.325
10.995 -5.7 -1.18 5000011.325
10.811580000000001 -5.72 -1.18 5000011.0193
10.811580000000001 -5.74 -1.18 5000011.0193
11.18892 -6.06 -1.18 5000011.6482
10.995 -6.08 -1.18 5000011.325
10.995 -6.1 -1.18 5000011.325
10.995 -6.12 -1.18 5000011.325
10.995 -6.14 -1.18 5000011.325
11.18892 -6.32 -1.18 5000011.6482
11.18892 -6.34 -1.18 5000011.6482
13.6044 3.78 -1.2 5000015.674
13.979940000000001 0.48 -1.2 5000016.2999
13.6044 -2.2 -1.2 5000015.674
13.6044 -2.22 -1.2 5000015.674
13.6044 -2.24 -1.2 5000015.674
17.77464 -3.08 -1.2 5000022.6244
17.77464 -3.1 -1.2 5000022.6244
12.63288 -3.16 -1.2 5000014.0548
12.63288 -3.18 -1.2 5000014.0548
12.933599999999998 -3.3 -1.2 5000014.556
12.933599999999998 -3.32 -1.2 5000014.556
11.394240000000002 -3.48 -1.2 5000011.9904
11.18892 -4.6 -1.2 5000011.6482
11.18892 -4.68 -1.2 5000011.6482
10.995 -4.84 -1.2 5000011.325
10.995 -4.86 -1.2 5000011.325
10.811580000000001 -5.72 -1.2 5000011.0193
10.811580000000001 -5.74 -1.2 5000011.0193
10.811580000000001 -5.76 -1.2 5000011.0193
10.995 -6.08 -1.2 5000011.325
10.995 -6.1 -1.2 5000011.325
10.995 -6.12 -1.2 5000011.325
11.18892 -6.3 -1.2 5000011.6482
11.18892 -6.32 -1.2 5000011.6482
13.6044 3.78 -1.22 5000015.674
17.06172 -3.12 -1.22 5000021.4362
12.63288 -3.16 -1.22 5000014.0548
12.63288 -3.18 -1.22 5000014.0548
12.63288 -3.32 -1.22 5000014.0548
12.63288 -3.34 -1.22 5000014.0548
11.18892 -4.58 -1.22 5000011.6482
11.18892 -4.6 -1.22 5000011.6482
11.18892 -4.62 -1.22 5000011.6482
11.18892 -4.7 -1.22 5000011.6482
11.18892 -4.76 -1.22 5000011.6482
11.18892 -4.78 -1.22 5000011.6482
11.18892 -4.8 -1.22 5000011.6482
10.995 -4.84 -1.22 5000011.325
10.995 -4.86 -1.22 5000011.325
10.995 -4.88 -1.22 5000011.325
10.811580000000001 -5.72 -1.22 5000011.0193
10.811580000000001 -5.74 -1.22 5000011.0193
10.811580000000001 -5.76 -1.22 5000011.0193
10.995 -6.08 -1.22 5000011.325
10.995 -6.1 -1.22 5000011.325
10.995 -6.12 -1.22 5000011.325
11.18892 -6.3 -1.22 5000011.6482
11.18892 -6.32 -1.22 5000011.6482
13.25658 3.78 -1.24 5000015.0943
12.63288 -3.18 -1.24 5000014.0548
12.63288 -3.2 -1.24 5000014.0548
12.933599999999998 -3.32 -1.24 5000014.556
12.63288 -3.34 -1.24 5000014.0548
12.63288 -3.36 -1.24 5000014.0548
12.3522 -3.38 -1.24 5000013.587
12.3522 -3.4 -1.24 5000013.587
11.18892 -4.58 -1.24 5000011.6482
11.18892 -4.6 -1.24 5000011.6482
11.18892 -4.62 -1.24 5000011.6482
11.18892 -4.76 -1.24 5000011.6482
11.18892 -4.78 -1.24 5000011.6482
11.18892 -4.8 -1.24 5000011.6482
10.995 -4.86 -1.24 5000011.325
10.995 -4.88 -1.24 5000011.325
10.811580000000001 -5.72 -1.24 5000011.0193
10.811580000000001 -5.74 -1.24 5000011.0193
10.811580000000001 -5.76 -1.24 5000011.0193
11.18892 -6.06 -1.24 5000011.6482
10.995 -6.08 -1.24 5000011.325
10.995 -6.1 -1.24 5000011.325
10.995 -6.12 -1.24 5000011.325
10.811580000000001 -6.14 -1.24 5000011.0193
11.18892 -6.3 -1.24 5000011.6482
11.18892 -6.32 -1.24 5000011.6482
13.6044 -2.54 -1.26 5000015.674
13.979940000000001 -3.24 -1.26 5000016.2999
13.979940000000001 -3.26 -1.26 5000016.2999
12.63288 -3.34 -1.26 5000014.0548
12.63288 -3.36 -1.26 5000014.0548
10.995 -4.64 -1.26 5000011.325
11.18892 -4.8 -1.26 5000011.6482
11.18892 -4.82 -1.26 5000011.6482
10.995 -4.86 -1.26 5000011.325
10.995 -4.88 -1.26 5000011.325
10.811580000000001 -5.72 -1.26 5000011.0193
10.811580000000001 -5.74 -1.26 5000011.0193
10.811580000000001 -5.76 -1.26 5000011.0193
11.394240000000002 -6.02 -1.26 5000011.9904
11.18892 -6.06 -1.26 5000011.6482
10.995 -6.08 -1.26 5000011.325
10.995 -6.1 -1.26 5000011.325
10.995 -6.12 -1.26 5000011.325
10.811580000000001 -6.14 -1.26 5000011.0193
10.811580000000001 -6.16 -1.26 5000011.0193
11.18892 -6.3 -1.26 5000011.6482
11.18892 -6.32 -1.26 5000011.6482
13.25658 0.26 -1.28 5000015.0943
13.979940000000001 -3.26 -1.28 5000016.2999
13.6044 -3.28 -1.28 5000015.674
12.3522 -3.5 -1.28 5000013.587
12.3522 -3.52 -1.28 5000013.587
11.18892 -4.58 -1.28 5000011.6482
10.811580000000001 -4.66 -1.28 5000011.0193
10.995 -4.88 -1.28 5000011.325
10.025244 -5.86 -1.28 5000009.70874
10.025244 -5.88 -1.28 5000009.70874
10.025244 -5.9 -1.28 5000009.70874
16.419959999999996 -3.1 -1.3 5000020.3666
15.83916 -3.12 -1.3 5000019.3986
12.933599999999998 -3.16 -1.3 5000014.556
13.6044 -3.28 -1.3 5000015.674
12.933599999999998 -3.3 -1.3 5000014.556
12.63288 -3.32 -1.3 5000014.0548
12.3522 -3.48 -1.3 5000013.587
12.3522 -3.5 -1.3 5000013.587
10.637759999999998 -3.54 -1.3 5000010.7296
10.16718 -3.58 -1.3 5000009.9453
11.18892 -4.56 -1.3 5000011.6482
11.18892 -4.58 -1.3 5000011.6482
11.18892 -4.6 -1.3 5000011.6482
11.18892 -4.82 -1.3 5000011.6482
11.18892 -6.28 -1.3 5000011.6482
11.18892 -6.3 -1.3 5000011.6482
12.63288 3.8 -1.32 5000014.0548
13.6044 0.18 -1.32 5000015.674
13.25658 0.16 -1.32 5000015.0943
13.25658 0.14 -1.32 5000015.0943
12.933599999999998 0.12 -1.32 5000014.556
12.933599999999998 -3.14 -1.32 5000014.556
12.933599999999998 -3.16 -1.32 5000014.556
12.63288 -3.18 -1.32 5000014.0548
12.3522 -3.36 -1.32 5000013.587
10.16718 -3.58 -1.32 5000009.9453
10.16718 -3.62 -1.32 5000009.9453
13.25658 -3.86 -1.32 5000015.0943
13.25658 -3.88 -1.32 5000015.0943
13.25658 -3.92 -1.32 5000015.0943
13.6044 -3.94 -1.32 5000015.674
11.18892 -4.56 -1.32 5000011.6482
11.18892 -4.58 -1.32 5000011.6482
11.18892 -4.6 -1.32 5000011.6482
11.394240000000002 -4.82 -1.32 5000011.9904
11.18892 -4.84 -1.32 5000011.6482
10.995 -4.86 -1.32 5000011.325
10.995 -4.88 -1.32 5000011.325
10.995 -4.9 -1.32 5000011.325
11.18892 -6.28 -1.32 5000011.6482
10.995 -6.3 -1.32 5000011.325
12.63288 3.8 -1.34 5000014.0548
13.6044 0.18 -1.34 5000015.674
13.25658 0.14 -1.34 5000015.0943
12.933599999999998 0.12 -1.34 5000014.556
12.63288 -3.18 -1.34 5000014.0548
12.63288 -3.2 -1.34 5000014.0548
10.16718 -3.58 -1.34 5000009.9453
11.18892 -4.56 -1.34 5000011.6482
11.18892 -4.58 -1.34 5000011.6482
11.18892 -4.84 -1.34 5000011.6482
11.18892 -4.86 -1.34 5000011.6482
10.995 -4.88 -1.34 5000011.325
10.995 -4.9 -1.34 5000011.325
11.18892 -6.26 -1.34 5000011.6482
10.995 -6.28 -1.34 5000011.325
12.63288 -6.62 -1.34 5000014.0548
12.63288 -6.64 -1.34 5000014.0548
12.08952 -6.68 -1.34 5000013.1492
11.843340000000001 -6.7 -1.34 5000012.7389
11.843340000000001 -6.72 -1.34 5000012.7389
11.843340000000001 -6.74 -1.34 5000012.7389
12.63288 3.8 -1.36 5000014.0548
12.63288 -3.2 -1.36 5000014.0548
12.63288 -3.22 -1.36 5000014.0548
12.3522 -3.24 -1.36 5000013.587
11.18892 -4.56 -1.36 5000011.6482
11.18892 -4.58 -1.36 5000011.6482
10.995 -4.88 -1.36 5000011.325
10.995 -4.9 -1.36 5000011.325
11.18892 -6.22 -1.36 5000011.6482
11.18892 -6.24 -1.36 5000011.6482
11.18892 -6.26 -1.36 5000011.6482
12.63288 -6.64 -1.36 5000014.0548
12.3522 -6.66 -1.36 5000013.587
12.08952 -6.68 -1.36 5000013.1492
11.843340000000001 -6.7 -1.36 5000012.7389
11.843340000000001 -6.72 -1.36 5000012.7389
12.3522 3.8 -1.38 5000013.587
11.18892 -4.56 -1.38 5000011.6482
11.18892 -4.58 -1.38 5000011.6482
11.18892 -6.2 -1.38 5000011.6482
11.18892 -6.22 -1.38 5000011.6482
11.18892 -6.24 -1.38 5000011.6482
11.843340000000001 -6.7 -1.38 5000012.7389
11.18892 -4.58 -1.4 5000011.6482
11.18892 -4.6 -1.4 5000011.6482
11.394240000000002 -4.8 -1.4 5000011.9904
11.394240000000002 -4.82 -1.4 5000011.9904
12.3522 3.82 -1.42 5000013.587
11.18892 -4.58 -1.42 5000011.6482
11.18892 -4.6 -1.42 5000011.6482
10.995 -4.64 -1.42 5000011.325
11.18892 -4.82 -1.42 5000011.6482
11.18892 -4.84 -1.42 5000011.6482
10.995 -4.86 -1.42 5000011.325
10.995 -4.88 -1.42 5000011.325
10.811580000000001 -4.9 -1.42 5000011.0193
11.18892 -6.14 -1.42 5000011.6482
11.18892 -6.16 -1.42 5000011.6482
11.18892 -6.18 -1.42 5000011.6482
11.843340000000001 -6.4 -1.42 5000012.7389
11.843340000000001 -6.42 -1.42 5000012.7389
11.18892 -4.6 -1.44 5000011.6482
11.18892 -4.82 -1.44 5000011.6482
11.18892 -4.84 -1.44 5000011.6482
10.995 -4.86 -1.44 5000011.325
10.995 -4.88 -1.44 5000011.325
10.811580000000001 -4.9 -1.44 5000011.0193
11.394240000000002 -6.08 -1.44 5000011.9904
11.394240000000002 -6.12 -1.44 5000011.9904
11.18892 -6.14 -1.44 5000011.6482
11.18892 -6.16 -1.44 5000011.6482
11.61198 -6.54 -1.44 5000012.3533
11.61198 -6.56 -1.44 5000012.3533
11.61198 -6.58 -1.44 5000012.3533
11.843340000000001 -4.54 -1.46 5000012.7389
11.18892 -4.62 -1.46 5000011.6482
10.995 -4.84 -1.46 5000011.325
10.995 -4.86 -1.46 5000011.325
10.995 -5.06 -1.46 5000011.325
12.3522 -5.12 -1.46 5000013.587
12.3522 -5.14 -1.46 5000013.587
12.3522 -5.24 -1.46 5000013.587
12.3522 -5.26 -1.46 5000013.587
14.386740000000001 -5.36 -1.46 5000016.9779
13.979940000000001 -5.38 -1.46 5000016.2999
13.979940000000001 -5.4 -1.46 5000016.2999
13.979940000000001 -5.42 -1.46 5000016.2999
12.08952 -5.52 -1.46 5000013.1492
12.08952 -5.54 -1.46 5000013.1492
12.08952 -5.56 -1.46 5000013.1492
11.843340000000001 -5.58 -1.46 5000012.7389
11.394240000000002 -6.08 -1.46 5000011.9904
11.394240000000002 -6.1 -1.46 5000011.9904
11.394240000000002 -6.12 -1.46 5000011.9904
11.843340000000001 -4.54 -1.48 5000012.7389
11.18892 -4.6 -1.48 5000011.6482
11.18892 -4.62 -1.48 5000011.6482
11.18892 -4.64 -1.48 5000011.6482
13.979940000000001 -5.4 -1.48 5000016.2999
11.394240000000002 -6.08 -1.48 5000011.9904
11.394240000000002 -6.1 -1.48 5000011.9904
11.394240000000002 -6.12 -1.48 5000011.9904
11.394240000000002 -6.66 -1.48 5000011.9904
11.394240000000002 -6.68 -1.48 5000011.9904
11.843340000000001 -4.54 -1.5 5000012.7389
11.843340000000001 -4.56 -1.5 5000012.7389
11.18892 -4.62 -1.5 5000011.6482
11.18892 -4.64 -1.5 5000011.6482
11.61198 -4.74 -1.5 5000012.3533
11.394240000000002 -4.76 -1.5 5000011.9904
11.18892 -4.78 -1.5 5000011.6482
11.18892 -4.8 -1.5 5000011.6482
10.995 -4.82 -1.5 5000011.325
10.995 -4.84 -1.5 5000011.325
11.843340000000001 -5.6 -1.5 5000012.7389
11.843340000000001 -5.62 -1.5 5000012.7389
11.843340000000001 -5.64 -1.5 5000012.7389
11.394240000000002 -6.08 -1.5 5000011.9904
11.394240000000002 -6.1 -1.5 5000011.9904
11.394240000000002 -6.12 -1.5 5000011.9904
11.394240000000002 -6.34 -1.5 5000011.9904
12.08952 -6.4 -1.5 5000013.1492
12.08952 -6.42 -1.5 5000013.1492
12.08952 -6.44 -1.5 5000013.1492
12.08952 -6.46 -1.5 5000013.1492
11.61198 -6.48 -1.5 5000012.3533
11.61198 -6.5 -1.5 5000012.3533
11.394240000000002 -6.52 -1.5 5000011.9904
11.394240000000002 -6.54 -1.5 5000011.9904
11.394240000000002 -6.72 -1.5 5000011.9904
11.843340000000001 -4.7 -1.52 5000012.7389
11.843340000000001 -4.72 -1.52 5000012.7389
11.394240000000002 -4.76 -1.52 5000011.9904
11.18892 -4.78 -1.52 5000011.6482
11.18892 -4.8 -1.52 5000011.6482
10.995 -4.82 -1.52 5000011.325
10.811580000000001 -4.84 -1.52 5000011.0193
10.811580000000001 -4.86 -1.52 5000011.0193
10.637759999999998 -4.88 -1.52 5000010.7296
12.08952 -5.58 -1.52 5000013.1492
12.08952 -5.6 -1.52 5000013.1492
11.843340000000001 -5.62 -1.52 5000012.7389
11.61198 -5.64 -1.52 5000012.3533
11.61198 -5.66 -1.52 5000012.3533
11.394240000000002 -5.68 -1.52 5000011.9904
11.394240000000002 -6.08 -1.52 5000011.9904
11.394240000000002 -6.1 -1.52 5000011.9904
11.61198 -6.5 -1.52 5000012.3533
11.394240000000002 -6.52 -1.52 5000011.9904
11.394240000000002 -6.54 -1.52 5000011.9904
11.18892 -6.56 -1.52 5000011.6482
10.995 -6.58 -1.52 5000011.325
10.811580000000001 -6.6 -1.52 5000011.0193
10.811580000000001 -6.62 -1.52 5000011.0193
11.394240000000002 -6.72 -1.52 5000011.9904
12.3522 -5.56 -1.54 5000013.587
12.08952 -5.58 -1.54 5000013.1492
12.08952 -5.6 -1.54 5000013.1492
11.843340000000001 -5.62 -1.54 5000012.7389
11.61198 -5.64 -1.54 5000012.3533
11.61198 -5.66 -1.54 5000012.3533
11.394240000000002 -5.68 -1.54 5000011.9904
