VERSION .7
FIELDS x y z rgb
SIZE 4 4 4 4
TYPE F F F F
COUNT 1 1 1 1
WIDTH 841
HEIGHT 1
VIEWPOINT 0 0 0 1 0 0 0
POINTS 841
DATA ascii
11.932366666666667 1.9 2.8333333333333335 5000057.971
12.699056666666667 -0.16666666666666666 2.8333333333333335 5000080.9717
12.699056666666667 -0.2 2.8333333333333335 5000080.9717
11.932366666666667 -3.033333333333333 2.8333333333333335 5000057.971
11.932366666666667 -3.7666666666666666 2.8333333333333335 5000057.971
11.932366666666667 -3.8 2.8333333333333335 5000057.971
11.50489 -4.366666666666666 2.8333333333333335 5000045.1467
11.232286666666667 -5.4 2.8333333333333335 5000036.9686
12.699056666666667 -5.733333333333333 2.8333333333333335 5000080.9717
11.50489 -5.833333333333333 2.8333333333333335 5000045.1467
11.043296666666667 -5.933333333333334 2.8333333333333335 5000031.2989
11.043296666666667 -5.966666666666667 2.8333333333333335 5000031.2989
11.043296666666667 -6.0 2.8333333333333335 5000031.2989
10.754146666666667 -6.066666666666666 2.8333333333333335 5000022.6244
11.932366666666667 -6.7 2.8333333333333335 5000057.971
10.968993333333334 -6.866666666666666 2.8333333333333335 5000029.0698
10.968993333333334 -6.9 2.8333333333333335 5000029.0698
10.968993333333334 -7.033333333333333 2.8333333333333335 5000029.0698
11.355013333333334 -7.2 2.8333333333333335 5000040.6504
11.692046666666666 -7.366666666666666 2.8333333333333335 5000050.7614
13.367 -7.466666666666667 2.8333333333333335 5000101.01
12.252253333333334 -7.533333333333333 2.8333333333333335 5000067.5676
11.355013333333334 -7.566666666666666 2.8333333333333335 5000040.6504
10.904566666666666 -7.8 2.8333333333333335 5000027.137
11.355013333333334 -8.0 2.8333333333333335 5000040.6504
10.968993333333334 -8.066666666666666 2.8333333333333335 5000029.0698
10.798403333333333 -8.1 2.8333333333333335 5000023.9521
10.798403333333333 -8.233333333333333 2.8333333333333335 5000023.9521
10.754146666666667 -8.266666666666667 2.8333333333333335 5000022.6244
10.754146666666667 -8.3 2.8333333333333335 5000022.6244
10.678886666666667 -8.333333333333334 2.8333333333333335 5000020.3666
10.56593 -8.466666666666667 2.8333333333333335 5000016.9779
11.50489 -9.266666666666667 2.8333333333333335 5000045.1467
10.71454 -9.3 2.8333333333333335 5000021.4362
10.71454 -9.333333333333334 2.8333333333333335 5000021.4362
10.754146666666667 -9.533333333333333 2.8333333333333335 5000022.6244
10.56593 -10.133333333333333 2.8333333333333335 5000016.9779
10.54333 -10.2 2.8333333333333335 5000016.2999
10.503143333333334 -10.233333333333333 2.8333333333333335 5000015.0943
10.503143333333334 -10.3 2.8333333333333335 5000015.0943
10.503143333333334 -11.6 2.8333333333333335 5000015.0943
10.56593 -12.166666666666666 2.8333333333333335 5000016.9779
10.56593 -12.2 2.8333333333333335 5000016.9779
10.56593 -12.233333333333333 2.8333333333333335 5000016.9779
10.54333 -12.266666666666667 2.8333333333333335 5000016.2999
10.54333 -13.033333333333333 2.8333333333333335 5000016.2999
10.54333 -13.066666666666666 2.8333333333333335 5000016.2999
10.36731 -16.633333333333333 2.8333333333333335 5000011.0193
10.36731 -16.666666666666668 2.8333333333333335 5000011.0193
11.932366666666667 -0.8 2.8 5000057.971
11.932366666666667 -0.8333333333333334 2.8 5000057.971
11.692046666666666 -3.933333333333333 2.8 5000050.7614
13.367 -3.966666666666667 2.8 5000101.01
11.932366666666667 -4.0 2.8 5000057.971
11.932366666666667 -4.1 2.8 5000057.971
11.692046666666666 -4.133333333333334 2.8 5000050.7614
11.692046666666666 -4.2 2.8 5000050.7614
11.692046666666666 -4.233333333333333 2.8 5000050.7614
11.50489 -4.366666666666666 2.8 5000045.1467
11.50489 -4.533333333333333 2.8 5000045.1467
12.699056666666667 -5.733333333333333 2.8 5000080.9717
10.64662 -6.133333333333334 2.8 5000019.3986
10.968993333333334 -7.033333333333333 2.8 5000029.0698
11.355013333333334 -7.2 2.8 5000040.6504
12.252253333333334 -7.366666666666666 2.8 5000067.5676
10.968993333333334 -7.566666666666666 2.8 5000029.0698
10.904566666666666 -7.6 2.8 5000027.137
10.64662 -7.833333333333333 2.8 5000019.3986
10.590493333333333 -8.066666666666666 2.8 5000017.7148
10.798403333333333 -8.233333333333333 2.8 5000023.9521
10.754146666666667 -8.266666666666667 2.8 5000022.6244
10.754146666666667 -8.333333333333334 2.8 5000022.6244
10.56593 -8.433333333333334 2.8 5000016.9779
10.56593 -8.466666666666667 2.8 5000016.9779
10.71454 -9.333333333333334 2.8 5000021.4362
10.71454 -9.366666666666667 2.8 5000021.4362
10.56593 -10.1 2.8 5000016.9779
10.56593 -10.133333333333333 2.8 5000016.9779
10.54333 -10.2 2.8 5000016.2999
10.503143333333334 -10.3 2.8 5000015.0943
10.54333 -10.7 2.8 5000016.2999
10.54333 -10.733333333333333 2.8 5000016.2999
10.522466666666666 -11.266666666666667 2.8 5000015.674
10.503143333333334 -11.6 2.8 5000015.0943
10.503143333333334 -11.633333333333333 2.8 5000015.0943
10.56593 -12.2 2.8 5000016.9779
10.54333 -12.233333333333333 2.8 5000016.2999
10.54333 -12.266666666666667 2.8 5000016.2999
10.968993333333334 -13.5 2.8 5000029.0698
10.968993333333334 -13.533333333333333 2.8 5000029.0698
10.754146666666667 -13.633333333333333 2.8 5000022.6244
10.754146666666667 -13.666666666666666 2.8 5000022.6244
10.754146666666667 -13.7 2.8 5000022.6244
10.36731 -16.6 2.8 5000011.0193
10.36731 -16.633333333333333 2.8 5000011.0193
10.357653333333333 -16.733333333333334 2.8 5000010.7296
10.678886666666667 -17.833333333333332 2.8 5000020.3666
13.367 -3.966666666666667 2.7666666666666666 5000101.01
11.932366666666667 -4.0 2.7666666666666666 5000057.971
11.932366666666667 -4.066666666666666 2.7666666666666666 5000057.971
11.932366666666667 -4.1 2.7666666666666666 5000057.971
11.232286666666667 -4.966666666666667 2.7666666666666666 5000036.9686
12.699056666666667 -5.666666666666667 2.7666666666666666 5000080.9717
12.699056666666667 -5.7 2.7666666666666666 5000080.9717
11.692046666666666 -6.733333333333333 2.7666666666666666 5000050.7614
10.968993333333334 -6.9 2.7666666666666666 5000029.0698
10.904566666666666 -6.966666666666667 2.7666666666666666 5000027.137
10.904566666666666 -7.0 2.7666666666666666 5000027.137
11.50489 -7.133333333333334 2.7666666666666666 5000045.1467
12.252253333333334 -7.366666666666666 2.7666666666666666 5000067.5676
12.252253333333334 -7.5 2.7666666666666666 5000067.5676
10.968993333333334 -7.6 2.7666666666666666 5000029.0698
10.904566666666666 -7.633333333333334 2.7666666666666666 5000027.137
10.904566666666666 -7.666666666666667 2.7666666666666666 5000027.137
10.754146666666667 -7.966666666666667 2.7666666666666666 5000022.6244
14.474266666666667 -8.866666666666667 2.7666666666666666 5000134.228
13.367 -8.9 2.7666666666666666 5000101.01
13.367 -8.933333333333334 2.7666666666666666 5000101.01
12.699056666666667 -8.966666666666667 2.7666666666666666 5000080.9717
10.71454 -9.333333333333334 2.7666666666666666 5000021.4362
10.678886666666667 -9.366666666666667 2.7666666666666666 5000020.3666
10.678886666666667 -9.4 2.7666666666666666 5000020.3666
10.56593 -10.1 2.7666666666666666 5000016.9779
10.56593 -10.133333333333333 2.7666666666666666 5000016.9779
10.54333 -10.2 2.7666666666666666 5000016.2999
10.522466666666666 -11.233333333333333 2.7666666666666666 5000015.674
10.503143333333334 -11.6 2.7666666666666666 5000015.0943
10.56593 -12.2 2.7666666666666666 5000016.9779
10.54333 -12.233333333333333 2.7666666666666666 5000016.2999
10.54333 -12.266666666666667 2.7666666666666666 5000016.2999
10.54333 -12.3 2.7666666666666666 5000016.2999
10.968993333333334 -13.5 2.7666666666666666 5000029.0698
10.968993333333334 -13.533333333333333 2.7666666666666666 5000029.0698
11.692046666666666 -0.6666666666666666 2.7333333333333334 5000050.7614
11.692046666666666 -1.1666666666666667 2.7333333333333334 5000050.7614
11.692046666666666 -2.8 2.7333333333333334 5000050.7614
11.692046666666666 -2.8666666666666667 2.7333333333333334 5000050.7614
11.692046666666666 -2.9 2.7333333333333334 5000050.7614
11.932366666666667 -4.066666666666666 2.7333333333333334 5000057.971
11.50489 -4.433333333333334 2.7333333333333334 5000045.1467
11.232286666666667 -4.966666666666667 2.7333333333333334 5000036.9686
11.355013333333334 -6.433333333333334 2.7333333333333334 5000040.6504
11.043296666666667 -6.5 2.7333333333333334 5000031.2989
10.968993333333334 -6.533333333333333 2.7333333333333334 5000029.0698
10.904566666666666 -6.633333333333334 2.7333333333333334 5000027.137
10.54333 -6.866666666666666 2.7333333333333334 5000016.2999
10.848176666666667 -6.9 2.7333333333333334 5000025.4453
10.968993333333334 -6.966666666666667 2.7333333333333334 5000029.0698
11.50489 -7.2 2.7333333333333334 5000045.1467
12.252253333333334 -7.366666666666666 2.7333333333333334 5000067.5676
12.252253333333334 -7.4 2.7333333333333334 5000067.5676
10.968993333333334 -7.633333333333334 2.7333333333333334 5000029.0698
10.968993333333334 -7.666666666666667 2.7333333333333334 5000029.0698
10.64662 -7.8 2.7333333333333334 5000019.3986
10.968993333333334 -7.833333333333333 2.7333333333333334 5000029.0698
10.754146666666667 -8.0 2.7333333333333334 5000022.6244
10.71454 -8.033333333333333 2.7333333333333334 5000021.4362
10.71454 -8.1 2.7333333333333334 5000021.4362
10.56593 -8.133333333333333 2.7333333333333334 5000016.9779
13.367 -8.933333333333334 2.7333333333333334 5000101.01
12.699056666666667 -8.966666666666667 2.7333333333333334 5000080.9717
10.678886666666667 -9.366666666666667 2.7333333333333334 5000020.3666
10.678886666666667 -9.4 2.7333333333333334 5000020.3666
10.678886666666667 -9.433333333333334 2.7333333333333334 5000020.3666
10.522466666666666 -10.366666666666667 2.7333333333333334 5000015.674
10.503143333333334 -11.6 2.7333333333333334 5000015.0943
10.503143333333334 -11.633333333333333 2.7333333333333334 5000015.0943
10.54333 -12.233333333333333 2.7333333333333334 5000016.2999
10.54333 -12.266666666666667 2.7333333333333334 5000016.2999
10.54333 -12.3 2.7333333333333334 5000016.2999
10.39968 -14.566666666666666 2.7333333333333334 5000011.9904
11.692046666666666 -2.8 2.7 5000050.7614
11.692046666666666 -2.8333333333333335 2.7 5000050.7614
11.692046666666666 -2.8666666666666667 2.7 5000050.7614
11.692046666666666 -2.9 2.7 5000050.7614
11.692046666666666 -4.166666666666667 2.7 5000050.7614
11.692046666666666 -4.2 2.7 5000050.7614
11.692046666666666 -4.266666666666667 2.7 5000050.7614
11.232286666666667 -4.3 2.7 5000036.9686
11.50489 -4.366666666666666 2.7 5000045.1467
11.50489 -4.433333333333334 2.7 5000045.1467
11.232286666666667 -4.966666666666667 2.7 5000036.9686
11.232286666666667 -5.0 2.7 5000036.9686
11.232286666666667 -5.566666666666666 2.7 5000036.9686
11.043296666666667 -5.966666666666667 2.7 5000031.2989
11.043296666666667 -6.0 2.7 5000031.2989
11.355013333333334 -6.333333333333333 2.7 5000040.6504
11.355013333333334 -6.366666666666666 2.7 5000040.6504
11.355013333333334 -6.433333333333334 2.7 5000040.6504
11.043296666666667 -6.5 2.7 5000031.2989
10.968993333333334 -6.533333333333333 2.7 5000029.0698
10.968993333333334 -6.566666666666666 2.7 5000029.0698
11.355013333333334 -6.733333333333333 2.7 5000040.6504
10.678886666666667 -6.766666666666667 2.7 5000020.3666
10.54333 -6.866666666666666 2.7 5000016.2999
10.848176666666667 -6.9 2.7 5000025.4453
13.367 -7.566666666666666 2.7 5000101.01
13.367 -7.6 2.7 5000101.01
12.252253333333334 -7.633333333333334 2.7 5000067.5676
11.50489 -7.733333333333333 2.7 5000045.1467
11.50489 -7.766666666666667 2.7 5000045.1467
10.968993333333334 -7.9 2.7 5000029.0698
10.71454 -8.0 2.7 5000021.4362
10.71454 -8.033333333333333 2.7 5000021.4362
10.56593 -8.2 2.7 5000016.9779
11.129943333333333 -9.166666666666666 2.7 5000033.8983
11.129943333333333 -9.2 2.7 5000033.8983
10.678886666666667 -9.433333333333334 2.7 5000020.3666
10.678886666666667 -9.466666666666667 2.7 5000020.3666
10.56593 -10.5 2.7 5000016.9779
10.56593 -10.533333333333333 2.7 5000016.9779
10.468493333333333 -10.7 2.7 5000014.0548
10.522466666666666 -11.6 2.7 5000015.674
10.522466666666666 -11.633333333333333 2.7 5000015.674
10.54333 -12.233333333333333 2.7 5000016.2999
10.54333 -12.266666666666667 2.7 5000016.2999
10.54333 -12.3 2.7 5000016.2999
10.968993333333334 -13.5 2.7 5000029.0698
10.968993333333334 -13.533333333333333 2.7 5000029.0698
10.39968 -14.5 2.7 5000011.9904
10.39968 -14.533333333333333 2.7 5000011.9904
10.295508333333334 -16.8 2.7 5000008.86525
10.289226333333334 -16.9 2.7 5000008.67679
10.590493333333333 -17.9 2.7 5000017.7148
11.692046666666666 -4.2 2.6666666666666665 5000050.7614
11.50489 -4.433333333333334 2.6666666666666665 5000045.1467
12.699056666666667 -4.833333333333333 2.6666666666666665 5000080.9717
12.699056666666667 -4.866666666666666 2.6666666666666665 5000080.9717
11.232286666666667 -5.0 2.6666666666666665 5000036.9686
11.232286666666667 -5.066666666666666 2.6666666666666665 5000036.9686
11.129943333333333 -5.3 2.6666666666666665 5000033.8983
10.904566666666666 -5.4 2.6666666666666665 5000027.137
11.129943333333333 -5.9 2.6666666666666665 5000033.8983
11.043296666666667 -5.933333333333334 2.6666666666666665 5000031.2989
11.355013333333334 -6.333333333333333 2.6666666666666665 5000040.6504
11.355013333333334 -6.4 2.6666666666666665 5000040.6504
11.355013333333334 -6.433333333333334 2.6666666666666665 5000040.6504
10.968993333333334 -6.533333333333333 2.6666666666666665 5000029.0698
10.968993333333334 -6.566666666666666 2.6666666666666665 5000029.0698
10.678886666666667 -6.733333333333333 2.6666666666666665 5000020.3666
10.54333 -6.833333333333333 2.6666666666666665 5000016.2999
10.522466666666666 -6.866666666666666 2.6666666666666665 5000015.674
11.50489 -7.333333333333333 2.6666666666666665 5000045.1467
11.50489 -7.366666666666666 2.6666666666666665 5000045.1467
14.474266666666667 -7.566666666666666 2.6666666666666665 5000134.228
11.692046666666666 -7.7 2.6666666666666665 5000050.7614
11.043296666666667 -7.9 2.6666666666666665 5000031.2989
10.71454 -8.033333333333333 2.6666666666666665 5000021.4362
10.71454 -8.066666666666666 2.6666666666666665 5000021.4362
10.56593 -8.2 2.6666666666666665 5000016.9779
12.699056666666667 -8.833333333333334 2.6666666666666665 5000080.9717
10.56593 -10.533333333333333 2.6666666666666665 5000016.9779
10.503143333333334 -11.6 2.6666666666666665 5000015.0943
10.503143333333334 -11.633333333333333 2.6666666666666665 5000015.0943
10.54333 -12.266666666666667 2.6666666666666665 5000016.2999
10.54333 -12.3 2.6666666666666665 5000016.2999
10.54333 -12.333333333333334 2.6666666666666665 5000016.2999
10.3775 -15.166666666666666 2.6666666666666665 5000011.325
10.42463 -16.2 2.6666666666666665 5000012.7389
10.39968 -16.233333333333334 2.6666666666666665 5000011.9904
10.39968 -16.266666666666666 2.6666666666666665 5000011.9904
10.388273333333334 -16.3 2.6666666666666665 5000011.6482
10.3775 -16.333333333333332 2.6666666666666665 5000011.325
10.36731 -16.366666666666667 2.6666666666666665 5000011.0193
10.357653333333333 -16.4 2.6666666666666665 5000010.7296
10.348493333333334 -16.433333333333334 2.6666666666666665 5000010.4548
10.33979 -16.466666666666665 2.6666666666666665 5000010.1937
10.33979 -16.5 2.6666666666666665 5000010.1937
10.33151 -16.533333333333335 2.6666666666666665 5000009.9453
10.33151 -16.566666666666666 2.6666666666666665 5000009.9453
10.323624666666667 -16.6 2.6666666666666665 5000009.70874
10.71454 -17.8 2.6666666666666665 5000021.4362
10.678886666666667 -17.833333333333332 2.6666666666666665 5000020.3666
10.590493333333333 -17.9 2.6666666666666665 5000017.7148
11.355013333333334 -0.3 2.6333333333333333 5000040.6504
11.50489 -4.4 2.6333333333333333 5000045.1467
11.50489 -4.433333333333334 2.6333333333333333 5000045.1467
11.355013333333334 -4.833333333333333 2.6333333333333333 5000040.6504
11.355013333333334 -4.866666666666666 2.6333333333333333 5000040.6504
11.232286666666667 -5.0 2.6333333333333333 5000036.9686
11.232286666666667 -5.066666666666666 2.6333333333333333 5000036.9686
11.129943333333333 -5.233333333333333 2.6333333333333333 5000033.8983
11.129943333333333 -5.266666666666667 2.6333333333333333 5000033.8983
11.129943333333333 -5.3 2.6333333333333333 5000033.8983
10.968993333333334 -5.333333333333333 2.6333333333333333 5000029.0698
11.129943333333333 -5.9 2.6333333333333333 5000033.8983
11.043296666666667 -5.933333333333334 2.6333333333333333 5000031.2989
11.50489 -6.433333333333334 2.6333333333333333 5000045.1467
10.968993333333334 -6.566666666666666 2.6333333333333333 5000029.0698
10.968993333333334 -6.6 2.6333333333333333 5000029.0698
13.367 -7.666666666666667 2.6333333333333333 5000101.01
10.754146666666667 -8.033333333333333 2.6333333333333333 5000022.6244
10.71454 -8.066666666666666 2.6333333333333333 5000021.4362
10.56593 -8.2 2.6333333333333333 5000016.9779
10.4529 -8.366666666666667 2.6333333333333333 5000013.587
10.4529 -8.4 2.6333333333333333 5000013.587
12.699056666666667 -8.833333333333334 2.6333333333333333 5000080.9717
12.699056666666667 -8.866666666666667 2.6333333333333333 5000080.9717
11.232286666666667 -9.033333333333333 2.6333333333333333 5000036.9686
11.043296666666667 -9.066666666666666 2.6333333333333333 5000031.2989
11.043296666666667 -9.166666666666666 2.6333333333333333 5000031.2989
10.71454 -9.266666666666667 2.6333333333333333 5000021.4362
10.678886666666667 -9.3 2.6333333333333333 5000020.3666
10.678886666666667 -9.333333333333334 2.6333333333333333 5000020.3666
10.678886666666667 -9.666666666666666 2.6333333333333333 5000020.3666
10.64662 -9.766666666666667 2.6333333333333333 5000019.3986
10.503143333333334 -11.566666666666666 2.6333333333333333 5000015.0943
10.503143333333334 -11.6 2.6333333333333333 5000015.0943
10.503143333333334 -11.633333333333333 2.6333333333333333 5000015.0943
10.54333 -12.266666666666667 2.6333333333333333 5000016.2999
10.54333 -12.3 2.6333333333333333 5000016.2999
10.54333 -12.333333333333334 2.6333333333333333 5000016.2999
10.388273333333334 -14.9 2.6333333333333333 5000011.6482
10.388273333333334 -14.933333333333334 2.6333333333333333 5000011.6482
10.388273333333334 -14.966666666666667 2.6333333333333333 5000011.6482
10.3775 -15.133333333333333 2.6333333333333333 5000011.325
10.4529 -16.133333333333333 2.6333333333333333 5000013.587
10.39968 -16.266666666666666 2.6333333333333333 5000011.9904
10.388273333333334 -16.3 2.6333333333333333 5000011.6482
10.3775 -16.333333333333332 2.6333333333333333 5000011.325
10.36731 -16.366666666666667 2.6333333333333333 5000011.0193
10.357653333333333 -16.4 2.6333333333333333 5000010.7296
10.348493333333334 -16.433333333333334 2.6333333333333333 5000010.4548
10.33979 -16.466666666666665 2.6333333333333333 5000010.1937
10.33979 -16.5 2.6333333333333333 5000010.1937
10.754146666666667 -17.333333333333332 2.6333333333333333 5000022.6244
10.754146666666667 -17.4 2.6333333333333333 5000022.6244
10.71454 -17.8 2.6333333333333333 5000021.4362
10.678886666666667 -17.833333333333332 2.6333333333333333 5000020.3666
11.355013333333334 -0.16666666666666666 2.6 5000040.6504
11.50489 -2.8333333333333335 2.6 5000045.1467
11.50489 -2.9 2.6 5000045.1467
11.50489 -2.933333333333333 2.6 5000045.1467
11.692046666666666 -4.4 2.6 5000050.7614
11.355013333333334 -4.533333333333333 2.6 5000040.6504
16.666666666666668 -4.633333333333334 2.6 5000200.0
16.666666666666668 -4.666666666666667 2.6 5000200.0
11.355013333333334 -4.833333333333333 2.6 5000040.6504
11.355013333333334 -4.866666666666666 2.6 5000040.6504
11.232286666666667 -4.966666666666667 2.6 5000036.9686
11.232286666666667 -5.0 2.6 5000036.9686
11.232286666666667 -5.066666666666666 2.6 5000036.9686
11.129943333333333 -5.233333333333333 2.6 5000033.8983
11.129943333333333 -5.266666666666667 2.6 5000033.8983
10.968993333333334 -5.333333333333333 2.6 5000029.0698
11.129943333333333 -5.833333333333333 2.6 5000033.8983
10.54333 -6.9 2.6 5000016.2999
14.474266666666667 -7.166666666666667 2.6 5000134.228
14.474266666666667 -7.2 2.6 5000134.228
11.50489 -7.3 2.6 5000045.1467
10.848176666666667 -7.5 2.6 5000025.4453
13.367 -7.666666666666667 2.6 5000101.01
13.367 -7.733333333333333 2.6 5000101.01
10.4852 -7.833333333333333 2.6 5000014.556
10.4529 -8.366666666666667 2.6 5000013.587
10.4529 -8.4 2.6 5000013.587
12.699056666666667 -8.866666666666667 2.6 5000080.9717
12.699056666666667 -8.9 2.6 5000080.9717
11.232286666666667 -9.033333333333333 2.6 5000036.9686
11.043296666666667 -9.066666666666666 2.6 5000031.2989
10.904566666666666 -9.133333333333333 2.6 5000027.137
10.904566666666666 -9.166666666666666 2.6 5000027.137
10.678886666666667 -9.3 2.6 5000020.3666
10.678886666666667 -9.333333333333334 2.6 5000020.3666
10.678886666666667 -9.366666666666667 2.6 5000020.3666
10.678886666666667 -9.633333333333333 2.6 5000020.3666
10.678886666666667 -9.666666666666666 2.6 5000020.3666
10.64662 -9.7 2.6 5000019.3986
10.64662 -9.733333333333333 2.6 5000019.3986
10.64662 -9.766666666666667 2.6 5000019.3986
11.129943333333333 -9.8 2.6 5000033.8983
11.129943333333333 -9.833333333333334 2.6 5000033.8983
11.129943333333333 -9.866666666666667 2.6 5000033.8983
10.468493333333333 -9.933333333333334 2.6 5000014.0548
10.468493333333333 -9.966666666666667 2.6 5000014.0548
10.468493333333333 -10.0 2.6 5000014.0548
10.56593 -10.033333333333333 2.6 5000016.9779
10.754146666666667 -10.066666666666666 2.6 5000022.6244
10.56593 -10.2 2.6 5000016.9779
10.56593 -10.233333333333333 2.6 5000016.9779
10.56593 -10.266666666666667 2.6 5000016.9779
10.503143333333334 -10.333333333333334 2.6 5000015.0943
10.4852 -10.366666666666667 2.6 5000014.556
10.4852 -10.4 2.6 5000014.556
10.226603333333333 -10.566666666666666 2.6 5000006.7981
10.226603333333333 -10.6 2.6 5000006.7981
10.222891 -10.633333333333333 2.6 5000006.68673
10.503143333333334 -11.566666666666666 2.6 5000015.0943
10.503143333333334 -11.6 2.6 5000015.0943
10.54333 -12.3 2.6 5000016.2999
10.54333 -12.333333333333334 2.6 5000016.2999
10.33979 -14.566666666666666 2.6 5000010.1937
10.388273333333334 -14.9 2.6 5000011.6482
10.388273333333334 -14.933333333333334 2.6 5000011.6482
10.388273333333334 -14.966666666666667 2.6 5000011.6482
10.36731 -16.366666666666667 2.6 5000011.0193
10.36731 -17.633333333333333 2.6 5000011.0193
10.71454 -17.8 2.6 5000021.4362
11.355013333333334 -0.1 2.566666666666667 5000040.6504
11.50489 -2.8333333333333335 2.566666666666667 5000045.1467
11.50489 -2.933333333333333 2.566666666666667 5000045.1467
11.355013333333334 -4.533333333333333 2.566666666666667 5000040.6504
11.50489 -4.566666666666666 2.566666666666667 5000045.1467
16.666666666666668 -4.633333333333334 2.566666666666667 5000200.0
11.355013333333334 -4.733333333333333 2.566666666666667 5000040.6504
11.355013333333334 -4.766666666666667 2.566666666666667 5000040.6504
11.355013333333334 -4.833333333333333 2.566666666666667 5000040.6504
11.232286666666667 -4.966666666666667 2.566666666666667 5000036.9686
11.232286666666667 -5.0 2.566666666666667 5000036.9686
11.232286666666667 -5.033333333333333 2.566666666666667 5000036.9686
11.232286666666667 -5.066666666666666 2.566666666666667 5000036.9686
11.129943333333333 -5.233333333333333 2.566666666666667 5000033.8983
11.129943333333333 -5.266666666666667 2.566666666666667 5000033.8983
11.129943333333333 -5.333333333333333 2.566666666666667 5000033.8983
11.129943333333333 -5.833333333333333 2.566666666666667 5000033.8983
11.129943333333333 -5.866666666666666 2.566666666666667 5000033.8983
10.968993333333334 -6.666666666666667 2.566666666666667 5000029.0698
16.666666666666668 -6.833333333333333 2.566666666666667 5000200.0
14.474266666666667 -7.166666666666667 2.566666666666667 5000134.228
11.692046666666666 -7.3 2.566666666666667 5000050.7614
11.50489 -7.4 2.566666666666667 5000045.1467
10.848176666666667 -7.5 2.566666666666667 5000025.4453
10.848176666666667 -7.533333333333333 2.566666666666667 5000025.4453
16.666666666666668 -7.733333333333333 2.566666666666667 5000200.0
10.4852 -7.833333333333333 2.566666666666667 5000014.556
10.4852 -7.866666666666666 2.566666666666667 5000014.556
10.4852 -7.9 2.566666666666667 5000014.556
10.71454 -8.066666666666666 2.566666666666667 5000021.4362
10.71454 -8.1 2.566666666666667 5000021.4362
10.56593 -8.133333333333333 2.566666666666667 5000016.9779
10.4529 -8.333333333333334 2.566666666666667 5000013.587
10.4529 -8.366666666666667 2.566666666666667 5000013.587
10.4529 -8.4 2.566666666666667 5000013.587
10.3775 -8.666666666666666 2.566666666666667 5000011.325
12.252253333333334 -8.933333333333334 2.566666666666667 5000067.5676
11.232286666666667 -9.033333333333333 2.566666666666667 5000036.9686
10.904566666666666 -9.133333333333333 2.566666666666667 5000027.137
10.904566666666666 -9.166666666666666 2.566666666666667 5000027.137
10.678886666666667 -9.3 2.566666666666667 5000020.3666
10.678886666666667 -9.333333333333334 2.566666666666667 5000020.3666
10.678886666666667 -9.366666666666667 2.566666666666667 5000020.3666
11.129943333333333 -9.866666666666667 2.566666666666667 5000033.8983
10.468493333333333 -9.933333333333334 2.566666666666667 5000014.0548
10.468493333333333 -9.966666666666667 2.566666666666667 5000014.0548
10.754146666666667 -10.066666666666666 2.566666666666667 5000022.6244
10.56593 -10.2 2.566666666666667 5000016.9779
10.56593 -10.233333333333333 2.566666666666667 5000016.9779
10.56593 -10.266666666666667 2.566666666666667 5000016.9779
10.234411666666666 -10.466666666666667 2.566666666666667 5000007.03235
10.230441333333333 -10.5 2.566666666666667 5000006.91324
10.230441333333333 -10.533333333333333 2.566666666666667 5000006.91324
10.226603333333333 -10.566666666666666 2.566666666666667 5000006.7981
10.54333 -12.3 2.566666666666667 5000016.2999
10.54333 -12.333333333333334 2.566666666666667 5000016.2999
10.348493333333334 -14.466666666666667 2.566666666666667 5000010.4548
10.33979 -14.5 2.566666666666667 5000010.1937
10.388273333333334 -14.866666666666667 2.566666666666667 5000011.6482
10.388273333333334 -14.9 2.566666666666667 5000011.6482
10.388273333333334 -14.933333333333334 2.566666666666667 5000011.6482
10.388273333333334 -15.066666666666666 2.566666666666667 5000011.6482
10.357653333333333 -15.766666666666667 2.566666666666667 5000010.7296
10.357653333333333 -15.8 2.566666666666667 5000010.7296
10.357653333333333 -15.833333333333334 2.566666666666667 5000010.7296
11.232286666666667 0.03333333333333333 2.533333333333333 5000036.9686
11.50489 -2.933333333333333 2.533333333333333 5000045.1467
11.50489 -4.566666666666666 2.533333333333333 5000045.1467
11.355013333333334 -4.833333333333333 2.533333333333333 5000040.6504
11.129943333333333 -5.266666666666667 2.533333333333333 5000033.8983
11.129943333333333 -5.333333333333333 2.533333333333333 5000033.8983
10.4529 -5.733333333333333 2.533333333333333 5000013.587
11.129943333333333 -5.833333333333333 2.533333333333333 5000033.8983
10.904566666666666 -6.633333333333334 2.533333333333333 5000027.137
10.904566666666666 -6.666666666666667 2.533333333333333 5000027.137
14.474266666666667 -7.166666666666667 2.533333333333333 5000134.228
11.692046666666666 -7.3 2.533333333333333 5000050.7614
10.848176666666667 -7.5 2.533333333333333 5000025.4453
10.848176666666667 -7.533333333333333 2.533333333333333 5000025.4453
10.754146666666667 -7.633333333333334 2.533333333333333 5000022.6244
10.4852 -7.833333333333333 2.533333333333333 5000014.556
10.4852 -7.866666666666666 2.533333333333333 5000014.556
10.54333 -8.366666666666667 2.533333333333333 5000016.2999
16.666666666666668 -8.766666666666667 2.533333333333333 5000200.0
16.666666666666668 -8.8 2.533333333333333 5000200.0
10.904566666666666 -9.166666666666666 2.533333333333333 5000027.137
10.678886666666667 -9.3 2.533333333333333 5000020.3666
10.678886666666667 -9.333333333333334 2.533333333333333 5000020.3666
10.678886666666667 -9.366666666666667 2.533333333333333 5000020.3666
10.64662 -9.4 2.533333333333333 5000019.3986
10.56593 -10.2 2.533333333333333 5000016.9779
10.56593 -10.233333333333333 2.533333333333333 5000016.9779
10.230441333333333 -10.5 2.533333333333333 5000006.91324
10.230441333333333 -10.533333333333333 2.533333333333333 5000006.91324
10.54333 -12.233333333333333 2.533333333333333 5000016.2999
10.54333 -12.266666666666667 2.533333333333333 5000016.2999
10.54333 -12.3 2.533333333333333 5000016.2999
10.4852 -12.666666666666666 2.533333333333333 5000014.556
10.4852 -12.7 2.533333333333333 5000014.556
10.4852 -12.733333333333333 2.533333333333333 5000014.556
10.357653333333333 -15.766666666666667 2.533333333333333 5000010.7296
10.357653333333333 -15.8 2.533333333333333 5000010.7296
10.71454 -17.8 2.533333333333333 5000021.4362
10.71454 -17.833333333333332 2.533333333333333 5000021.4362
11.232286666666667 -1.0333333333333334 2.5 5000036.9686
11.355013333333334 -4.8 2.5 5000040.6504
11.129943333333333 -5.266666666666667 2.5 5000033.8983
11.129943333333333 -5.466666666666667 2.5 5000033.8983
11.129943333333333 -5.5 2.5 5000033.8983
11.129943333333333 -5.533333333333333 2.5 5000033.8983
16.666666666666668 -6.0 2.5 5000200.0
10.968993333333334 -6.266666666666667 2.5 5000029.0698
10.968993333333334 -6.3 2.5 5000029.0698
10.968993333333334 -6.333333333333333 2.5 5000029.0698
10.798403333333333 -6.366666666666666 2.5 5000023.9521
10.678886666666667 -6.433333333333334 2.5 5000020.3666
14.474266666666667 -7.133333333333334 2.5 5000134.228
14.474266666666667 -7.166666666666667 2.5 5000134.228
11.50489 -7.4 2.5 5000045.1467
10.848176666666667 -7.533333333333333 2.5 5000025.4453
10.798403333333333 -7.633333333333334 2.5 5000023.9521
10.4852 -7.833333333333333 2.5 5000014.556
16.666666666666668 -8.8 2.5 5000200.0
10.678886666666667 -9.333333333333334 2.5 5000020.3666
10.678886666666667 -9.366666666666667 2.5 5000020.3666
10.64662 -9.4 2.5 5000019.3986
10.39968 -9.766666666666667 2.5 5000011.9904
10.39968 -9.8 2.5 5000011.9904
10.39968 -9.833333333333334 2.5 5000011.9904
10.54333 -12.3 2.5 5000016.2999
10.54333 -12.333333333333334 2.5 5000016.2999
10.388273333333334 -14.833333333333334 2.5 5000011.6482
10.357653333333333 -15.766666666666667 2.5 5000010.7296
10.357653333333333 -16.533333333333335 2.5 5000010.7296
10.357653333333333 -16.566666666666666 2.5 5000010.7296
10.357653333333333 -16.6 2.5 5000010.7296
10.71454 -17.833333333333332 2.5 5000021.4362
11.232286666666667 0.23333333333333334 2.466666666666667 5000036.9686
11.355013333333334 0.2 2.466666666666667 5000040.6504
11.50489 -2.966666666666667 2.466666666666667 5000045.1467
11.355013333333334 -3.066666666666667 2.466666666666667 5000040.6504
11.232286666666667 -3.1 2.466666666666667 5000036.9686
11.355013333333334 -4.9 2.466666666666667 5000040.6504
11.355013333333334 -4.933333333333334 2.466666666666667 5000040.6504
11.232286666666667 -5.366666666666666 2.466666666666667 5000036.9686
11.129943333333333 -5.466666666666667 2.466666666666667 5000033.8983
11.129943333333333 -5.5 2.466666666666667 5000033.8983
10.968993333333334 -6.266666666666667 2.466666666666667 5000029.0698
10.678886666666667 -6.433333333333334 2.466666666666667 5000020.3666
10.904566666666666 -6.6 2.466666666666667 5000027.137
10.904566666666666 -6.633333333333334 2.466666666666667 5000027.137
14.474266666666667 -7.1 2.466666666666667 5000134.228
14.474266666666667 -7.233333333333333 2.466666666666667 5000134.228
13.367 -7.266666666666667 2.466666666666667 5000101.01
10.798403333333333 -7.6 2.466666666666667 5000023.9521
10.798403333333333 -7.633333333333334 2.466666666666667 5000023.9521
10.617283333333333 -7.733333333333333 2.466666666666667 5000018.5185
10.968993333333334 -8.533333333333333 2.466666666666667 5000029.0698
10.968993333333334 -8.6 2.466666666666667 5000029.0698
10.678886666666667 -9.5 2.466666666666667 5000020.3666
10.522466666666666 -9.633333333333333 2.466666666666667 5000015.674
10.522466666666666 -9.666666666666666 2.466666666666667 5000015.674
10.438306666666668 -9.7 2.466666666666667 5000013.1492
10.522466666666666 -12.333333333333334 2.466666666666667 5000015.674
10.357653333333333 -15.733333333333333 2.466666666666667 5000010.7296
10.357653333333333 -15.966666666666667 2.466666666666667 5000010.7296
10.357653333333333 -16.0 2.466666666666667 5000010.7296
10.357653333333333 -16.566666666666666 2.466666666666667 5000010.7296
10.357653333333333 -16.6 2.466666666666667 5000010.7296
10.357653333333333 -16.633333333333333 2.466666666666667 5000010.7296
10.71454 -17.833333333333332 2.466666666666667 5000021.4362
10.71454 -17.866666666666667 2.466666666666667 5000021.4362
11.232286666666667 0.36666666666666664 2.433333333333333 5000036.9686
11.232286666666667 0.3 2.433333333333333 5000036.9686
11.232286666666667 -3.1333333333333333 2.433333333333333 5000036.9686
11.232286666666667 -3.1666666666666665 2.433333333333333 5000036.9686
11.355013333333334 -4.933333333333334 2.433333333333333 5000040.6504
11.232286666666667 -4.966666666666667 2.433333333333333 5000036.9686
11.232286666666667 -5.033333333333333 2.433333333333333 5000036.9686
11.232286666666667 -5.333333333333333 2.433333333333333 5000036.9686
11.129943333333333 -5.8 2.433333333333333 5000033.8983
10.968993333333334 -6.266666666666667 2.433333333333333 5000029.0698
14.474266666666667 -7.2 2.433333333333333 5000134.228
13.367 -7.266666666666667 2.433333333333333 5000101.01
10.798403333333333 -7.566666666666666 2.433333333333333 5000023.9521
10.798403333333333 -7.6 2.433333333333333 5000023.9521
10.798403333333333 -7.633333333333334 2.433333333333333 5000023.9521
10.617283333333333 -7.733333333333333 2.433333333333333 5000018.5185
10.590493333333333 -7.766666666666667 2.433333333333333 5000017.7148
10.678886666666667 -8.7 2.433333333333333 5000020.3666
10.590493333333333 -9.466666666666667 2.433333333333333 5000017.7148
10.522466666666666 -9.633333333333333 2.433333333333333 5000015.674
10.522466666666666 -10.066666666666666 2.433333333333333 5000015.674
10.4852 -11.666666666666666 2.433333333333333 5000014.556
10.4852 -11.7 2.433333333333333 5000014.556
10.54333 -12.233333333333333 2.433333333333333 5000016.2999
10.388273333333334 -14.8 2.433333333333333 5000011.6482
10.388273333333334 -14.833333333333334 2.433333333333333 5000011.6482
10.357653333333333 -15.733333333333333 2.433333333333333 5000010.7296
10.357653333333333 -16.633333333333333 2.433333333333333 5000010.7296
10.357653333333333 -16.666666666666668 2.433333333333333 5000010.7296
10.348493333333334 -16.7 2.433333333333333 5000010.4548
10.71454 -17.8 2.433333333333333 5000021.4362
10.71454 -17.833333333333332 2.433333333333333 5000021.4362
10.71454 -17.866666666666667 2.433333333333333 5000021.4362
11.232286666666667 0.4 2.4 5000036.9686
11.232286666666667 -3.1666666666666665 2.4 5000036.9686
11.232286666666667 -5.333333333333333 2.4 5000036.9686
11.232286666666667 -5.366666666666666 2.4 5000036.9686
11.129943333333333 -5.8 2.4 5000033.8983
10.968993333333334 -6.266666666666667 2.4 5000029.0698
10.968993333333334 -6.566666666666666 2.4 5000029.0698
11.043296666666667 -7.1 2.4 5000031.2989
14.474266666666667 -7.166666666666667 2.4 5000134.228
14.474266666666667 -7.2 2.4 5000134.228
13.367 -7.266666666666667 2.4 5000101.01
10.798403333333333 -7.566666666666666 2.4 5000023.9521
10.798403333333333 -7.6 2.4 5000023.9521
10.617283333333333 -7.766666666666667 2.4 5000018.5185
10.678886666666667 -8.666666666666666 2.4 5000020.3666
13.367 -8.833333333333334 2.4 5000101.01
11.129943333333333 -9.1 2.4 5000033.8983
10.904566666666666 -9.2 2.4 5000027.137
10.904566666666666 -9.233333333333333 2.4 5000027.137
10.678886666666667 -9.3 2.4 5000020.3666
10.678886666666667 -9.333333333333334 2.4 5000020.3666
10.54333 -9.466666666666667 2.4 5000016.2999
10.54333 -9.5 2.4 5000016.2999
10.522466666666666 -11.1 2.4 5000015.674
10.4852 -11.666666666666666 2.4 5000014.556
10.4852 -11.7 2.4 5000014.556
10.503143333333334 -12.3 2.4 5000015.0943
10.503143333333334 -12.333333333333334 2.4 5000015.0943
10.71454 -12.566666666666666 2.4 5000021.4362
10.678886666666667 -12.6 2.4 5000020.3666
10.503143333333334 -12.666666666666666 2.4 5000015.0943
10.503143333333334 -12.7 2.4 5000015.0943
10.522466666666666 -12.833333333333334 2.4 5000015.674
10.503143333333334 -12.866666666666667 2.4 5000015.0943
10.503143333333334 -12.9 2.4 5000015.0943
10.357653333333333 -14.166666666666666 2.4 5000010.7296
10.388273333333334 -14.766666666666667 2.4 5000011.6482
10.388273333333334 -14.8 2.4 5000011.6482
10.357653333333333 -15.7 2.4 5000010.7296
10.357653333333333 -16.666666666666668 2.4 5000010.7296
10.348493333333334 -16.7 2.4 5000010.4548
10.348493333333334 -16.733333333333334 2.4 5000010.4548
10.348493333333334 -16.766666666666666 2.4 5000010.4548
11.232286666666667 0.5333333333333333 2.3666666666666667 5000036.9686
11.232286666666667 0.5 2.3666666666666667 5000036.9686
11.232286666666667 -5.3 2.3666666666666667 5000036.9686
11.232286666666667 -5.333333333333333 2.3666666666666667 5000036.9686
10.968993333333334 -6.566666666666666 2.3666666666666667 5000029.0698
10.968993333333334 -6.633333333333334 2.3666666666666667 5000029.0698
10.904566666666666 -6.666666666666667 2.3666666666666667 5000027.137
10.904566666666666 -7.066666666666666 2.3666666666666667 5000027.137
11.355013333333334 -7.166666666666667 2.3666666666666667 5000040.6504
11.932366666666667 -7.3 2.3666666666666667 5000057.971
10.798403333333333 -7.566666666666666 2.3666666666666667 5000023.9521
10.798403333333333 -7.6 2.3666666666666667 5000023.9521
10.71454 -8.466666666666667 2.3666666666666667 5000021.4362
10.678886666666667 -8.5 2.3666666666666667 5000020.3666
10.678886666666667 -8.733333333333333 2.3666666666666667 5000020.3666
10.678886666666667 -8.766666666666667 2.3666666666666667 5000020.3666
11.355013333333334 -8.833333333333334 2.3666666666666667 5000040.6504
10.388273333333334 -8.933333333333334 2.3666666666666667 5000011.6482
11.043296666666667 -9.1 2.3666666666666667 5000031.2989
11.043296666666667 -9.133333333333333 2.3666666666666667 5000031.2989
10.798403333333333 -9.2 2.3666666666666667 5000023.9521
10.904566666666666 -9.233333333333333 2.3666666666666667 5000027.137
10.678886666666667 -9.333333333333334 2.3666666666666667 5000020.3666
10.678886666666667 -9.366666666666667 2.3666666666666667 5000020.3666
10.678886666666667 -9.466666666666667 2.3666666666666667 5000020.3666
10.678886666666667 -9.5 2.3666666666666667 5000020.3666
10.590493333333333 -10.366666666666667 2.3666666666666667 5000017.7148
10.590493333333333 -10.4 2.3666666666666667 5000017.7148
10.522466666666666 -11.1 2.3666666666666667 5000015.674
10.4852 -11.7 2.3666666666666667 5000014.556
10.503143333333334 -12.3 2.3666666666666667 5000015.0943
10.503143333333334 -12.333333333333334 2.3666666666666667 5000015.0943
10.4852 -12.366666666666667 2.3666666666666667 5000014.556
10.4852 -12.4 2.3666666666666667 5000014.556
10.71454 -12.566666666666666 2.3666666666666667 5000021.4362
10.678886666666667 -12.6 2.3666666666666667 5000020.3666
10.678886666666667 -12.633333333333333 2.3666666666666667 5000020.3666
10.503143333333334 -12.666666666666666 2.3666666666666667 5000015.0943
10.503143333333334 -12.7 2.3666666666666667 5000015.0943
10.4852 -12.733333333333333 2.3666666666666667 5000014.556
10.503143333333334 -12.833333333333334 2.3666666666666667 5000015.0943
10.503143333333334 -12.866666666666667 2.3666666666666667 5000015.0943
10.503143333333334 -12.9 2.3666666666666667 5000015.0943
10.4852 -12.933333333333334 2.3666666666666667 5000014.556
10.4852 -12.966666666666667 2.3666666666666667 5000014.556
10.357653333333333 -16.1 2.3666666666666667 5000010.7296
10.348493333333334 -16.733333333333334 2.3666666666666667 5000010.4548
10.348493333333334 -16.766666666666666 2.3666666666666667 5000010.4548
10.348493333333334 -16.8 2.3666666666666667 5000010.4548
11.043296666666667 0.7333333333333333 2.3333333333333335 5000031.2989
13.367 -6.1 2.3333333333333335 5000101.01
11.692046666666666 -6.4 2.3333333333333335 5000050.7614
11.692046666666666 -6.433333333333334 2.3333333333333335 5000050.7614
11.232286666666667 -6.533333333333333 2.3333333333333335 5000036.9686
10.968993333333334 -6.566666666666666 2.3333333333333335 5000029.0698
10.904566666666666 -6.633333333333334 2.3333333333333335 5000027.137
10.904566666666666 -6.666666666666667 2.3333333333333335 5000027.137
11.043296666666667 -7.066666666666666 2.3333333333333335 5000031.2989
11.043296666666667 -7.133333333333334 2.3333333333333335 5000031.2989
10.848176666666667 -7.3 2.3333333333333335 5000025.4453
11.692046666666666 -7.333333333333333 2.3333333333333335 5000050.7614
10.798403333333333 -7.566666666666666 2.3333333333333335 5000023.9521
10.36731 -7.866666666666666 2.3333333333333335 5000011.0193
10.71454 -8.466666666666667 2.3333333333333335 5000021.4362
10.71454 -8.5 2.3333333333333335 5000021.4362
10.678886666666667 -8.566666666666666 2.3333333333333335 5000020.3666
10.678886666666667 -8.666666666666666 2.3333333333333335 5000020.3666
13.367 -8.766666666666667 2.3333333333333335 5000101.01
11.355013333333334 -8.833333333333334 2.3333333333333335 5000040.6504
11.355013333333334 -8.866666666666667 2.3333333333333335 5000040.6504
10.388273333333334 -8.933333333333334 2.3333333333333335 5000011.6482
10.904566666666666 -9.133333333333333 2.3333333333333335 5000027.137
10.678886666666667 -9.333333333333334 2.3333333333333335 5000020.3666
10.678886666666667 -9.366666666666667 2.3333333333333335 5000020.3666
10.522466666666666 -9.5 2.3333333333333335 5000015.674
10.468493333333333 -9.6 2.3333333333333335 5000014.0548
10.590493333333333 -9.8 2.3333333333333335 5000017.7148
10.348493333333334 -9.9 2.3333333333333335 5000010.4548
10.33979 -9.933333333333334 2.3333333333333335 5000010.1937
10.798403333333333 -10.2 2.3333333333333335 5000023.9521
10.798403333333333 -10.233333333333333 2.3333333333333335 5000023.9521
10.522466666666666 -12.133333333333333 2.3333333333333335 5000015.674
10.522466666666666 -12.166666666666666 2.3333333333333335 5000015.674
10.522466666666666 -12.2 2.3333333333333335 5000015.674
10.503143333333334 -12.3 2.3333333333333335 5000015.0943
10.503143333333334 -12.333333333333334 2.3333333333333335 5000015.0943
10.4852 -12.366666666666667 2.3333333333333335 5000014.556
10.4852 -12.4 2.3333333333333335 5000014.556
10.468493333333333 -12.433333333333334 2.3333333333333335 5000014.0548
10.503143333333334 -12.866666666666667 2.3333333333333335 5000015.0943
10.503143333333334 -12.9 2.3333333333333335 5000015.0943
10.4852 -12.933333333333334 2.3333333333333335 5000014.556
10.4852 -12.966666666666667 2.3333333333333335 5000014.556
10.503143333333334 -13.166666666666666 2.3333333333333335 5000015.0943
10.503143333333334 -13.2 2.3333333333333335 5000015.0943
10.503143333333334 -13.233333333333333 2.3333333333333335 5000015.0943
10.348493333333334 -13.4 2.3333333333333335 5000010.4548
10.348493333333334 -13.433333333333334 2.3333333333333335 5000010.4548
10.348493333333334 -13.466666666666667 2.3333333333333335 5000010.4548
10.388273333333334 -14.733333333333333 2.3333333333333335 5000011.6482
10.388273333333334 -14.766666666666667 2.3333333333333335 5000011.6482
10.3775 -14.966666666666667 2.3333333333333335 5000011.325
10.357653333333333 -15.666666666666666 2.3333333333333335 5000010.7296
10.348493333333334 -16.8 2.3333333333333335 5000010.4548
10.348493333333334 -16.833333333333332 2.3333333333333335 5000010.4548
10.64662 -17.9 2.3333333333333335 5000019.3986
11.129943333333333 -3.3 2.3 5000033.8983
11.129943333333333 -3.4 2.3 5000033.8983
11.129943333333333 -3.433333333333333 2.3 5000033.8983
11.232286666666667 -5.8 2.3 5000036.9686
11.232286666666667 -5.833333333333333 2.3 5000036.9686
11.232286666666667 -5.866666666666666 2.3 5000036.9686
11.043296666666667 -6.0 2.3 5000031.2989
11.129943333333333 -6.033333333333333 2.3 5000033.8983
11.129943333333333 -6.066666666666666 2.3 5000033.8983
13.367 -6.1 2.3 5000101.01
11.043296666666667 -6.266666666666667 2.3 5000031.2989
11.043296666666667 -6.3 2.3 5000031.2989
11.692046666666666 -6.4 2.3 5000050.7614
11.692046666666666 -6.433333333333334 2.3 5000050.7614
11.232286666666667 -6.533333333333333 2.3 5000036.9686
10.968993333333334 -6.566666666666666 2.3 5000029.0698
10.904566666666666 -6.633333333333334 2.3 5000027.137
10.904566666666666 -6.666666666666667 2.3 5000027.137
11.043296666666667 -7.1 2.3 5000031.2989
11.043296666666667 -7.133333333333334 2.3 5000031.2989
10.848176666666667 -7.2 2.3 5000025.4453
10.798403333333333 -7.3 2.3 5000023.9521
10.848176666666667 -7.333333333333333 2.3 5000025.4453
10.36731 -7.866666666666666 2.3 5000011.0193
10.71454 -8.433333333333334 2.3 5000021.4362
10.71454 -8.466666666666667 2.3 5000021.4362
11.232286666666667 -8.866666666666667 2.3 5000036.9686
10.388273333333334 -8.933333333333334 2.3 5000011.6482
10.388273333333334 -8.966666666666667 2.3 5000011.6482
10.798403333333333 -9.166666666666666 2.3 5000023.9521
10.468493333333333 -9.6 2.3 5000014.0548
10.71454 -9.7 2.3 5000021.4362
10.590493333333333 -9.8 2.3 5000017.7148
10.590493333333333 -9.833333333333334 2.3 5000017.7148
10.33979 -9.933333333333334 2.3 5000010.1937
10.438306666666668 -10.066666666666666 2.3 5000013.1492
10.4852 -11.7 2.3 5000014.556
10.4852 -11.733333333333333 2.3 5000014.556
10.522466666666666 -12.166666666666666 2.3 5000015.674
10.522466666666666 -12.2 2.3 5000015.674
10.503143333333334 -12.333333333333334 2.3 5000015.0943
10.4852 -12.366666666666667 2.3 5000014.556
10.503143333333334 -12.9 2.3 5000015.0943
10.503143333333334 -12.933333333333334 2.3 5000015.0943
10.4852 -12.966666666666667 2.3 5000014.556
10.503143333333334 -13.166666666666666 2.3 5000015.0943
10.503143333333334 -13.2 2.3 5000015.0943
10.4529 -13.3 2.3 5000013.587
10.357653333333333 -13.333333333333334 2.3 5000010.7296
10.357653333333333 -13.366666666666667 2.3 5000010.7296
10.348493333333334 -13.4 2.3 5000010.4548
10.388273333333334 -14.733333333333333 2.3 5000011.6482
10.348493333333334 -16.833333333333332 2.3 5000010.4548
10.348493333333334 -16.866666666666667 2.3 5000010.4548
10.348493333333334 -16.9 2.3 5000010.4548
11.129943333333333 -17.466666666666665 2.3 5000033.8983
10.904566666666666 -17.566666666666666 2.3 5000027.137
11.043296666666667 1.0333333333333334 2.2666666666666666 5000031.2989
11.043296666666667 1.0 2.2666666666666666 5000031.2989
11.043296666666667 -1.1 2.2666666666666666 5000031.2989
11.129943333333333 -3.466666666666667 2.2666666666666666 5000033.8983
11.129943333333333 -3.5 2.2666666666666666 5000033.8983
11.232286666666667 -5.8 2.2666666666666666 5000036.9686
11.232286666666667 -5.833333333333333 2.2666666666666666 5000036.9686
11.232286666666667 -5.866666666666666 2.2666666666666666 5000036.9686
11.043296666666667 -6.0 2.2666666666666666 5000031.2989
11.129943333333333 -6.033333333333333 2.2666666666666666 5000033.8983
11.043296666666667 -6.233333333333333 2.2666666666666666 5000031.2989
11.129943333333333 -6.266666666666667 2.2666666666666666 5000033.8983
11.129943333333333 -6.3 2.2666666666666666 5000033.8983
11.692046666666666 -6.4 2.2666666666666666 5000050.7614
11.232286666666667 -6.533333333333333 2.2666666666666666 5000036.9686
10.968993333333334 -6.566666666666666 2.2666666666666666 5000029.0698
10.968993333333334 -6.633333333333334 2.2666666666666666 5000029.0698
10.904566666666666 -6.666666666666667 2.2666666666666666 5000027.137
11.129943333333333 -7.1 2.2666666666666666 5000033.8983
11.043296666666667 -7.133333333333334 2.2666666666666666 5000031.2989
10.848176666666667 -7.2 2.2666666666666666 5000025.4453
10.848176666666667 -7.233333333333333 2.2666666666666666 5000025.4453
10.798403333333333 -7.3 2.2666666666666666 5000023.9521
10.848176666666667 -7.333333333333333 2.2666666666666666 5000025.4453
10.4529 -7.633333333333334 2.2666666666666666 5000013.587
10.36731 -7.866666666666666 2.2666666666666666 5000011.0193
10.848176666666667 -8.333333333333334 2.2666666666666666 5000025.4453
10.71454 -8.433333333333334 2.2666666666666666 5000021.4362
10.678886666666667 -9.166666666666666 2.2666666666666666 5000020.3666
10.678886666666667 -9.2 2.2666666666666666 5000020.3666
10.71454 -9.7 2.2666666666666666 5000021.4362
10.678886666666667 -9.733333333333333 2.2666666666666666 5000020.3666
