VERSION .7
FIELDS x y z rgb
SIZE 4 4 4 4
TYPE F F F F
COUNT 1 1 1 1
WIDTH 1366
HEIGHT 1
VIEWPOINT 0 0 0 1 0 0 0
POINTS 1366
DATA ascii
84.7368 -1.5 3.6 5000134.228
38.9826 -1.58 3.6 5000057.971
18.57126 -1.76 3.6 5000023.9521
18.57126 -1.78 3.6 5000023.9521
18.57126 -1.88 3.6 5000023.9521
18.57126 -1.9 3.6 5000023.9521
10.16718 -2.22 3.6 5000009.9453
18.57126 -2.54 3.6 5000023.9521
24.53898 -3.06 3.6 5000033.8983
14.82888 -3.74 3.6 5000017.7148
13.979940000000001 -4.78 3.6 5000016.2999
18.57126 -5.34 3.6 5000023.9521
20.4822 -5.54 3.6 5000027.137
20.4822 4.26 3.58 5000027.137
22.97934 -0.56 3.58 5000031.2989
38.9826 -1.36 3.58 5000057.971
38.9826 -1.38 3.58 5000057.971
84.7368 -1.5 3.58 5000134.228
38.9826 -1.58 3.58 5000057.971
18.57126 -1.76 3.58 5000023.9521
15.83916 -1.82 3.58 5000019.3986
18.57126 -1.9 3.58 5000023.9521
24.53898 -3.0 3.58 5000033.8983
10.472879999999998 -3.9 3.58 5000010.4548
13.979940000000001 -4.78 3.58 5000016.2999
18.57126 -5.34 3.58 5000023.9521
20.4822 -5.5 3.58 5000027.137
20.4822 4.26 3.56 5000027.137
20.4822 4.24 3.56 5000027.137
22.97934 -0.56 3.56 5000031.2989
38.9826 -1.34 3.56 5000057.971
38.9826 -1.36 3.56 5000057.971
38.9826 -1.58 3.56 5000057.971
18.57126 -1.74 3.56 5000023.9521
18.57126 -1.76 3.56 5000023.9521
15.83916 -1.82 3.56 5000019.3986
18.57126 -1.98 3.56 5000023.9521
10.16718 -2.2 3.56 5000009.9453
24.53898 -3.0 3.56 5000033.8983
24.53898 -3.06 3.56 5000033.8983
14.386740000000001 -3.52 3.56 5000016.9779
14.386740000000001 -3.54 3.56 5000016.9779
14.386740000000001 -3.56 3.56 5000016.9779
14.386740000000001 -3.66 3.56 5000016.9779
10.472879999999998 -3.92 3.56 5000010.4548
13.979940000000001 -4.8 3.56 5000016.2999
13.979940000000001 -4.82 3.56 5000016.2999
12.933599999999998 -4.86 3.56 5000014.556
20.4822 4.24 3.54 5000027.137
19.467180000000003 3.94 3.54 5000025.4453
17.77464 -0.62 3.54 5000022.6244
38.9826 -1.32 3.54 5000057.971
38.9826 -1.34 3.54 5000057.971
124.19999999999999 -1.46 3.54 5000200.0
38.9826 -1.58 3.54 5000057.971
18.57126 -1.74 3.54 5000023.9521
18.57126 -1.76 3.54 5000023.9521
15.83916 -1.82 3.54 5000019.3986
18.57126 -1.96 3.54 5000023.9521
17.77464 -2.06 3.54 5000022.6244
10.16718 -2.2 3.54 5000009.9453
17.77464 -2.34 3.54 5000022.6244
17.77464 -2.56 3.54 5000022.6244
26.38116 -2.9 3.54 5000036.9686
24.53898 -3.0 3.54 5000033.8983
24.53898 -3.06 3.54 5000033.8983
14.386740000000001 -3.5 3.54 5000016.9779
14.386740000000001 -3.52 3.54 5000016.9779
14.386740000000001 -3.54 3.54 5000016.9779
13.979940000000001 -3.58 3.54 5000016.2999
14.386740000000001 -3.64 3.54 5000016.9779
14.386740000000001 -3.66 3.54 5000016.9779
14.386740000000001 -3.68 3.54 5000016.9779
14.386740000000001 -3.7 3.54 5000016.9779
10.637759999999998 -3.9 3.54 5000010.7296
13.979940000000001 -4.08 3.54 5000016.2999
13.979940000000001 -4.1 3.54 5000016.2999
13.979940000000001 -4.66 3.54 5000016.2999
13.979940000000001 -4.68 3.54 5000016.2999
12.933599999999998 -4.86 3.54 5000014.556
20.4822 4.22 3.52 5000027.137
20.4822 4.04 3.52 5000027.137
20.4822 4.02 3.52 5000027.137
19.467180000000003 3.92 3.52 5000025.4453
19.467180000000003 3.9 3.52 5000025.4453
22.97934 -0.54 3.52 5000031.2989
17.77464 -0.62 3.52 5000022.6244
38.9826 -1.3 3.52 5000057.971
38.9826 -1.32 3.52 5000057.971
38.9826 -1.4 3.52 5000057.971
38.9826 -1.56 3.52 5000057.971
18.57126 -1.76 3.52 5000023.9521
15.83916 -1.86 3.52 5000019.3986
17.77464 -2.34 3.52 5000022.6244
17.77464 -2.56 3.52 5000022.6244
24.53898 -3.0 3.52 5000033.8983
24.53898 -3.06 3.52 5000033.8983
14.386740000000001 -3.56 3.52 5000016.9779
13.979940000000001 -3.58 3.52 5000016.2999
14.386740000000001 -3.66 3.52 5000016.9779
14.386740000000001 -3.68 3.52 5000016.9779
13.979940000000001 -3.74 3.52 5000016.2999
13.979940000000001 -3.76 3.52 5000016.2999
13.979940000000001 -3.78 3.52 5000016.2999
14.386740000000001 -4.62 3.52 5000016.9779
13.979940000000001 -4.64 3.52 5000016.2999
13.979940000000001 -4.66 3.52 5000016.2999
20.4822 4.02 3.5 5000027.137
20.4822 4.0 3.5 5000027.137
20.4822 3.98 3.5 5000027.137
19.467180000000003 3.88 3.5 5000025.4453
20.4822 2.88 3.5 5000027.137
22.97934 -0.5 3.5 5000031.2989
22.97934 -0.54 3.5 5000031.2989
8.99808 -0.96 3.5 5000007.9968
38.9826 -1.28 3.5 5000057.971
38.9826 -1.3 3.5 5000057.971
38.9826 -1.38 3.5 5000057.971
38.9826 -1.4 3.5 5000057.971
18.57126 -1.76 3.5 5000023.9521
18.57126 -1.78 3.5 5000023.9521
15.3111 -1.86 3.5 5000018.5185
17.77464 -2.08 3.5 5000022.6244
17.77464 -2.1 3.5 5000022.6244
12.63288 -2.18 3.5 5000014.0548
17.77464 -2.54 3.5 5000022.6244
17.77464 -2.56 3.5 5000022.6244
14.386740000000001 -3.56 3.5 5000016.9779
14.386740000000001 -3.58 3.5 5000016.9779
14.386740000000001 -3.66 3.5 5000016.9779
14.386740000000001 -3.68 3.5 5000016.9779
13.979940000000001 -3.76 3.5 5000016.2999
13.979940000000001 -3.78 3.5 5000016.2999
10.637759999999998 -3.86 3.5 5000010.7296
28.590239999999998 -4.52 3.5 5000040.6504
14.386740000000001 -4.6 3.5 5000016.9779
14.386740000000001 -4.62 3.5 5000016.9779
13.979940000000001 -4.64 3.5 5000016.2999
13.979940000000001 -4.66 3.5 5000016.2999
13.25658 -4.84 3.5 5000015.0943
13.25658 -4.86 3.5 5000015.0943
19.467180000000003 -5.26 3.5 5000025.4453
20.4822 4.0 3.48 5000027.137
20.4822 3.98 3.48 5000027.137
20.4822 3.96 3.48 5000027.137
20.4822 3.18 3.48 5000027.137
20.4822 2.88 3.48 5000027.137
20.4822 2.86 3.48 5000027.137
22.97934 -0.54 3.48 5000031.2989
22.97934 -0.68 3.48 5000031.2989
8.99808 -0.96 3.48 5000007.9968
38.9826 -1.26 3.48 5000057.971
38.9826 -1.28 3.48 5000057.971
38.9826 -1.38 3.48 5000057.971
18.57126 -1.72 3.48 5000023.9521
18.57126 -1.78 3.48 5000023.9521
17.77464 -2.08 3.48 5000022.6244
12.933599999999998 -2.16 3.48 5000014.556
17.77464 -2.54 3.48 5000022.6244
17.77464 -2.56 3.48 5000022.6244
24.53898 -3.0 3.48 5000033.8983
19.467180000000003 -3.46 3.48 5000025.4453
14.386740000000001 -3.56 3.48 5000016.9779
13.979940000000001 -3.58 3.48 5000016.2999
13.979940000000001 -3.74 3.48 5000016.2999
14.386740000000001 -3.76 3.48 5000016.9779
10.637759999999998 -3.86 3.48 5000010.7296
15.3111 -4.56 3.48 5000018.5185
14.82888 -4.58 3.48 5000017.7148
14.386740000000001 -4.6 3.48 5000016.9779
13.6044 -4.84 3.48 5000015.674
18.57126 -5.34 3.48 5000023.9521
52.78302 4.12 3.46 5000080.9717
20.4822 3.22 3.46 5000027.137
20.4822 3.18 3.46 5000027.137
20.4822 2.88 3.46 5000027.137
20.4822 2.86 3.46 5000027.137
22.97934 -0.4 3.46 5000031.2989
21.64188 -0.44 3.46 5000029.0698
22.97934 -0.54 3.46 5000031.2989
8.99808 -0.96 3.46 5000007.9968
38.9826 -1.26 3.46 5000057.971
38.9826 -1.28 3.46 5000057.971
18.57126 -1.76 3.46 5000023.9521
17.06172 -2.16 3.46 5000021.4362
124.19999999999999 -3.16 3.46 5000200.0
19.467180000000003 -3.44 3.46 5000025.4453
19.467180000000003 -3.46 3.46 5000025.4453
14.386740000000001 -3.56 3.46 5000016.9779
13.979940000000001 -3.58 3.46 5000016.2999
10.637759999999998 -3.84 3.46 5000010.7296
13.979940000000001 -4.82 3.46 5000016.2999
13.979940000000001 -4.84 3.46 5000016.2999
18.57126 -5.3 3.46 5000023.9521
18.57126 -5.32 3.46 5000023.9521
18.57126 -5.34 3.46 5000023.9521
18.57126 -5.4 3.46 5000023.9521
18.57126 -5.42 3.46 5000023.9521
52.78302 4.1 3.44 5000080.9717
20.4822 3.22 3.44 5000027.137
20.4822 3.2 3.44 5000027.137
20.4822 3.04 3.44 5000027.137
20.4822 2.88 3.44 5000027.137
20.4822 2.86 3.44 5000027.137
22.97934 -0.38 3.44 5000031.2989
22.97934 -0.4 3.44 5000031.2989
19.467180000000003 -0.48 3.44 5000025.4453
15.83916 -0.54 3.44 5000019.3986
9.093966 -0.96 3.44 5000008.15661
38.9826 -1.24 3.44 5000057.971
38.9826 -1.26 3.44 5000057.971
18.57126 -1.76 3.44 5000023.9521
17.77464 -1.78 3.44 5000022.6244
18.57126 -1.94 3.44 5000023.9521
18.57126 -1.96 3.44 5000023.9521
17.77464 -2.12 3.44 5000022.6244
21.64188 -3.26 3.44 5000029.0698
19.467180000000003 -3.44 3.44 5000025.4453
14.386740000000001 -3.58 3.44 5000016.9779
14.386740000000001 -3.6 3.44 5000016.9779
13.979940000000001 -3.62 3.44 5000016.2999
14.386740000000001 -3.8 3.44 5000016.9779
13.979940000000001 -3.82 3.44 5000016.2999
13.979940000000001 -4.5 3.44 5000016.2999
14.82888 -4.76 3.44 5000017.7148
14.386740000000001 -4.78 3.44 5000016.9779
14.386740000000001 -4.8 3.44 5000016.9779
13.979940000000001 -4.82 3.44 5000016.2999
13.979940000000001 -4.84 3.44 5000016.2999
18.57126 -5.3 3.44 5000023.9521
18.57126 -5.32 3.44 5000023.9521
18.57126 -5.34 3.44 5000023.9521
18.57126 -5.4 3.44 5000023.9521
52.78302 4.08 3.42 5000080.9717
52.78302 4.06 3.42 5000080.9717
20.4822 3.22 3.42 5000027.137
21.64188 2.98 3.42 5000029.0698
21.64188 2.96 3.42 5000029.0698
21.64188 2.86 3.42 5000029.0698
22.97934 -0.38 3.42 5000031.2989
22.97934 -0.4 3.42 5000031.2989
15.83916 -0.54 3.42 5000019.3986
11.61198 -0.68 3.42 5000012.3533
9.093966 -0.96 3.42 5000008.15661
44.74056 -1.22 3.42 5000067.5676
38.9826 -1.24 3.42 5000057.971
17.77464 -1.76 3.42 5000022.6244
17.77464 -1.78 3.42 5000022.6244
17.77464 -1.94 3.42 5000022.6244
17.77464 -1.96 3.42 5000022.6244
17.77464 -2.12 3.42 5000022.6244
17.77464 -2.14 3.42 5000022.6244
19.467180000000003 -3.42 3.42 5000025.4453
13.979940000000001 -3.6 3.42 5000016.2999
13.979940000000001 -3.62 3.42 5000016.2999
13.979940000000001 -3.8 3.42 5000016.2999
13.979940000000001 -3.82 3.42 5000016.2999
13.979940000000001 -4.52 3.42 5000016.2999
13.979940000000001 -4.54 3.42 5000016.2999
14.386740000000001 -4.78 3.42 5000016.9779
14.386740000000001 -4.8 3.42 5000016.9779
14.386740000000001 -4.82 3.42 5000016.9779
18.57126 -5.32 3.42 5000023.9521
18.57126 -5.34 3.42 5000023.9521
18.57126 -5.4 3.42 5000023.9521
52.78302 4.06 3.4 5000080.9717
22.97934 -0.38 3.4 5000031.2989
22.97934 -0.4 3.4 5000031.2989
11.61198 -0.68 3.4 5000012.3533
9.193757999999999 -0.96 3.4 5000008.32293
44.74056 -1.2 3.4 5000067.5676
44.74056 -1.22 3.4 5000067.5676
44.74056 -1.28 3.4 5000067.5676
64.806 -1.7 3.4 5000101.01
17.77464 -1.76 3.4 5000022.6244
17.77464 -1.78 3.4 5000022.6244
17.77464 -1.8 3.4 5000022.6244
17.77464 -2.12 3.4 5000022.6244
17.06172 -2.18 3.4 5000021.4362
18.57126 -2.54 3.4 5000023.9521
17.06172 -2.58 3.4 5000021.4362
22.97934 -3.42 3.4 5000031.2989
13.979940000000001 -3.6 3.4 5000016.2999
13.979940000000001 -4.18 3.4 5000016.2999
13.979940000000001 -4.52 3.4 5000016.2999
13.979940000000001 -4.54 3.4 5000016.2999
14.386740000000001 -4.8 3.4 5000016.9779
19.467180000000003 -5.34 3.4 5000025.4453
22.97934 -0.4 3.38 5000031.2989
11.61198 -0.68 3.38 5000012.3533
9.193757999999999 -0.96 3.38 5000008.32293
38.9826 -1.18 3.38 5000057.971
38.9826 -1.28 3.38 5000057.971
38.9826 -1.32 3.38 5000057.971
17.77464 -1.78 3.38 5000022.6244
17.77464 -1.8 3.38 5000022.6244
18.57126 -1.96 3.38 5000023.9521
17.77464 -2.12 3.38 5000022.6244
18.57126 -2.52 3.38 5000023.9521
17.06172 -2.58 3.38 5000021.4362
26.38116 -2.9 3.38 5000036.9686
26.38116 -2.92 3.38 5000036.9686
24.53898 -3.06 3.38 5000033.8983
14.386740000000001 -3.54 3.38 5000016.9779
13.979940000000001 -3.6 3.38 5000016.2999
11.18892 -3.78 3.38 5000011.6482
13.979940000000001 -4.5 3.38 5000016.2999
13.979940000000001 -4.52 3.38 5000016.2999
19.467180000000003 3.58 3.36 5000025.4453
31.28802 -0.34 3.36 5000045.1467
22.97934 -0.4 3.36 5000031.2989
22.97934 -0.42 3.36 5000031.2989
14.82888 -0.52 3.36 5000017.7148
34.65684 -0.58 3.36 5000050.7614
11.843340000000001 -0.68 3.36 5000012.7389
9.193757999999999 -0.96 3.36 5000008.32293
38.9826 -1.16 3.36 5000057.971
38.9826 -1.18 3.36 5000057.971
38.9826 -1.28 3.36 5000057.971
17.77464 -1.78 3.36 5000022.6244
17.77464 -1.8 3.36 5000022.6244
18.57126 -1.96 3.36 5000023.9521
17.77464 -2.1 3.36 5000022.6244
17.77464 -2.12 3.36 5000022.6244
18.57126 -2.52 3.36 5000023.9521
18.57126 -2.56 3.36 5000023.9521
17.77464 -2.58 3.36 5000022.6244
26.38116 -2.9 3.36 5000036.9686
26.38116 -2.98 3.36 5000036.9686
24.53898 -3.04 3.36 5000033.8983
24.53898 -3.06 3.36 5000033.8983
22.97934 -3.46 3.36 5000031.2989
14.82888 -3.52 3.36 5000017.7148
14.82888 -3.54 3.36 5000017.7148
13.6044 -3.6 3.36 5000015.674
11.394240000000002 -3.76 3.36 5000011.9904
11.18892 -3.78 3.36 5000011.6482
13.979940000000001 -4.52 3.36 5000016.2999
14.386740000000001 -4.78 3.36 5000016.9779
19.467180000000003 3.58 3.34 5000025.4453
19.467180000000003 3.56 3.34 5000025.4453
31.28802 -0.34 3.34 5000045.1467
22.97934 -0.4 3.34 5000031.2989
22.97934 -0.42 3.34 5000031.2989
16.419959999999996 -0.52 3.34 5000020.3666
11.843340000000001 -0.68 3.34 5000012.7389
9.193757999999999 -0.96 3.34 5000008.32293
38.9826 -1.14 3.34 5000057.971
44.74056 -1.16 3.34 5000067.5676
34.65684 -1.34 3.34 5000050.7614
17.77464 -1.78 3.34 5000022.6244
17.77464 -2.1 3.34 5000022.6244
17.77464 -2.12 3.34 5000022.6244
18.57126 -2.56 3.34 5000023.9521
17.77464 -2.58 3.34 5000022.6244
26.38116 -2.98 3.34 5000036.9686
26.38116 -3.0 3.34 5000036.9686
24.53898 -3.06 3.34 5000033.8983
14.82888 -3.52 3.34 5000017.7148
14.82888 -3.54 3.34 5000017.7148
14.386740000000001 -4.06 3.34 5000016.9779
14.386740000000001 -4.76 3.34 5000016.9779
14.386740000000001 -4.78 3.34 5000016.9779
14.386740000000001 -4.8 3.34 5000016.9779
19.467180000000003 3.56 3.32 5000025.4453
31.28802 -0.34 3.32 5000045.1467
22.97934 -0.4 3.32 5000031.2989
22.97934 -0.42 3.32 5000031.2989
16.419959999999996 -0.48 3.32 5000020.3666
12.08952 -0.68 3.32 5000013.1492
12.08952 -0.72 3.32 5000013.1492
8.905884 -0.96 3.32 5000007.84314
44.74056 -1.12 3.32 5000067.5676
44.74056 -1.14 3.32 5000067.5676
34.65684 -1.32 3.32 5000050.7614
34.65684 -1.34 3.32 5000050.7614
17.77464 -2.56 3.32 5000022.6244
15.3111 -3.5 3.32 5000018.5185
15.3111 -3.52 3.32 5000018.5185
13.979940000000001 -3.72 3.32 5000016.2999
14.386740000000001 -4.02 3.32 5000016.9779
14.386740000000001 -4.04 3.32 5000016.9779
14.386740000000001 -4.06 3.32 5000016.9779
14.386740000000001 -4.78 3.32 5000016.9779
19.467180000000003 3.56 3.3 5000025.4453
19.467180000000003 3.52 3.3 5000025.4453
24.53898 -0.34 3.3 5000033.8983
22.97934 -0.42 3.3 5000031.2989
16.419959999999996 -0.48 3.3 5000020.3666
22.97934 -0.56 3.3 5000031.2989
12.08952 -0.68 3.3 5000013.1492
8.905884 -0.96 3.3 5000007.84314
38.9826 -1.1 3.3 5000057.971
44.74056 -1.12 3.3 5000067.5676
34.65684 -1.32 3.3 5000050.7614
18.57126 -1.72 3.3 5000023.9521
12.08952 -2.02 3.3 5000013.1492
17.77464 -2.56 3.3 5000022.6244
22.97934 -3.36 3.3 5000031.2989
12.933599999999998 -3.78 3.3 5000014.556
12.933599999999998 -3.8 3.3 5000014.556
13.979940000000001 -4.54 3.3 5000016.2999
13.979940000000001 -4.56 3.3 5000016.2999
14.386740000000001 -4.74 3.3 5000016.9779
14.386740000000001 -4.76 3.3 5000016.9779
18.57126 -5.34 3.3 5000023.9521
19.467180000000003 3.56 3.28 5000025.4453
19.467180000000003 3.52 3.28 5000025.4453
24.53898 -0.36 3.28 5000033.8983
16.419959999999996 -0.48 3.28 5000020.3666
21.64188 -0.68 3.28 5000029.0698
8.905884 -0.96 3.28 5000007.84314
38.9826 -1.1 3.28 5000057.971
38.9826 -1.28 3.28 5000057.971
38.9826 -1.3 3.28 5000057.971
38.9826 -1.32 3.28 5000057.971
18.57126 -1.76 3.28 5000023.9521
17.77464 -1.82 3.28 5000022.6244
12.08952 -2.02 3.28 5000013.1492
17.77464 -2.18 3.28 5000022.6244
18.57126 -2.56 3.28 5000023.9521
18.57126 -2.58 3.28 5000023.9521
22.97934 -3.34 3.28 5000031.2989
14.386740000000001 -3.58 3.28 5000016.9779
14.386740000000001 -3.7 3.28 5000016.9779
12.933599999999998 -3.78 3.28 5000014.556
13.979940000000001 -3.88 3.28 5000016.2999
14.386740000000001 -4.66 3.28 5000016.9779
20.4822 3.56 3.26 5000027.137
20.4822 3.52 3.26 5000027.137
28.590239999999998 -0.3 3.26 5000040.6504
24.53898 -0.32 3.26 5000033.8983
24.53898 -0.36 3.26 5000033.8983
16.419959999999996 -0.48 3.26 5000020.3666
22.97934 -0.68 3.26 5000031.2989
8.905884 -0.96 3.26 5000007.84314
38.9826 -1.08 3.26 5000057.971
38.9826 -1.28 3.26 5000057.971
18.57126 -1.76 3.26 5000023.9521
21.64188 -2.5 3.26 5000029.0698
17.77464 -2.56 3.26 5000022.6244
17.77464 -2.58 3.26 5000022.6244
24.53898 -3.32 3.26 5000033.8983
14.386740000000001 -3.54 3.26 5000016.9779
14.386740000000001 -3.56 3.26 5000016.9779
14.386740000000001 -3.58 3.26 5000016.9779
14.386740000000001 -3.6 3.26 5000016.9779
14.386740000000001 -3.68 3.26 5000016.9779
14.386740000000001 -3.7 3.26 5000016.9779
12.933599999999998 -3.78 3.26 5000014.556
14.386740000000001 -4.6 3.26 5000016.9779
20.4822 3.56 3.24 5000027.137
20.4822 3.52 3.24 5000027.137
24.53898 -0.32 3.24 5000033.8983
22.97934 -0.36 3.24 5000031.2989
22.97934 -0.38 3.24 5000031.2989
17.06172 -0.48 3.24 5000021.4362
17.06172 -0.52 3.24 5000021.4362
24.53898 -0.54 3.24 5000033.8983
22.97934 -0.66 3.24 5000031.2989
22.97934 -0.68 3.24 5000031.2989
8.905884 -0.96 3.24 5000007.84314
38.9826 -1.06 3.24 5000057.971
38.9826 -1.28 3.24 5000057.971
24.53898 -1.7 3.24 5000033.8983
18.57126 -1.78 3.24 5000023.9521
21.64188 -2.48 3.24 5000029.0698
24.53898 -3.28 3.24 5000033.8983
14.386740000000001 -3.54 3.24 5000016.9779
14.386740000000001 -3.56 3.24 5000016.9779
14.386740000000001 -3.58 3.24 5000016.9779
14.386740000000001 -3.6 3.24 5000016.9779
14.386740000000001 -3.68 3.24 5000016.9779
14.386740000000001 -3.7 3.24 5000016.9779
13.979940000000001 -4.14 3.24 5000016.2999
13.979940000000001 -4.16 3.24 5000016.2999
14.386740000000001 -4.6 3.24 5000016.9779
14.386740000000001 -4.68 3.24 5000016.9779
14.386740000000001 -4.7 3.24 5000016.9779
20.4822 3.56 3.22 5000027.137
20.4822 3.52 3.22 5000027.137
24.53898 -0.32 3.22 5000033.8983
22.97934 -0.36 3.22 5000031.2989
22.97934 -0.38 3.22 5000031.2989
17.77464 -0.48 3.22 5000022.6244
22.97934 -0.68 3.22 5000031.2989
8.905884 -0.96 3.22 5000007.84314
38.9826 -1.04 3.22 5000057.971
38.9826 -1.06 3.22 5000057.971
24.53898 -1.66 3.22 5000033.8983
24.53898 -1.68 3.22 5000033.8983
18.57126 -1.78 3.22 5000023.9521
38.9826 -2.34 3.22 5000057.971
21.64188 -2.48 3.22 5000029.0698
17.77464 -2.54 3.22 5000022.6244
17.77464 -2.56 3.22 5000022.6244
14.386740000000001 -3.6 3.22 5000016.9779
14.386740000000001 -3.66 3.22 5000016.9779
24.53898 -4.48 3.22 5000033.8983
14.82888 -4.56 3.22 5000017.7148
14.386740000000001 -4.58 3.22 5000016.9779
14.386740000000001 -4.68 3.22 5000016.9779
14.386740000000001 -4.7 3.22 5000016.9779
12.08952 -4.8 3.22 5000013.1492
20.4822 3.56 3.2 5000027.137
20.4822 3.52 3.2 5000027.137
24.53898 -0.34 3.2 5000033.8983
24.53898 -0.36 3.2 5000033.8983
24.53898 -0.38 3.2 5000033.8983
17.77464 -0.48 3.2 5000022.6244
22.97934 -0.68 3.2 5000031.2989
8.905884 -0.96 3.2 5000007.84314
44.74056 -1.02 3.2 5000067.5676
44.74056 -1.04 3.2 5000067.5676
26.38116 -1.66 3.2 5000036.9686
17.77464 -1.76 3.2 5000022.6244
17.77464 -1.78 3.2 5000022.6244
44.74056 -2.28 3.2 5000067.5676
44.74056 -2.34 3.2 5000067.5676
22.97934 -2.46 3.2 5000031.2989
17.77464 -2.52 3.2 5000022.6244
17.77464 -2.54 3.2 5000022.6244
17.77464 -2.56 3.2 5000022.6244
21.64188 -3.28 3.2 5000029.0698
14.386740000000001 -3.6 3.2 5000016.9779
13.979940000000001 -3.86 3.2 5000016.2999
13.979940000000001 -4.16 3.2 5000016.2999
13.979940000000001 -4.18 3.2 5000016.2999
12.933599999999998 -4.24 3.2 5000014.556
14.386740000000001 -4.62 3.2 5000016.9779
12.08952 -4.78 3.2 5000013.1492
20.4822 3.56 3.18 5000027.137
20.4822 3.52 3.18 5000027.137
24.53898 -0.34 3.18 5000033.8983
24.53898 -0.36 3.18 5000033.8983
24.53898 -0.38 3.18 5000033.8983
22.97934 -0.4 3.18 5000031.2989
17.77464 -0.48 3.18 5000022.6244
22.97934 -0.68 3.18 5000031.2989
8.99808 -0.96 3.18 5000007.9968
44.74056 -1.02 3.18 5000067.5676
31.28802 -1.64 3.18 5000045.1467
17.77464 -1.76 3.18 5000022.6244
18.57126 -1.8 3.18 5000023.9521
44.74056 -2.32 3.18 5000067.5676
17.77464 -2.52 3.18 5000022.6244
17.77464 -2.54 3.18 5000022.6244
24.53898 -3.2 3.18 5000033.8983
24.53898 -3.22 3.18 5000033.8983
21.64188 -3.26 3.18 5000029.0698
21.64188 -3.28 3.18 5000029.0698
14.386740000000001 -3.58 3.18 5000016.9779
14.386740000000001 -3.6 3.18 5000016.9779
13.979940000000001 -3.86 3.18 5000016.2999
13.6044 -4.06 3.18 5000015.674
13.979940000000001 -4.16 3.18 5000016.2999
13.979940000000001 -4.18 3.18 5000016.2999
14.82888 -4.6 3.18 5000017.7148
14.82888 -4.62 3.18 5000017.7148
20.4822 3.56 3.16 5000027.137
20.4822 3.52 3.16 5000027.137
24.53898 -0.34 3.16 5000033.8983
24.53898 -0.38 3.16 5000033.8983
22.97934 -0.4 3.16 5000031.2989
17.77464 -0.5 3.16 5000022.6244
22.97934 -0.64 3.16 5000031.2989
22.97934 -0.68 3.16 5000031.2989
44.74056 -1.0 3.16 5000067.5676
44.74056 -1.02 3.16 5000067.5676
22.97934 -1.1 3.16 5000031.2989
31.28802 -1.62 3.16 5000045.1467
31.28802 -1.64 3.16 5000045.1467
18.57126 -1.8 3.16 5000023.9521
44.74056 -2.32 3.16 5000067.5676
18.57126 -2.52 3.16 5000023.9521
17.77464 -2.56 3.16 5000022.6244
15.83916 -2.62 3.16 5000019.3986
24.53898 -3.18 3.16 5000033.8983
24.53898 -3.2 3.16 5000033.8983
24.53898 -3.22 3.16 5000033.8983
21.64188 -3.26 3.16 5000029.0698
14.82888 -3.56 3.16 5000017.7148
14.386740000000001 -3.58 3.16 5000016.9779
14.386740000000001 -3.6 3.16 5000016.9779
14.386740000000001 -3.62 3.16 5000016.9779
14.386740000000001 -3.64 3.16 5000016.9779
13.979940000000001 -4.0 3.16 5000016.2999
13.6044 -4.04 3.16 5000015.674
13.6044 -4.06 3.16 5000015.674
13.979940000000001 -4.16 3.16 5000016.2999
20.4822 3.56 3.14 5000027.137
20.4822 3.52 3.14 5000027.137
12.3522 0.0 3.14 5000013.587
24.53898 -0.34 3.14 5000033.8983
24.53898 -0.38 3.14 5000033.8983
24.53898 -0.4 3.14 5000033.8983
17.77464 -0.48 3.14 5000022.6244
22.97934 -0.68 3.14 5000031.2989
44.74056 -1.0 3.14 5000067.5676
22.97934 -1.1 3.14 5000031.2989
34.65684 -1.6 3.14 5000050.7614
34.65684 -1.62 3.14 5000050.7614
18.57126 -1.74 3.14 5000023.9521
17.06172 -1.96 3.14 5000021.4362
17.06172 -1.98 3.14 5000021.4362
17.77464 -2.12 3.14 5000022.6244
17.77464 -2.14 3.14 5000022.6244
16.419959999999996 -2.2 3.14 5000020.3666
52.78302 -2.3 3.14 5000080.9717
17.06172 -2.38 3.14 5000021.4362
18.57126 -2.5 3.14 5000023.9521
15.83916 -2.62 3.14 5000019.3986
24.53898 -3.2 3.14 5000033.8983
14.82888 -3.56 3.14 5000017.7148
14.386740000000001 -3.62 3.14 5000016.9779
14.386740000000001 -3.64 3.14 5000016.9779
12.63288 -3.72 3.14 5000014.0548
14.386740000000001 -3.8 3.14 5000016.9779
14.386740000000001 -3.82 3.14 5000016.9779
14.386740000000001 -4.7 3.14 5000016.9779
14.386740000000001 -4.72 3.14 5000016.9779
20.4822 3.56 3.12 5000027.137
20.4822 3.52 3.12 5000027.137
12.3522 0.0 3.12 5000013.587
26.38116 -0.32 3.12 5000036.9686
26.38116 -0.34 3.12 5000036.9686
24.53898 -0.38 3.12 5000033.8983
24.53898 -0.4 3.12 5000033.8983
24.53898 -0.42 3.12 5000033.8983
44.74056 -0.98 3.12 5000067.5676
22.97934 -1.08 3.12 5000031.2989
22.97934 -1.1 3.12 5000031.2989
38.9826 -1.58 3.12 5000057.971
34.65684 -1.6 3.12 5000050.7614
18.57126 -1.72 3.12 5000023.9521
18.57126 -1.74 3.12 5000023.9521
17.77464 -2.14 3.12 5000022.6244
17.06172 -2.16 3.12 5000021.4362
16.419959999999996 -2.2 3.12 5000020.3666
52.78302 -2.28 3.12 5000080.9717
18.57126 -2.46 3.12 5000023.9521
14.386740000000001 -3.6 3.12 5000016.9779
14.386740000000001 -3.62 3.12 5000016.9779
14.386740000000001 -3.64 3.12 5000016.9779
12.63288 -3.76 3.12 5000014.0548
13.979940000000001 -3.92 3.12 5000016.2999
13.979940000000001 -4.2 3.12 5000016.2999
14.386740000000001 -4.58 3.12 5000016.9779
14.386740000000001 -4.68 3.12 5000016.9779
14.386740000000001 -4.7 3.12 5000016.9779
14.386740000000001 -4.72 3.12 5000016.9779
18.57126 -5.74 3.12 5000023.9521
18.57126 -5.76 3.12 5000023.9521
17.77464 -5.78 3.12 5000022.6244
20.4822 3.56 3.1 5000027.137
20.4822 3.52 3.1 5000027.137
9.760704 -0.24 3.1 5000009.26784
28.590239999999998 -0.32 3.1 5000040.6504
26.38116 -0.34 3.1 5000036.9686
24.53898 -0.4 3.1 5000033.8983
38.9826 -0.98 3.1 5000057.971
22.97934 -1.08 3.1 5000031.2989
38.9826 -1.56 3.1 5000057.971
38.9826 -1.58 3.1 5000057.971
18.57126 -1.74 3.1 5000023.9521
17.06172 -1.94 3.1 5000021.4362
17.77464 -2.14 3.1 5000022.6244
17.06172 -2.16 3.1 5000021.4362
18.57126 -2.46 3.1 5000023.9521
18.57126 -2.54 3.1 5000023.9521
17.77464 -2.56 3.1 5000022.6244
19.467180000000003 -3.5 3.1 5000025.4453
14.82888 -3.6 3.1 5000017.7148
14.386740000000001 -3.62 3.1 5000016.9779
14.386740000000001 -3.64 3.1 5000016.9779
13.979940000000001 -3.96 3.1 5000016.2999
13.979940000000001 -4.32 3.1 5000016.2999
14.386740000000001 -4.68 3.1 5000016.9779
14.386740000000001 -4.7 3.1 5000016.9779
18.57126 -5.72 3.1 5000023.9521
18.57126 -5.74 3.1 5000023.9521
18.57126 -5.76 3.1 5000023.9521
20.4822 3.56 3.08 5000027.137
20.4822 3.52 3.08 5000027.137
12.3522 -0.02 3.08 5000013.587
26.38116 -0.34 3.08 5000036.9686
22.97934 -0.46 3.08 5000031.2989
15.83916 -0.5 3.08 5000019.3986
38.9826 -0.98 3.08 5000057.971
34.65684 -1.08 3.08 5000050.7614
38.9826 -1.54 3.08 5000057.971
38.9826 -1.56 3.08 5000057.971
18.57126 -1.7 3.08 5000023.9521
17.77464 -2.14 3.08 5000022.6244
17.77464 -2.16 3.08 5000022.6244
18.57126 -2.44 3.08 5000023.9521
17.77464 -2.6 3.08 5000022.6244
14.82888 -3.6 3.08 5000017.7148
14.386740000000001 -3.62 3.08 5000016.9779
14.386740000000001 -3.64 3.08 5000016.9779
14.386740000000001 -3.66 3.08 5000016.9779
13.979940000000001 -3.96 3.08 5000016.2999
13.979940000000001 -4.32 3.08 5000016.2999
18.57126 -5.36 3.08 5000023.9521
19.467180000000003 -5.6 3.08 5000025.4453
20.4822 3.56 3.06 5000027.137
20.4822 3.52 3.06 5000027.137
17.06172 0.14 3.06 5000021.4362
12.3522 -0.02 3.06 5000013.587
22.97934 -0.26 3.06 5000031.2989
24.53898 -0.34 3.06 5000033.8983
15.83916 -0.42 3.06 5000019.3986
15.83916 -0.46 3.06 5000019.3986
38.9826 -0.94 3.06 5000057.971
38.9826 -0.96 3.06 5000057.971
38.9826 -1.06 3.06 5000057.971
38.9826 -1.08 3.06 5000057.971
38.9826 -1.1 3.06 5000057.971
44.74056 -1.52 3.06 5000067.5676
44.74056 -1.54 3.06 5000067.5676
17.77464 -2.14 3.06 5000022.6244
17.77464 -2.16 3.06 5000022.6244
24.53898 -2.44 3.06 5000033.8983
17.77464 -2.6 3.06 5000022.6244
14.82888 -3.6 3.06 5000017.7148
14.386740000000001 -3.64 3.06 5000016.9779
14.386740000000001 -3.66 3.06 5000016.9779
14.386740000000001 -3.68 3.06 5000016.9779
13.6044 -3.86 3.06 5000015.674
13.979940000000001 -4.52 3.06 5000016.2999
18.57126 -5.34 3.06 5000023.9521
18.57126 -5.36 3.06 5000023.9521
19.467180000000003 -5.56 3.06 5000025.4453
20.4822 3.56 3.04 5000027.137
20.4822 3.52 3.04 5000027.137
17.06172 0.14 3.04 5000021.4362
12.3522 -0.02 3.04 5000013.587
24.53898 -0.3 3.04 5000033.8983
15.83916 -0.42 3.04 5000019.3986
15.83916 -0.46 3.04 5000019.3986
8.64939 -0.94 3.04 5000007.41565
8.64939 -0.96 3.04 5000007.41565
38.9826 -1.06 3.04 5000057.971
38.9826 -1.08 3.04 5000057.971
44.74056 -1.5 3.04 5000067.5676
44.74056 -1.52 3.04 5000067.5676
20.4822 -1.7 3.04 5000027.137
20.4822 -1.74 3.04 5000027.137
17.77464 -2.14 3.04 5000022.6244
26.38116 -2.42 3.04 5000036.9686
17.77464 -2.58 3.04 5000022.6244
14.386740000000001 -3.64 3.04 5000016.9779
14.386740000000001 -3.66 3.04 5000016.9779
14.386740000000001 -3.68 3.04 5000016.9779
12.63288 -3.82 3.04 5000014.0548
13.6044 -3.86 3.04 5000015.674
13.979940000000001 -4.34 3.04 5000016.2999
13.979940000000001 -4.5 3.04 5000016.2999
13.979940000000001 -4.52 3.04 5000016.2999
13.979940000000001 -4.58 3.04 5000016.2999
18.57126 -5.34 3.04 5000023.9521
18.57126 -5.36 3.04 5000023.9521
31.28802 5.76 3.02 5000045.1467
31.28802 5.72 3.02 5000045.1467
20.4822 3.56 3.02 5000027.137
20.4822 3.52 3.02 5000027.137
19.467180000000003 0.14 3.02 5000025.4453
15.3111 0.08 3.02 5000018.5185
12.63288 -0.02 3.02 5000014.0548
22.97934 -0.3 3.02 5000031.2989
22.97934 -0.32 3.02 5000031.2989
15.83916 -0.46 3.02 5000019.3986
12.933599999999998 -0.52 3.02 5000014.556
8.64939 -0.96 3.02 5000007.41565
44.74056 -1.06 3.02 5000067.5676
52.78302 -1.5 3.02 5000080.9717
20.4822 -1.7 3.02 5000027.137
7.908282 -1.92 3.02 5000006.18047
17.77464 -2.58 3.02 5000022.6244
24.53898 -2.92 3.02 5000033.8983
14.82888 -3.64 3.02 5000017.7148
14.386740000000001 -3.66 3.02 5000016.9779
14.386740000000001 -3.68 3.02 5000016.9779
12.08952 -3.8 3.02 5000013.1492
13.979940000000001 -4.32 3.02 5000016.2999
13.979940000000001 -4.5 3.02 5000016.2999
13.979940000000001 -4.52 3.02 5000016.2999
34.65684 5.76 3.0 5000050.7614
31.28802 5.72 3.0 5000045.1467
20.4822 3.56 3.0 5000027.137
20.4822 3.52 3.0 5000027.137
19.467180000000003 0.2 3.0 5000025.4453
19.467180000000003 0.18 3.0 5000025.4453
17.06172 0.12 3.0 5000021.4362
15.3111 0.08 3.0 5000018.5185
12.63288 -0.02 3.0 5000014.0548
22.97934 -0.3 3.0 5000031.2989
22.97934 -0.32 3.0 5000031.2989
12.933599999999998 -0.52 3.0 5000014.556
22.97934 -0.72 3.0 5000031.2989
38.9826 -0.96 3.0 5000057.971
38.9826 -1.46 3.0 5000057.971
24.53898 -1.64 3.0 5000033.8983
20.4822 -1.7 3.0 5000027.137
34.65684 -2.4 3.0 5000050.7614
17.77464 -2.54 3.0 5000022.6244
17.77464 -2.58 3.0 5000022.6244
24.53898 -2.92 3.0 5000033.8983
26.38116 -2.98 3.0 5000036.9686
26.38116 -3.0 3.0 5000036.9686
26.38116 -3.06 3.0 5000036.9686
14.82888 -3.64 3.0 5000017.7148
14.386740000000001 -3.66 3.0 5000016.9779
14.386740000000001 -3.68 3.0 5000016.9779
12.08952 -3.78 3.0 5000013.1492
13.979940000000001 -4.32 3.0 5000016.2999
14.386740000000001 -4.52 3.0 5000016.9779
13.979940000000001 -4.54 3.0 5000016.2999
34.65684 5.76 2.98 5000050.7614
20.4822 3.56 2.98 5000027.137
20.4822 3.52 2.98 5000027.137
19.467180000000003 0.2 2.98 5000025.4453
19.467180000000003 0.18 2.98 5000025.4453
12.933599999999998 -0.02 2.98 5000014.556
12.63288 -0.04 2.98 5000014.0548
24.53898 -0.24 2.98 5000033.8983
24.53898 -0.32 2.98 5000033.8983
13.25658 -0.52 2.98 5000015.0943
22.97934 -0.68 2.98 5000031.2989
22.97934 -0.76 2.98 5000031.2989
22.97934 -0.78 2.98 5000031.2989
38.9826 -0.92 2.98 5000057.971
38.9826 -1.44 2.98 5000057.971
24.53898 -1.64 2.98 5000033.8983
17.06172 -1.76 2.98 5000021.4362
17.06172 -2.16 2.98 5000021.4362
34.65684 -2.38 2.98 5000050.7614
18.57126 -2.44 2.98 5000023.9521
26.38116 -2.98 2.98 5000036.9686
26.38116 -3.0 2.98 5000036.9686
26.38116 -3.06 2.98 5000036.9686
14.82888 -3.62 2.98 5000017.7148
14.82888 -3.64 2.98 5000017.7148
14.386740000000001 -3.68 2.98 5000016.9779
14.386740000000001 -3.7 2.98 5000016.9779
10.637759999999998 -3.94 2.98 5000010.7296
13.979940000000001 -4.32 2.98 5000016.2999
15.83916 -5.46 2.98 5000019.3986
31.28802 5.78 2.96 5000045.1467
34.65684 5.66 2.96 5000050.7614
20.4822 3.56 2.96 5000027.137
20.4822 3.52 2.96 5000027.137
28.590239999999998 0.26 2.96 5000040.6504
19.467180000000003 0.18 2.96 5000025.4453
19.467180000000003 0.16 2.96 5000025.4453
12.933599999999998 0.02 2.96 5000014.556
12.933599999999998 -0.02 2.96 5000014.556
12.63288 -0.04 2.96 5000014.0548
24.53898 -0.24 2.96 5000033.8983
24.53898 -0.32 2.96 5000033.8983
13.25658 -0.52 2.96 5000015.0943
22.97934 -0.78 2.96 5000031.2989
22.97934 -0.8 2.96 5000031.2989
38.9826 -0.9 2.96 5000057.971
38.9826 -0.92 2.96 5000057.971
38.9826 -1.4 2.96 5000057.971
38.9826 -1.42 2.96 5000057.971
24.53898 -1.64 2.96 5000033.8983
20.4822 -1.7 2.96 5000027.137
17.06172 -1.76 2.96 5000021.4362
17.06172 -1.78 2.96 5000021.4362
17.06172 -2.16 2.96 5000021.4362
26.38116 -2.62 2.96 5000036.9686
26.38116 -3.0 2.96 5000036.9686
26.38116 -3.06 2.96 5000036.9686
15.83916 -3.6 2.96 5000019.3986
10.811580000000001 -3.92 2.96 5000011.0193
34.65684 5.66 2.94 5000050.7614
20.4822 3.56 2.94 5000027.137
20.4822 3.52 2.94 5000027.137
28.590239999999998 0.26 2.94 5000040.6504
19.467180000000003 0.16 2.94 5000025.4453
12.933599999999998 0.02 2.94 5000014.556
12.933599999999998 -0.02 2.94 5000014.556
12.933599999999998 -0.04 2.94 5000014.556
24.53898 -0.24 2.94 5000033.8983
24.53898 -0.26 2.94 5000033.8983
22.97934 -0.3 2.94 5000031.2989
24.53898 -0.32 2.94 5000033.8983
17.77464 -0.38 2.94 5000022.6244
24.53898 -0.46 2.94 5000033.8983
22.97934 -0.5 2.94 5000031.2989
22.97934 -0.52 2.94 5000031.2989
10.472879999999998 -0.7 2.94 5000010.4548
38.9826 -0.9 2.94 5000057.971
38.9826 -0.92 2.94 5000057.971
38.9826 -1.4 2.94 5000057.971
24.53898 -1.64 2.94 5000033.8983
17.77464 -1.76 2.94 5000022.6244
18.57126 -2.42 2.94 5000023.9521
26.38116 -2.62 2.94 5000036.9686
26.38116 -3.0 2.94 5000036.9686
26.38116 -3.06 2.94 5000036.9686
14.386740000000001 -3.72 2.94 5000016.9779
14.386740000000001 -3.74 2.94 5000016.9779
14.386740000000001 -3.76 2.94 5000016.9779
10.811580000000001 -3.9 2.94 5000011.0193
13.979940000000001 -4.02 2.94 5000016.2999
13.979940000000001 -4.5 2.94 5000016.2999
13.979940000000001 -4.52 2.94 5000016.2999
18.57126 -5.32 2.94 5000023.9521
18.57126 -5.34 2.94 5000023.9521
18.57126 -5.36 2.94 5000023.9521
31.28802 5.9 2.92 5000045.1467
34.65684 5.66 2.92 5000050.7614
20.4822 3.56 2.92 5000027.137
20.4822 3.52 2.92 5000027.137
28.590239999999998 0.26 2.92 5000040.6504
19.467180000000003 0.16 2.92 5000025.4453
12.933599999999998 -0.02 2.92 5000014.556
12.933599999999998 -0.04 2.92 5000014.556
24.53898 -0.24 2.92 5000033.8983
24.53898 -0.26 2.92 5000033.8983
22.97934 -0.3 2.92 5000031.2989
17.77464 -0.38 2.92 5000022.6244
22.97934 -0.5 2.92 5000031.2989
22.97934 -0.52 2.92 5000031.2989
10.472879999999998 -0.7 2.92 5000010.4548
44.74056 -0.9 2.92 5000067.5676
44.74056 -0.92 2.92 5000067.5676
38.9826 -1.38 2.92 5000057.971
38.9826 -1.54 2.92 5000057.971
24.53898 -1.64 2.92 5000033.8983
18.57126 -2.44 2.92 5000023.9521
26.38116 -2.62 2.92 5000036.9686
26.38116 -3.0 2.92 5000036.9686
26.38116 -3.06 2.92 5000036.9686
14.386740000000001 -3.72 2.92 5000016.9779
14.386740000000001 -3.74 2.92 5000016.9779
13.6044 -3.9 2.92 5000015.674
13.979940000000001 -3.98 2.92 5000016.2999
13.979940000000001 -4.5 2.92 5000016.2999
13.979940000000001 -4.52 2.92 5000016.2999
13.979940000000001 -4.64 2.92 5000016.2999
13.979940000000001 -4.66 2.92 5000016.2999
19.467180000000003 -5.3 2.92 5000025.4453
19.467180000000003 -5.32 2.92 5000025.4453
19.467180000000003 -5.34 2.92 5000025.4453
18.57126 -5.36 2.92 5000023.9521
31.28802 5.9 2.9 5000045.1467
34.65684 5.66 2.9 5000050.7614
31.28802 5.56 2.9 5000045.1467
20.4822 3.56 2.9 5000027.137
20.4822 3.52 2.9 5000027.137
28.590239999999998 0.26 2.9 5000040.6504
28.590239999999998 0.24 2.9 5000040.6504
19.467180000000003 0.16 2.9 5000025.4453
12.933599999999998 -0.04 2.9 5000014.556
24.53898 -0.26 2.9 5000033.8983
24.53898 -0.28 2.9 5000033.8983
17.77464 -0.38 2.9 5000022.6244
22.97934 -0.64 2.9 5000031.2989
8.084754 -0.84 2.9 5000006.47459
52.78302 -0.9 2.9 5000080.9717
52.78302 -0.92 2.9 5000080.9717
38.9826 -1.28 2.9 5000057.971
38.9826 -1.3 2.9 5000057.971
10.472879999999998 -1.46 2.9 5000010.4548
38.9826 -1.54 2.9 5000057.971
38.9826 -1.56 2.9 5000057.971
24.53898 -1.64 2.9 5000033.8983
17.77464 -1.76 2.9 5000022.6244
17.77464 -1.78 2.9 5000022.6244
17.06172 -2.26 2.9 5000021.4362
26.38116 -2.6 2.9 5000036.9686
26.38116 -2.62 2.9 5000036.9686
26.38116 -3.0 2.9 5000036.9686
14.386740000000001 -3.6 2.9 5000016.9779
13.979940000000001 -3.62 2.9 5000016.2999
13.979940000000001 -3.64 2.9 5000016.2999
14.386740000000001 -3.72 2.9 5000016.9779
14.386740000000001 -3.74 2.9 5000016.9779
11.61198 -3.88 2.9 5000012.3533
13.979940000000001 -4.62 2.9 5000016.2999
13.979940000000001 -4.64 2.9 5000016.2999
19.467180000000003 -5.18 2.9 5000025.4453
19.467180000000003 -5.2 2.9 5000025.4453
18.57126 -5.32 2.9 5000023.9521
18.57126 -5.36 2.9 5000023.9521
34.65684 5.66 2.88 5000050.7614
34.65684 5.56 2.88 5000050.7614
20.4822 3.56 2.88 5000027.137
28.590239999999998 0.26 2.88 5000040.6504
28.590239999999998 0.24 2.88 5000040.6504
20.4822 0.18 2.88 5000027.137
12.933599999999998 -0.04 2.88 5000014.556
12.933599999999998 -0.06 2.88 5000014.556
24.53898 -0.26 2.88 5000033.8983
24.53898 -0.28 2.88 5000033.8983
24.53898 -0.3 2.88 5000033.8983
17.77464 -0.38 2.88 5000022.6244
10.637759999999998 -0.7 2.88 5000010.7296
8.084754 -0.84 2.88 5000006.47459
52.78302 -0.9 2.88 5000080.9717
52.78302 -0.92 2.88 5000080.9717
38.9826 -1.28 2.88 5000057.971
38.9826 -1.3 2.88 5000057.971
38.9826 -1.54 2.88 5000057.971
24.53898 -1.64 2.88 5000033.8983
17.06172 -1.92 2.88 5000021.4362
28.590239999999998 -2.56 2.88 5000040.6504
26.38116 -3.06 2.88 5000036.9686
14.386740000000001 -3.58 2.88 5000016.9779
13.979940000000001 -3.62 2.88 5000016.2999
11.61198 -3.84 2.88 5000012.3533
19.467180000000003 -5.18 2.88 5000025.4453
18.57126 -5.32 2.88 5000023.9521
34.65684 5.56 2.86 5000050.7614
20.4822 3.56 2.86 5000027.137
20.4822 3.52 2.86 5000027.137
28.590239999999998 0.26 2.86 5000040.6504
31.28802 0.24 2.86 5000045.1467
20.4822 0.18 2.86 5000027.137
20.4822 -0.06 2.86 5000027.137
24.53898 -0.26 2.86 5000033.8983
24.53898 -0.28 2.86 5000033.8983
24.53898 -0.3 2.86 5000033.8983
84.7368 -0.5 2.86 5000134.228
84.7368 -0.52 2.86 5000134.228
22.97934 -0.6 2.86 5000031.2989
52.78302 -0.9 2.86 5000080.9717
52.78302 -0.92 2.86 5000080.9717
38.9826 -1.28 2.86 5000057.971
38.9826 -1.54 2.86 5000057.971
26.38116 -3.0 2.86 5000036.9686
26.38116 -3.06 2.86 5000036.9686
14.82888 -3.56 2.86 5000017.7148
11.61198 -3.84 2.86 5000012.3533
14.386740000000001 -4.0 2.86 5000016.9779
14.386740000000001 -4.02 2.86 5000016.9779
18.57126 -5.36 2.86 5000023.9521
34.65684 5.56 2.84 5000050.7614
20.4822 3.56 2.84 5000027.137
31.28802 0.3 2.84 5000045.1467
28.590239999999998 0.26 2.84 5000040.6504
31.28802 0.24 2.84 5000045.1467
20.4822 0.18 2.84 5000027.137
28.590239999999998 -0.06 2.84 5000040.6504
24.53898 -0.26 2.84 5000033.8983
24.53898 -0.28 2.84 5000033.8983
24.53898 -0.3 2.84 5000033.8983
22.97934 -0.32 2.84 5000031.2989
19.467180000000003 -0.36 2.84 5000025.4453
84.7368 -0.52 2.84 5000134.228
24.53898 -0.62 2.84 5000033.8983
38.9826 -0.9 2.84 5000057.971
38.9826 -0.92 2.84 5000057.971
38.9826 -1.54 2.84 5000057.971
17.77464 -2.32 2.84 5000022.6244
14.386740000000001 -3.6 2.84 5000016.9779
13.6044 -3.66 2.84 5000015.674
11.61198 -3.82 2.84 5000012.3533
14.386740000000001 -4.0 2.84 5000016.9779
14.386740000000001 -4.02 2.84 5000016.9779
14.386740000000001 -4.48 2.84 5000016.9779
14.386740000000001 -4.5 2.84 5000016.9779
13.979940000000001 -4.62 2.84 5000016.2999
18.57126 -5.36 2.84 5000023.9521
34.65684 5.56 2.82 5000050.7614
34.65684 5.5 2.82 5000050.7614
20.4822 3.56 2.82 5000027.137
31.28802 0.3 2.82 5000045.1467
31.28802 0.28 2.82 5000045.1467
31.28802 0.26 2.82 5000045.1467
20.4822 0.18 2.82 5000027.137
20.4822 0.16 2.82 5000027.137
11.843340000000001 0.0 2.82 5000012.7389
28.590239999999998 -0.06 2.82 5000040.6504
24.53898 -0.26 2.82 5000033.8983
24.53898 -0.28 2.82 5000033.8983
24.53898 -0.32 2.82 5000033.8983
22.97934 -0.36 2.82 5000031.2989
84.7368 -0.52 2.82 5000134.228
24.53898 -0.66 2.82 5000033.8983
24.53898 -0.68 2.82 5000033.8983
38.9826 -0.9 2.82 5000057.971
38.9826 -0.92 2.82 5000057.971
38.9826 -1.26 2.82 5000057.971
12.08952 -1.34 2.82 5000013.1492
64.806 -1.48 2.82 5000101.01
44.74056 -1.54 2.82 5000067.5676
17.77464 -2.32 2.82 5000022.6244
17.77464 -2.54 2.82 5000022.6244
26.38116 -3.0 2.82 5000036.9686
13.6044 -3.66 2.82 5000015.674
14.82888 -4.44 2.82 5000017.7148
14.386740000000001 -4.46 2.82 5000016.9779
14.386740000000001 -4.48 2.82 5000016.9779
14.386740000000001 -4.5 2.82 5000016.9779
13.979940000000001 -4.62 2.82 5000016.2999
13.979940000000001 -4.64 2.82 5000016.2999
18.57126 -5.36 2.82 5000023.9521
31.28802 5.78 2.8 5000045.1467
34.65684 5.56 2.8 5000050.7614
34.65684 5.5 2.8 5000050.7614
20.4822 3.56 2.8 5000027.137
31.28802 0.3 2.8 5000045.1467
31.28802 0.28 2.8 5000045.1467
31.28802 0.24 2.8 5000045.1467
20.4822 0.18 2.8 5000027.137
11.843340000000001 0.0 2.8 5000012.7389
28.590239999999998 -0.06 2.8 5000040.6504
24.53898 -0.28 2.8 5000033.8983
24.53898 -0.3 2.8 5000033.8983
22.97934 -0.36 2.8 5000031.2989
22.97934 -0.38 2.8 5000031.2989
84.7368 -0.52 2.8 5000134.228
34.65684 -0.6 2.8 5000050.7614
24.53898 -0.66 2.8 5000033.8983
22.97934 -0.68 2.8 5000031.2989
8.147369999999999 -0.84 2.8 5000006.57895
38.9826 -0.92 2.8 5000057.971
38.9826 -1.24 2.8 5000057.971
64.806 -1.48 2.8 5000101.01
44.74056 -1.54 2.8 5000067.5676
17.77464 -1.82 2.8 5000022.6244
26.38116 -2.66 2.8 5000036.9686
26.38116 -3.0 2.8 5000036.9686
14.386740000000001 -3.6 2.8 5000016.9779
14.386740000000001 -3.64 2.8 5000016.9779
13.979940000000001 -3.9 2.8 5000016.2999
13.979940000000001 -3.92 2.8 5000016.2999
15.3111 -4.42 2.8 5000018.5185
14.82888 -4.44 2.8 5000017.7148
14.386740000000001 -4.46 2.8 5000016.9779
14.386740000000001 -4.48 2.8 5000016.9779
14.386740000000001 -4.5 2.8 5000016.9779
13.979940000000001 -4.52 2.8 5000016.2999
13.979940000000001 -4.62 2.8 5000016.2999
13.979940000000001 -4.64 2.8 5000016.2999
13.979940000000001 -4.66 2.8 5000016.2999
18.57126 -5.36 2.8 5000023.9521
34.65684 5.78 2.78 5000050.7614
34.65684 5.5 2.78 5000050.7614
20.4822 3.56 2.78 5000027.137
31.28802 0.3 2.78 5000045.1467
31.28802 0.28 2.78 5000045.1467
28.590239999999998 0.24 2.78 5000040.6504
11.843340000000001 0.0 2.78 5000012.7389
28.590239999999998 -0.06 2.78 5000040.6504
9.889902000000001 -0.18 2.78 5000009.48317
24.53898 -0.3 2.78 5000033.8983
19.467180000000003 -0.36 2.78 5000025.4453
19.467180000000003 -0.38 2.78 5000025.4453
84.7368 -0.52 2.78 5000134.228
22.97934 -0.68 2.78 5000031.2989
22.97934 -0.7 2.78 5000031.2989
44.74056 -0.9 2.78 5000067.5676
44.74056 -0.92 2.78 5000067.5676
18.57126 -1.08 2.78 5000023.9521
12.08952 -1.32 2.78 5000013.1492
17.06172 -1.62 2.78 5000021.4362
17.77464 -2.52 2.78 5000022.6244
17.77464 -2.54 2.78 5000022.6244
17.77464 -2.58 2.78 5000022.6244
26.38116 -3.0 2.78 5000036.9686
26.38116 -3.06 2.78 5000036.9686
14.386740000000001 -3.62 2.78 5000016.9779
14.386740000000001 -3.64 2.78 5000016.9779
15.83916 -4.4 2.78 5000019.3986
13.979940000000001 -4.66 2.78 5000016.2999
13.6044 -4.68 2.78 5000015.674
18.57126 -5.36 2.78 5000023.9521
34.65684 5.8 2.76 5000050.7614
34.65684 5.5 2.76 5000050.7614
20.4822 3.56 2.76 5000027.137
31.28802 0.3 2.76 5000045.1467
31.28802 0.26 2.76 5000045.1467
26.38116 0.22 2.76 5000036.9686
28.590239999999998 -0.06 2.76 5000040.6504
34.65684 -0.6 2.76 5000050.7614
22.97934 -0.7 2.76 5000031.2989
44.74056 -0.9 2.76 5000067.5676
44.74056 -0.92 2.76 5000067.5676
18.57126 -1.08 2.76 5000023.9521
12.08952 -1.32 2.76 5000013.1492
34.65684 -1.42 2.76 5000050.7614
17.06172 -1.62 2.76 5000021.4362
17.77464 -1.68 2.76 5000022.6244
12.63288 -1.9 2.76 5000014.0548
17.77464 -2.26 2.76 5000022.6244
17.77464 -2.28 2.76 5000022.6244
17.77464 -2.56 2.76 5000022.6244
26.38116 -3.0 2.76 5000036.9686
26.38116 -3.06 2.76 5000036.9686
20.4822 -3.46 2.76 5000027.137
14.82888 -3.56 2.76 5000017.7148
14.82888 -3.58 2.76 5000017.7148
14.386740000000001 -3.6 2.76 5000016.9779
14.386740000000001 -3.62 2.76 5000016.9779
14.386740000000001 -3.64 2.76 5000016.9779
9.637241999999999 -4.06 2.76 5000009.06207
13.6044 -4.14 2.76 5000015.674
13.6044 -4.66 2.76 5000015.674
13.6044 -4.68 2.76 5000015.674
18.57126 -5.36 2.76 5000023.9521
34.65684 5.8 2.74 5000050.7614
34.65684 5.5 2.74 5000050.7614
20.4822 3.56 2.74 5000027.137
31.28802 0.3 2.74 5000045.1467
31.28802 0.26 2.74 5000045.1467
28.590239999999998 0.22 2.74 5000040.6504
26.38116 0.2 2.74 5000036.9686
12.08952 0.0 2.74 5000013.1492
26.38116 -0.04 2.74 5000036.9686
28.590239999999998 -0.06 2.74 5000040.6504
9.889902000000001 -0.18 2.74 5000009.48317
22.97934 -0.26 2.74 5000031.2989
22.97934 -0.3 2.74 5000031.2989
21.64188 -0.34 2.74 5000029.0698
21.64188 -0.36 2.74 5000029.0698
21.64188 -0.38 2.74 5000029.0698
15.83916 -0.5 2.74 5000019.3986
34.65684 -0.6 2.74 5000050.7614
44.74056 -0.9 2.74 5000067.5676
19.467180000000003 -1.08 2.74 5000025.4453
38.9826 -1.18 2.74 5000057.971
12.08952 -1.32 2.74 5000013.1492
34.65684 -1.42 2.74 5000050.7614
18.57126 -1.56 2.74 5000023.9521
17.77464 -1.62 2.74 5000022.6244
17.77464 -1.68 2.74 5000022.6244
12.63288 -1.88 2.74 5000014.0548
17.77464 -2.16 2.74 5000022.6244
17.77464 -2.18 2.74 5000022.6244
17.77464 -2.26 2.74 5000022.6244
17.77464 -2.28 2.74 5000022.6244
26.38116 -2.6 2.74 5000036.9686
26.38116 -3.0 2.74 5000036.9686
22.97934 -3.42 2.74 5000031.2989
20.4822 -3.44 2.74 5000027.137
14.386740000000001 -3.6 2.74 5000016.9779
14.386740000000001 -3.62 2.74 5000016.9779
9.637241999999999 -4.04 2.74 5000009.06207
9.637241999999999 -4.06 2.74 5000009.06207
18.57126 -5.36 2.74 5000023.9521
34.65684 5.52 2.72 5000050.7614
20.4822 3.56 2.72 5000027.137
28.590239999999998 0.3 2.72 5000040.6504
28.590239999999998 0.26 2.72 5000040.6504
26.38116 0.24 2.72 5000036.9686
24.53898 0.18 2.72 5000033.8983
12.3522 0.0 2.72 5000013.587
28.590239999999998 -0.06 2.72 5000040.6504
9.889902000000001 -0.2 2.72 5000009.48317
22.97934 -0.3 2.72 5000031.2989
20.4822 -0.34 2.72 5000027.137
20.4822 -0.36 2.72 5000027.137
19.467180000000003 -0.38 2.72 5000025.4453
15.83916 -0.5 2.72 5000019.3986
44.74056 -0.9 2.72 5000067.5676
19.467180000000003 -1.08 2.72 5000025.4453
38.9826 -1.16 2.72 5000057.971
14.386740000000001 -1.22 2.72 5000016.9779
12.3522 -1.32 2.72 5000013.587
34.65684 -1.42 2.72 5000050.7614
17.77464 -1.6 2.72 5000022.6244
17.06172 -1.62 2.72 5000021.4362
17.77464 -1.68 2.72 5000022.6244
12.63288 -1.88 2.72 5000014.0548
17.77464 -2.26 2.72 5000022.6244
21.64188 -2.6 2.72 5000029.0698
22.97934 -3.4 2.72 5000031.2989
22.97934 -3.42 2.72 5000031.2989
14.386740000000001 -3.64 2.72 5000016.9779
14.386740000000001 -3.66 2.72 5000016.9779
22.97934 -4.38 2.72 5000031.2989
18.57126 -4.44 2.72 5000023.9521
18.57126 -5.36 2.72 5000023.9521
38.9826 5.74 2.7 5000057.971
38.9826 5.72 2.7 5000057.971
34.65684 5.52 2.7 5000050.7614
19.467180000000003 3.56 2.7 5000025.4453
28.590239999999998 0.32 2.7 5000040.6504
28.590239999999998 0.28 2.7 5000040.6504
24.53898 0.24 2.7 5000033.8983
21.64188 0.18 2.7 5000029.0698
12.3522 0.0 2.7 5000013.587
28.590239999999998 -0.06 2.7 5000040.6504
10.025244 -0.2 2.7 5000009.70874
22.97934 -0.3 2.7 5000031.2989
20.4822 -0.34 2.7 5000027.137
20.4822 -0.36 2.7 5000027.137
19.467180000000003 -0.38 2.7 5000025.4453
18.57126 -0.42 2.7 5000023.9521
15.83916 -0.5 2.7 5000019.3986
24.53898 -0.64 2.7 5000033.8983
10.811580000000001 -0.72 2.7 5000011.0193
44.74056 -0.9 2.7 5000067.5676
19.467180000000003 -1.06 2.7 5000025.4453
19.467180000000003 -1.08 2.7 5000025.4453
38.9826 -1.14 2.7 5000057.971
14.82888 -1.22 2.7 5000017.7148
24.53898 -1.38 2.7 5000033.8983
38.9826 -1.46 2.7 5000057.971
17.77464 -1.6 2.7 5000022.6244
24.53898 -2.92 2.7 5000033.8983
26.38116 -3.36 2.7 5000036.9686
22.97934 -3.38 2.7 5000031.2989
14.386740000000001 -3.62 2.7 5000016.9779
14.386740000000001 -3.64 2.7 5000016.9779
14.386740000000001 -3.66 2.7 5000016.9779
13.6044 -3.72 2.7 5000015.674
12.933599999999998 -3.74 2.7 5000014.556
13.979940000000001 -3.94 2.7 5000016.2999
13.979940000000001 -4.6 2.7 5000016.2999
13.979940000000001 -4.62 2.7 5000016.2999
18.57126 -5.36 2.7 5000023.9521
34.65684 5.52 2.68 5000050.7614
20.4822 3.56 2.68 5000027.137
28.590239999999998 0.32 2.68 5000040.6504
28.590239999999998 0.28 2.68 5000040.6504
24.53898 0.26 2.68 5000033.8983
20.4822 0.18 2.68 5000027.137
84.7368 0.06 2.68 5000134.228
12.3522 0.0 2.68 5000013.587
12.63288 -0.02 2.68 5000014.0548
28.590239999999998 -0.06 2.68 5000040.6504
10.025244 -0.2 2.68 5000009.70874
24.53898 -0.3 2.68 5000033.8983
21.64188 -0.34 2.68 5000029.0698
20.4822 -0.38 2.68 5000027.137
18.57126 -0.42 2.68 5000023.9521
22.97934 -0.62 2.68 5000031.2989
22.97934 -0.64 2.68 5000031.2989
10.811580000000001 -0.72 2.68 5000011.0193
44.74056 -0.9 2.68 5000067.5676
44.74056 -0.92 2.68 5000067.5676
34.65684 -1.3 2.68 5000050.7614
24.53898 -1.38 2.68 5000033.8983
17.77464 -1.64 2.68 5000022.6244
17.77464 -1.66 2.68 5000022.6244
28.590239999999998 -2.56 2.68 5000040.6504
21.64188 -2.64 2.68 5000029.0698
24.53898 -2.92 2.68 5000033.8983
26.38116 -3.34 2.68 5000036.9686
17.06172 -3.56 2.68 5000021.4362
14.82888 -3.62 2.68 5000017.7148
14.386740000000001 -3.64 2.68 5000016.9779
14.386740000000001 -3.66 2.68 5000016.9779
14.386740000000001 -3.68 2.68 5000016.9779
13.979940000000001 -3.7 2.68 5000016.2999
13.979940000000001 -3.72 2.68 5000016.2999
24.53898 -4.38 2.68 5000033.8983
13.979940000000001 -4.58 2.68 5000016.2999
13.979940000000001 -4.6 2.68 5000016.2999
13.979940000000001 -4.62 2.68 5000016.2999
12.08952 -4.74 2.68 5000013.1492
18.57126 -5.36 2.68 5000023.9521
34.65684 5.52 2.66 5000050.7614
19.467180000000003 3.56 2.66 5000025.4453
28.590239999999998 0.32 2.66 5000040.6504
24.53898 0.26 2.66 5000033.8983
22.97934 0.24 2.66 5000031.2989
20.4822 0.16 2.66 5000027.137
12.63288 0.0 2.66 5000014.0548
