VERSION .7
FIELDS x y z rgb
SIZE 4 4 4 4
TYPE F F F F
COUNT 1 1 1 1
WIDTH 841
HEIGHT 1
VIEWPOINT 0 0 0 1 0 0 0
POINTS 841
DATA ascii
10.54333 -13.2 3.0 5000016.2999
10.54333 -13.233333333333333 3.0 5000016.2999
10.522466666666666 -13.266666666666667 3.0 5000015.674
10.438306666666668 -13.966666666666667 3.0 5000013.1492
10.438306666666668 -14.0 3.0 5000013.1492
10.438306666666668 -14.033333333333333 3.0 5000013.1492
10.42463 -14.066666666666666 3.0 5000012.7389
10.411776666666666 -14.533333333333333 3.0 5000012.3533
10.522466666666666 -17.066666666666666 3.0 5000015.674
10.438306666666668 -17.233333333333334 3.0 5000013.1492
10.42463 -17.266666666666666 3.0 5000012.7389
10.411776666666666 -17.333333333333332 3.0 5000012.3533
10.388273333333334 -17.366666666666667 3.0 5000011.6482
10.388273333333334 -17.4 3.0 5000011.6482
10.3775 -17.433333333333334 3.0 5000011.325
10.36731 -17.466666666666665 3.0 5000011.0193
10.36731 -17.5 3.0 5000011.0193
12.252253333333334 2.2666666666666666 2.966666666666667 5000067.5676
12.252253333333334 1.9 2.966666666666667 5000067.5676
11.692046666666666 1.5 2.966666666666667 5000050.7614
11.692046666666666 1.2333333333333334 2.966666666666667 5000050.7614
12.699056666666667 1.0333333333333334 2.966666666666667 5000080.9717
12.252253333333334 0.13333333333333333 2.966666666666667 5000067.5676
12.252253333333334 -0.1 2.966666666666667 5000067.5676
12.252253333333334 -0.13333333333333333 2.966666666666667 5000067.5676
12.699056666666667 -0.6 2.966666666666667 5000080.9717
12.699056666666667 -0.6333333333333333 2.966666666666667 5000080.9717
13.367 -5.933333333333334 2.966666666666667 5000101.01
11.692046666666666 -6.033333333333333 2.966666666666667 5000050.7614
11.129943333333333 -6.166666666666667 2.966666666666667 5000033.8983
11.355013333333334 -6.566666666666666 2.966666666666667 5000040.6504
11.129943333333333 -7.266666666666667 2.966666666666667 5000033.8983
11.50489 -7.566666666666666 2.966666666666667 5000045.1467
11.129943333333333 -7.633333333333334 2.966666666666667 5000033.8983
11.043296666666667 -7.666666666666667 2.966666666666667 5000031.2989
11.043296666666667 -8.233333333333333 2.966666666666667 5000031.2989
10.39968 -8.266666666666667 2.966666666666667 5000011.9904
10.468493333333333 -8.633333333333333 2.966666666666667 5000014.0548
10.468493333333333 -8.666666666666666 2.966666666666667 5000014.0548
10.904566666666666 -8.7 2.966666666666667 5000027.137
10.617283333333333 -12.466666666666667 2.966666666666667 5000018.5185
10.590493333333333 -12.5 2.966666666666667 5000017.7148
10.590493333333333 -12.533333333333333 2.966666666666667 5000017.7148
10.56593 -12.566666666666666 2.966666666666667 5000016.9779
10.438306666666668 -13.933333333333334 2.966666666666667 5000013.1492
10.438306666666668 -13.966666666666667 2.966666666666667 5000013.1492
10.438306666666668 -14.0 2.966666666666667 5000013.1492
10.388273333333334 -15.266666666666667 2.966666666666667 5000011.6482
10.36731 -16.233333333333334 2.966666666666667 5000011.0193
10.357653333333333 -16.266666666666666 2.966666666666667 5000010.7296
10.42463 -17.266666666666666 2.966666666666667 5000012.7389
10.42463 -17.3 2.966666666666667 5000012.7389
10.411776666666666 -17.333333333333332 2.966666666666667 5000012.3533
10.388273333333334 -17.366666666666667 2.966666666666667 5000011.6482
10.388273333333334 -17.4 2.966666666666667 5000011.6482
10.3775 -17.433333333333334 2.966666666666667 5000011.325
10.36731 -17.466666666666665 2.966666666666667 5000011.0193
10.36731 -17.5 2.966666666666667 5000011.0193
10.357653333333333 -17.533333333333335 2.966666666666667 5000010.7296
10.348493333333334 -17.566666666666666 2.966666666666667 5000010.4548
10.316105666666667 -17.633333333333333 2.966666666666667 5000009.48317
10.308928 -17.666666666666668 2.966666666666667 5000009.26784
10.302069 -17.7 2.966666666666667 5000009.06207
10.302069 -17.733333333333334 2.966666666666667 5000009.06207
10.295508333333334 -17.766666666666666 2.966666666666667 5000008.86525
12.252253333333334 2.2666666666666666 2.933333333333333 5000067.5676
12.252253333333334 1.9 2.933333333333333 5000067.5676
11.692046666666666 1.5 2.933333333333333 5000050.7614
12.699056666666667 1.0333333333333334 2.933333333333333 5000080.9717
12.252253333333334 0.13333333333333333 2.933333333333333 5000067.5676
12.252253333333334 0.1 2.933333333333333 5000067.5676
12.252253333333334 -0.1 2.933333333333333 5000067.5676
12.252253333333334 -0.13333333333333333 2.933333333333333 5000067.5676
12.252253333333334 -0.5 2.933333333333333 5000067.5676
12.252253333333334 -5.633333333333334 2.933333333333333 5000067.5676
11.692046666666666 -6.033333333333333 2.933333333333333 5000050.7614
11.50489 -6.3 2.933333333333333 5000045.1467
11.50489 -6.566666666666666 2.933333333333333 5000045.1467
11.043296666666667 -6.7 2.933333333333333 5000031.2989
11.232286666666667 -7.133333333333334 2.933333333333333 5000036.9686
11.129943333333333 -7.266666666666667 2.933333333333333 5000033.8983
13.367 -7.433333333333334 2.933333333333333 5000101.01
11.50489 -7.533333333333333 2.933333333333333 5000045.1467
11.50489 -7.566666666666666 2.933333333333333 5000045.1467
11.129943333333333 -7.633333333333334 2.933333333333333 5000033.8983
11.043296666666667 -7.666666666666667 2.933333333333333 5000031.2989
10.39968 -8.233333333333333 2.933333333333333 5000011.9904
10.388273333333334 -8.266666666666667 2.933333333333333 5000011.6482
10.3775 -8.333333333333334 2.933333333333333 5000011.325
10.754146666666667 -9.8 2.933333333333333 5000022.6244
10.754146666666667 -9.833333333333334 2.933333333333333 5000022.6244
10.617283333333333 -11.0 2.933333333333333 5000018.5185
10.590493333333333 -12.466666666666667 2.933333333333333 5000017.7148
10.590493333333333 -12.5 2.933333333333333 5000017.7148
10.590493333333333 -12.533333333333333 2.933333333333333 5000017.7148
10.56593 -12.566666666666666 2.933333333333333 5000016.9779
10.438306666666668 -13.9 2.933333333333333 5000013.1492
10.438306666666668 -13.933333333333334 2.933333333333333 5000013.1492
10.411776666666666 -14.5 2.933333333333333 5000012.3533
10.388273333333334 -15.266666666666667 2.933333333333333 5000011.6482
10.3775 -15.633333333333333 2.933333333333333 5000011.325
10.3775 -15.666666666666666 2.933333333333333 5000011.325
10.3775 -16.133333333333333 2.933333333333333 5000011.325
10.36731 -16.166666666666668 2.933333333333333 5000011.0193
10.36731 -16.2 2.933333333333333 5000011.0193
10.36731 -16.233333333333334 2.933333333333333 5000011.0193
10.357653333333333 -16.266666666666666 2.933333333333333 5000010.7296
10.357653333333333 -16.3 2.933333333333333 5000010.7296
10.357653333333333 -16.333333333333332 2.933333333333333 5000010.7296
12.252253333333334 2.2666666666666666 2.9 5000067.5676
11.932366666666667 2.1666666666666665 2.9 5000057.971
11.692046666666666 1.5 2.9 5000050.7614
12.252253333333334 0.13333333333333333 2.9 5000067.5676
12.252253333333334 0.1 2.9 5000067.5676
12.252253333333334 -0.13333333333333333 2.9 5000067.5676
11.932366666666667 -5.766666666666667 2.9 5000057.971
11.50489 -6.3 2.9 5000045.1467
12.699056666666667 -6.466666666666667 2.9 5000080.9717
11.50489 -6.566666666666666 2.9 5000045.1467
11.355013333333334 -6.6 2.9 5000040.6504
11.043296666666667 -6.666666666666667 2.9 5000031.2989
13.367 -6.866666666666666 2.9 5000101.01
11.355013333333334 -7.033333333333333 2.9 5000040.6504
11.355013333333334 -7.066666666666666 2.9 5000040.6504
11.129943333333333 -7.266666666666667 2.9 5000033.8983
13.367 -7.433333333333334 2.9 5000101.01
11.692046666666666 -7.533333333333333 2.9 5000050.7614
11.043296666666667 -7.666666666666667 2.9 5000031.2989
11.355013333333334 -8.0 2.9 5000040.6504
10.968993333333334 -8.033333333333333 2.9 5000029.0698
10.71454 -9.633333333333333 2.9 5000021.4362
10.754146666666667 -9.8 2.9 5000022.6244
14.474266666666667 -10.1 2.9 5000134.228
10.798403333333333 -10.2 2.9 5000023.9521
10.798403333333333 -10.233333333333333 2.9 5000023.9521
10.754146666666667 -10.3 2.9 5000022.6244
10.39968 -10.333333333333334 2.9 5000011.9904
10.617283333333333 -10.733333333333333 2.9 5000018.5185
10.54333 -12.166666666666666 2.9 5000016.2999
10.54333 -12.2 2.9 5000016.2999
10.522466666666666 -12.3 2.9 5000015.674
10.522466666666666 -12.333333333333334 2.9 5000015.674
10.590493333333333 -12.533333333333333 2.9 5000017.7148
10.438306666666668 -13.866666666666667 2.9 5000013.1492
10.438306666666668 -13.9 2.9 5000013.1492
10.411776666666666 -14.5 2.9 5000012.3533
10.388273333333334 -15.233333333333333 2.9 5000011.6482
10.388273333333334 -15.266666666666667 2.9 5000011.6482
10.3775 -15.666666666666666 2.9 5000011.325
10.3775 -15.7 2.9 5000011.325
10.3775 -16.1 2.9 5000011.325
12.252253333333334 2.2666666666666666 2.8666666666666667 5000067.5676
11.692046666666666 1.5 2.8666666666666667 5000050.7614
12.252253333333334 -2.933333333333333 2.8666666666666667 5000067.5676
12.252253333333334 -3.0 2.8666666666666667 5000067.5676
11.932366666666667 -5.766666666666667 2.8666666666666667 5000057.971
11.932366666666667 -5.8 2.8666666666666667 5000057.971
11.932366666666667 -5.866666666666666 2.8666666666666667 5000057.971
11.932366666666667 -5.9 2.8666666666666667 5000057.971
11.932366666666667 -5.933333333333334 2.8666666666666667 5000057.971
11.692046666666666 -6.0 2.8666666666666667 5000050.7614
11.692046666666666 -6.033333333333333 2.8666666666666667 5000050.7614
11.692046666666666 -6.3 2.8666666666666667 5000050.7614
11.692046666666666 -6.333333333333333 2.8666666666666667 5000050.7614
12.252253333333334 -6.466666666666667 2.8666666666666667 5000067.5676
11.50489 -6.5 2.8666666666666667 5000045.1467
11.50489 -6.566666666666666 2.8666666666666667 5000045.1467
11.355013333333334 -6.6 2.8666666666666667 5000040.6504
11.043296666666667 -6.666666666666667 2.8666666666666667 5000031.2989
11.355013333333334 -6.966666666666667 2.8666666666666667 5000040.6504
11.355013333333334 -7.033333333333333 2.8666666666666667 5000040.6504
11.355013333333334 -7.066666666666666 2.8666666666666667 5000040.6504
10.71454 -7.266666666666667 2.8666666666666667 5000021.4362
11.355013333333334 -8.0 2.8666666666666667 5000040.6504
10.904566666666666 -8.1 2.8666666666666667 5000027.137
10.904566666666666 -8.133333333333333 2.8666666666666667 5000027.137
10.54333 -8.4 2.8666666666666667 5000016.2999
10.54333 -8.433333333333334 2.8666666666666667 5000016.2999
10.438306666666668 -8.6 2.8666666666666667 5000013.1492
10.348493333333334 -8.8 2.8666666666666667 5000010.4548
10.754146666666667 -9.933333333333334 2.8666666666666667 5000022.6244
10.798403333333333 -10.2 2.8666666666666667 5000023.9521
10.798403333333333 -10.233333333333333 2.8666666666666667 5000023.9521
10.590493333333333 -10.433333333333334 2.8666666666666667 5000017.7148
10.617283333333333 -10.7 2.8666666666666667 5000018.5185
10.617283333333333 -10.733333333333333 2.8666666666666667 5000018.5185
10.617283333333333 -10.966666666666667 2.8666666666666667 5000018.5185
10.617283333333333 -11.0 2.8666666666666667 5000018.5185
10.54333 -12.166666666666666 2.8666666666666667 5000016.2999
10.54333 -12.2 2.8666666666666667 5000016.2999
10.54333 -12.233333333333333 2.8666666666666667 5000016.2999
10.590493333333333 -12.5 2.8666666666666667 5000017.7148
10.590493333333333 -12.533333333333333 2.8666666666666667 5000017.7148
10.438306666666668 -13.8 2.8666666666666667 5000013.1492
10.438306666666668 -13.833333333333334 2.8666666666666667 5000013.1492
10.438306666666668 -13.866666666666667 2.8666666666666667 5000013.1492
10.411776666666666 -14.466666666666667 2.8666666666666667 5000012.3533
10.411776666666666 -14.5 2.8666666666666667 5000012.3533
10.3775 -15.266666666666667 2.8666666666666667 5000011.325
10.36731 -15.666666666666666 2.8666666666666667 5000011.0193
10.36731 -15.7 2.8666666666666667 5000011.0193
10.438306666666668 -15.9 2.8666666666666667 5000013.1492
10.438306666666668 -15.933333333333334 2.8666666666666667 5000013.1492
10.42463 -15.966666666666667 2.8666666666666667 5000012.7389
10.388273333333334 -16.0 2.8666666666666667 5000011.6482
10.388273333333334 -16.033333333333335 2.8666666666666667 5000011.6482
10.388273333333334 -16.066666666666666 2.8666666666666667 5000011.6482
10.3775 -16.1 2.8666666666666667 5000011.325
10.3775 -16.133333333333333 2.8666666666666667 5000011.325
10.36731 -16.166666666666668 2.8666666666666667 5000011.0193
12.252253333333334 2.2666666666666666 2.8333333333333335 5000067.5676
11.692046666666666 1.5 2.8333333333333335 5000050.7614
11.692046666666666 1.1666666666666667 2.8333333333333335 5000050.7614
12.252253333333334 -2.933333333333333 2.8333333333333335 5000067.5676
12.252253333333334 -2.966666666666667 2.8333333333333335 5000067.5676
11.932366666666667 -5.766666666666667 2.8333333333333335 5000057.971
11.932366666666667 -5.8 2.8333333333333335 5000057.971
11.932366666666667 -5.866666666666666 2.8333333333333335 5000057.971
11.932366666666667 -5.9 2.8333333333333335 5000057.971
13.367 -6.2 2.8333333333333335 5000101.01
11.692046666666666 -6.333333333333333 2.8333333333333335 5000050.7614
12.252253333333334 -6.466666666666667 2.8333333333333335 5000067.5676
11.232286666666667 -7.133333333333334 2.8333333333333335 5000036.9686
16.666666666666668 -7.766666666666667 2.8333333333333335 5000200.0
11.355013333333334 -8.0 2.8333333333333335 5000040.6504
10.904566666666666 -8.1 2.8333333333333335 5000027.137
10.904566666666666 -8.133333333333333 2.8333333333333335 5000027.137
10.64662 -8.3 2.8333333333333335 5000019.3986
10.54333 -8.4 2.8333333333333335 5000016.2999
10.438306666666668 -8.566666666666666 2.8333333333333335 5000013.1492
10.348493333333334 -8.833333333333334 2.8333333333333335 5000010.4548
11.50489 -8.966666666666667 2.8333333333333335 5000045.1467
11.50489 -9.0 2.8333333333333335 5000045.1467
10.798403333333333 -9.2 2.8333333333333335 5000023.9521
10.798403333333333 -9.233333333333333 2.8333333333333335 5000023.9521
10.798403333333333 -10.233333333333333 2.8333333333333335 5000023.9521
10.590493333333333 -10.433333333333334 2.8333333333333335 5000017.7148
10.617283333333333 -10.7 2.8333333333333335 5000018.5185
10.64662 -10.933333333333334 2.8333333333333335 5000019.3986
10.54333 -12.2 2.8333333333333335 5000016.2999
10.54333 -12.233333333333333 2.8333333333333335 5000016.2999
10.54333 -12.266666666666667 2.8333333333333335 5000016.2999
10.64662 -12.4 2.8333333333333335 5000019.3986
10.64662 -12.433333333333334 2.8333333333333335 5000019.3986
10.56593 -12.5 2.8333333333333335 5000016.9779
10.56593 -12.533333333333333 2.8333333333333335 5000016.9779
10.438306666666668 -13.766666666666667 2.8333333333333335 5000013.1492
10.438306666666668 -13.8 2.8333333333333335 5000013.1492
10.411776666666666 -14.466666666666667 2.8333333333333335 5000012.3533
10.56593 -14.733333333333333 2.8333333333333335 5000016.9779
10.54333 -14.766666666666667 2.8333333333333335 5000016.2999
10.54333 -14.8 2.8333333333333335 5000016.2999
10.54333 -14.833333333333334 2.8333333333333335 5000016.2999
10.503143333333334 -14.9 2.8333333333333335 5000015.0943
10.4852 -14.933333333333334 2.8333333333333335 5000014.556
10.4852 -14.966666666666667 2.8333333333333335 5000014.556
10.3775 -15.233333333333333 2.8333333333333335 5000011.325
10.3775 -15.266666666666667 2.8333333333333335 5000011.325
10.3775 -15.633333333333333 2.8333333333333335 5000011.325
10.36731 -15.733333333333333 2.8333333333333335 5000011.0193
10.388273333333334 -16.033333333333335 2.8333333333333335 5000011.6482
10.3775 -16.066666666666666 2.8333333333333335 5000011.325
10.3775 -16.1 2.8333333333333335 5000011.325
10.39968 -16.466666666666665 2.8333333333333335 5000011.9904
10.388273333333334 -16.5 2.8333333333333335 5000011.6482
12.252253333333334 2.2666666666666666 2.8 5000067.5676
11.692046666666666 1.6 2.8 5000050.7614
11.692046666666666 1.5 2.8 5000050.7614
11.692046666666666 1.1666666666666667 2.8 5000050.7614
10.848176666666667 -2.066666666666667 2.8 5000025.4453
13.367 -6.066666666666666 2.8 5000101.01
11.692046666666666 -6.2 2.8 5000050.7614
11.692046666666666 -6.3 2.8 5000050.7614
11.692046666666666 -6.333333333333333 2.8 5000050.7614
11.50489 -6.466666666666667 2.8 5000045.1467
11.355013333333334 -6.6 2.8 5000040.6504
11.129943333333333 -7.533333333333333 2.8 5000033.8983
11.129943333333333 -7.866666666666666 2.8 5000033.8983
11.355013333333334 -8.0 2.8 5000040.6504
10.968993333333334 -8.1 2.8 5000029.0698
10.904566666666666 -8.133333333333333 2.8 5000027.137
10.904566666666666 -8.2 2.8 5000027.137
10.64662 -8.3 2.8 5000019.3986
10.798403333333333 -9.2 2.8 5000023.9521
10.56593 -9.4 2.8 5000016.9779
10.522466666666666 -9.6 2.8 5000015.674
10.522466666666666 -9.633333333333333 2.8 5000015.674
10.71454 -10.0 2.8 5000021.4362
10.617283333333333 -10.7 2.8 5000018.5185
10.64662 -10.866666666666667 2.8 5000019.3986
10.64662 -10.9 2.8 5000019.3986
10.56593 -12.233333333333333 2.8 5000016.9779
10.54333 -12.266666666666667 2.8 5000016.2999
10.56593 -12.566666666666666 2.8 5000016.9779
10.411776666666666 -13.633333333333333 2.8 5000012.3533
10.54333 -14.833333333333334 2.8 5000016.2999
10.4852 -14.933333333333334 2.8 5000014.556
10.3775 -15.233333333333333 2.8 5000011.325
10.36731 -15.733333333333333 2.8 5000011.0193
10.39968 -16.433333333333334 2.8 5000011.9904
10.39968 -16.466666666666665 2.8 5000011.9904
10.388273333333334 -16.5 2.8 5000011.6482
10.388273333333334 -16.533333333333335 2.8 5000011.6482
10.388273333333334 -16.566666666666666 2.8 5000011.6482
10.3775 -17.766666666666666 2.8 5000011.325
10.3775 -17.8 2.8 5000011.325
10.3775 -17.833333333333332 2.8 5000011.325
10.36731 -17.866666666666667 2.8 5000011.0193
11.692046666666666 1.6 2.7666666666666666 5000050.7614
11.692046666666666 1.5666666666666667 2.7666666666666666 5000050.7614
11.692046666666666 1.5 2.7666666666666666 5000050.7614
11.692046666666666 1.4666666666666666 2.7666666666666666 5000050.7614
11.692046666666666 1.1666666666666667 2.7666666666666666 5000050.7614
11.932366666666667 -1.9333333333333333 2.7666666666666666 5000057.971
10.848176666666667 -2.066666666666667 2.7666666666666666 5000025.4453
14.474266666666667 -6.033333333333333 2.7666666666666666 5000134.228
14.474266666666667 -6.066666666666666 2.7666666666666666 5000134.228
13.367 -6.1 2.7666666666666666 5000101.01
11.692046666666666 -6.2 2.7666666666666666 5000050.7614
11.692046666666666 -6.3 2.7666666666666666 5000050.7614
11.692046666666666 -6.333333333333333 2.7666666666666666 5000050.7614
11.50489 -6.466666666666667 2.7666666666666666 5000045.1467
11.232286666666667 -7.066666666666666 2.7666666666666666 5000036.9686
11.129943333333333 -7.833333333333333 2.7666666666666666 5000033.8983
10.56593 -9.366666666666667 2.7666666666666666 5000016.9779
10.56593 -9.4 2.7666666666666666 5000016.9779
10.522466666666666 -9.6 2.7666666666666666 5000015.674
10.754146666666667 -10.0 2.7666666666666666 5000022.6244
10.798403333333333 -10.033333333333333 2.7666666666666666 5000023.9521
10.754146666666667 -10.066666666666666 2.7666666666666666 5000022.6244
10.56593 -12.233333333333333 2.7666666666666666 5000016.9779
10.56593 -12.266666666666667 2.7666666666666666 5000016.9779
10.54333 -12.3 2.7666666666666666 5000016.2999
10.54333 -12.333333333333334 2.7666666666666666 5000016.2999
10.64662 -13.333333333333334 2.7666666666666666 5000019.3986
10.438306666666668 -13.533333333333333 2.7666666666666666 5000013.1492
10.438306666666668 -13.6 2.7666666666666666 5000013.1492
10.411776666666666 -13.633333333333333 2.7666666666666666 5000012.3533
10.411776666666666 -13.666666666666666 2.7666666666666666 5000012.3533
10.39968 -13.733333333333333 2.7666666666666666 5000011.9904
10.411776666666666 -13.766666666666667 2.7666666666666666 5000012.3533
10.39968 -13.8 2.7666666666666666 5000011.9904
10.39968 -14.4 2.7666666666666666 5000011.9904
10.39968 -14.433333333333334 2.7666666666666666 5000011.9904
10.388273333333334 -15.2 2.7666666666666666 5000011.6482
10.388273333333334 -15.233333333333333 2.7666666666666666 5000011.6482
10.388273333333334 -15.666666666666666 2.7666666666666666 5000011.6482
10.36731 -15.733333333333333 2.7666666666666666 5000011.0193
10.36731 -15.766666666666667 2.7666666666666666 5000011.0193
10.39968 -16.466666666666665 2.7666666666666666 5000011.9904
10.388273333333334 -16.5 2.7666666666666666 5000011.6482
10.388273333333334 -16.533333333333335 2.7666666666666666 5000011.6482
10.388273333333334 -16.566666666666666 2.7666666666666666 5000011.6482
10.3775 -17.766666666666666 2.7666666666666666 5000011.325
10.3775 -17.8 2.7666666666666666 5000011.325
11.692046666666666 1.4666666666666666 2.7333333333333334 5000050.7614
10.848176666666667 -2.066666666666667 2.7333333333333334 5000025.4453
11.692046666666666 -2.7 2.7333333333333334 5000050.7614
11.932366666666667 -4.866666666666666 2.7333333333333334 5000057.971
11.692046666666666 -4.933333333333334 2.7333333333333334 5000050.7614
11.692046666666666 -4.966666666666667 2.7333333333333334 5000050.7614
12.699056666666667 -6.166666666666667 2.7333333333333334 5000080.9717
11.692046666666666 -6.2 2.7333333333333334 5000050.7614
12.699056666666667 -6.866666666666666 2.7333333333333334 5000080.9717
12.699056666666667 -6.933333333333334 2.7333333333333334 5000080.9717
11.232286666666667 -7.066666666666666 2.7333333333333334 5000036.9686
11.232286666666667 -7.1 2.7333333333333334 5000036.9686
11.129943333333333 -7.833333333333333 2.7333333333333334 5000033.8983
11.129943333333333 -7.866666666666666 2.7333333333333334 5000033.8983
10.54333 -9.033333333333333 2.7333333333333334 5000016.2999
10.71454 -10.133333333333333 2.7333333333333334 5000021.4362
10.71454 -11.033333333333333 2.7333333333333334 5000021.4362
10.71454 -11.066666666666666 2.7333333333333334 5000021.4362
10.54333 -12.3 2.7333333333333334 5000016.2999
10.54333 -12.333333333333334 2.7333333333333334 5000016.2999
10.54333 -12.366666666666667 2.7333333333333334 5000016.2999
10.438306666666668 -13.5 2.7333333333333334 5000013.1492
10.438306666666668 -13.533333333333333 2.7333333333333334 5000013.1492
10.42463 -13.6 2.7333333333333334 5000012.7389
10.411776666666666 -13.633333333333333 2.7333333333333334 5000012.3533
10.39968 -13.7 2.7333333333333334 5000011.9904
10.388273333333334 -15.2 2.7333333333333334 5000011.6482
10.388273333333334 -15.666666666666666 2.7333333333333334 5000011.6482
10.36731 -15.766666666666667 2.7333333333333334 5000011.0193
10.39968 -16.466666666666665 2.7333333333333334 5000011.9904
10.388273333333334 -16.5 2.7333333333333334 5000011.6482
10.388273333333334 -16.533333333333335 2.7333333333333334 5000011.6482
10.3775 -16.566666666666666 2.7333333333333334 5000011.325
11.692046666666666 1.4666666666666666 2.7 5000050.7614
11.692046666666666 -2.533333333333333 2.7 5000050.7614
11.692046666666666 -3.2333333333333334 2.7 5000050.7614
11.932366666666667 -4.866666666666666 2.7 5000057.971
11.692046666666666 -4.933333333333334 2.7 5000050.7614
11.692046666666666 -4.966666666666667 2.7 5000050.7614
11.692046666666666 -6.2 2.7 5000050.7614
11.50489 -6.266666666666667 2.7 5000045.1467
11.50489 -6.3 2.7 5000045.1467
11.692046666666666 -6.333333333333333 2.7 5000050.7614
11.50489 -6.366666666666666 2.7 5000045.1467
13.367 -6.4 2.7 5000101.01
11.50489 -6.533333333333333 2.7 5000045.1467
14.474266666666667 -6.833333333333333 2.7 5000134.228
12.699056666666667 -6.866666666666666 2.7 5000080.9717
11.232286666666667 -7.066666666666666 2.7 5000036.9686
11.232286666666667 -7.1 2.7 5000036.9686
11.043296666666667 -7.7 2.7 5000031.2989
11.692046666666666 -8.566666666666666 2.7 5000050.7614
11.355013333333334 -8.666666666666666 2.7 5000040.6504
10.904566666666666 -8.766666666666667 2.7 5000027.137
10.848176666666667 -8.8 2.7 5000025.4453
10.71454 -8.9 2.7 5000021.4362
10.64662 -8.933333333333334 2.7 5000019.3986
10.522466666666666 -9.6 2.7 5000015.674
10.798403333333333 -10.0 2.7 5000023.9521
10.71454 -10.1 2.7 5000021.4362
10.71454 -10.133333333333333 2.7 5000021.4362
10.522466666666666 -10.366666666666667 2.7 5000015.674
10.798403333333333 -10.5 2.7 5000023.9521
10.678886666666667 -10.533333333333333 2.7 5000020.3666
10.54333 -12.3 2.7 5000016.2999
10.54333 -12.333333333333334 2.7 5000016.2999
10.54333 -12.366666666666667 2.7 5000016.2999
10.522466666666666 -12.4 2.7 5000015.674
10.54333 -12.666666666666666 2.7 5000016.2999
10.388273333333334 -12.733333333333333 2.7 5000011.6482
10.3775 -12.766666666666667 2.7 5000011.325
10.438306666666668 -13.5 2.7 5000013.1492
10.411776666666666 -14.366666666666667 2.7 5000012.3533
10.411776666666666 -14.4 2.7 5000012.3533
10.36731 -15.766666666666667 2.7 5000011.0193
10.388273333333334 -16.566666666666666 2.7 5000011.6482
10.3775 -16.6 2.7 5000011.325
10.36731 -17.866666666666667 2.7 5000011.0193
10.36731 -17.9 2.7 5000011.0193
11.50489 1.9333333333333333 2.6666666666666665 5000045.1467
11.50489 1.9 2.6666666666666665 5000045.1467
11.692046666666666 -4.933333333333334 2.6666666666666665 5000050.7614
11.692046666666666 -6.266666666666667 2.6666666666666665 5000050.7614
11.692046666666666 -6.3 2.6666666666666665 5000050.7614
11.692046666666666 -6.333333333333333 2.6666666666666665 5000050.7614
11.50489 -6.5 2.6666666666666665 5000045.1467
11.50489 -6.533333333333333 2.6666666666666665 5000045.1467
12.699056666666667 -6.933333333333334 2.6666666666666665 5000080.9717
12.252253333333334 -6.966666666666667 2.6666666666666665 5000067.5676
11.129943333333333 -7.1 2.6666666666666665 5000033.8983
11.129943333333333 -7.466666666666667 2.6666666666666665 5000033.8983
10.798403333333333 -7.566666666666666 2.6666666666666665 5000023.9521
11.043296666666667 -7.733333333333333 2.6666666666666665 5000031.2989
11.692046666666666 -8.533333333333333 2.6666666666666665 5000050.7614
11.692046666666666 -8.566666666666666 2.6666666666666665 5000050.7614
11.355013333333334 -8.666666666666666 2.6666666666666665 5000040.6504
10.904566666666666 -8.766666666666667 2.6666666666666665 5000027.137
10.848176666666667 -8.8 2.6666666666666665 5000025.4453
10.848176666666667 -8.833333333333334 2.6666666666666665 5000025.4453
10.54333 -9.033333333333333 2.6666666666666665 5000016.2999
10.54333 -9.066666666666666 2.6666666666666665 5000016.2999
10.438306666666668 -9.2 2.6666666666666665 5000013.1492
10.438306666666668 -9.233333333333333 2.6666666666666665 5000013.1492
10.438306666666668 -9.266666666666667 2.6666666666666665 5000013.1492
10.71454 -10.1 2.6666666666666665 5000021.4362
10.71454 -10.133333333333333 2.6666666666666665 5000021.4362
10.64662 -10.566666666666666 2.6666666666666665 5000019.3986
10.617283333333333 -10.6 2.6666666666666665 5000018.5185
10.617283333333333 -10.633333333333333 2.6666666666666665 5000018.5185
10.56593 -10.7 2.6666666666666665 5000016.9779
10.54333 -10.733333333333333 2.6666666666666665 5000016.2999
10.54333 -12.366666666666667 2.6666666666666665 5000016.2999
10.54333 -12.4 2.6666666666666665 5000016.2999
10.522466666666666 -12.433333333333334 2.6666666666666665 5000015.674
10.3775 -12.8 2.6666666666666665 5000011.325
10.3775 -12.833333333333334 2.6666666666666665 5000011.325
10.42463 -13.6 2.6666666666666665 5000012.7389
10.388273333333334 -15.166666666666666 2.6666666666666665 5000011.6482
10.388273333333334 -15.2 2.6666666666666665 5000011.6482
10.357653333333333 -15.766666666666667 2.6666666666666665 5000010.7296
10.357653333333333 -15.8 2.6666666666666665 5000010.7296
10.388273333333334 -16.566666666666666 2.6666666666666665 5000011.6482
10.3775 -16.6 2.6666666666666665 5000011.325
10.54333 -17.6 2.6666666666666665 5000016.2999
10.54333 -17.633333333333333 2.6666666666666665 5000016.2999
10.36731 -17.9 2.6666666666666665 5000011.0193
11.50489 1.9333333333333333 2.6333333333333333 5000045.1467
11.50489 1.9 2.6333333333333333 5000045.1467
11.50489 1.0333333333333334 2.6333333333333333 5000045.1467
10.848176666666667 -2.066666666666667 2.6333333333333333 5000025.4453
11.50489 -6.533333333333333 2.6333333333333333 5000045.1467
13.367 -6.733333333333333 2.6333333333333333 5000101.01
13.367 -6.766666666666667 2.6333333333333333 5000101.01
12.252253333333334 -6.933333333333334 2.6333333333333333 5000067.5676
12.252253333333334 -6.966666666666667 2.6333333333333333 5000067.5676
11.232286666666667 -7.1 2.6333333333333333 5000036.9686
11.232286666666667 -7.133333333333334 2.6333333333333333 5000036.9686
11.129943333333333 -7.366666666666666 2.6333333333333333 5000033.8983
11.129943333333333 -7.4 2.6333333333333333 5000033.8983
11.129943333333333 -7.433333333333334 2.6333333333333333 5000033.8983
10.798403333333333 -7.566666666666666 2.6333333333333333 5000023.9521
11.043296666666667 -7.733333333333333 2.6333333333333333 5000031.2989
12.252253333333334 -8.533333333333333 2.6333333333333333 5000067.5676
11.692046666666666 -8.566666666666666 2.6333333333333333 5000050.7614
11.355013333333334 -8.633333333333333 2.6333333333333333 5000040.6504
11.355013333333334 -8.666666666666666 2.6333333333333333 5000040.6504
10.904566666666666 -8.766666666666667 2.6333333333333333 5000027.137
10.848176666666667 -8.8 2.6333333333333333 5000025.4453
10.848176666666667 -8.833333333333334 2.6333333333333333 5000025.4453
10.798403333333333 -8.866666666666667 2.6333333333333333 5000023.9521
10.54333 -9.033333333333333 2.6333333333333333 5000016.2999
10.56593 -9.066666666666666 2.6333333333333333 5000016.9779
10.56593 -9.1 2.6333333333333333 5000016.9779
10.438306666666668 -9.2 2.6333333333333333 5000013.1492
10.438306666666668 -9.233333333333333 2.6333333333333333 5000013.1492
10.438306666666668 -9.266666666666667 2.6333333333333333 5000013.1492
10.617283333333333 -10.566666666666666 2.6333333333333333 5000018.5185
10.617283333333333 -10.6 2.6333333333333333 5000018.5185
10.617283333333333 -10.633333333333333 2.6333333333333333 5000018.5185
10.590493333333333 -10.7 2.6333333333333333 5000017.7148
10.54333 -10.733333333333333 2.6333333333333333 5000016.2999
10.468493333333333 -10.833333333333334 2.6333333333333333 5000014.0548
10.468493333333333 -10.866666666666667 2.6333333333333333 5000014.0548
10.54333 -12.4 2.6333333333333333 5000016.2999
10.522466666666666 -12.433333333333334 2.6333333333333333 5000015.674
10.438306666666668 -13.666666666666666 2.6333333333333333 5000013.1492
10.4529 -13.733333333333333 2.6333333333333333 5000013.587
10.438306666666668 -13.766666666666667 2.6333333333333333 5000013.1492
10.438306666666668 -13.8 2.6333333333333333 5000013.1492
10.438306666666668 -13.833333333333334 2.6333333333333333 5000013.1492
10.42463 -14.066666666666666 2.6333333333333333 5000012.7389
10.411776666666666 -14.166666666666666 2.6333333333333333 5000012.3533
10.411776666666666 -14.333333333333334 2.6333333333333333 5000012.3533
10.357653333333333 -15.8 2.6333333333333333 5000010.7296
10.388273333333334 -16.533333333333335 2.6333333333333333 5000011.6482
10.3775 -16.566666666666666 2.6333333333333333 5000011.325
10.3775 -16.6 2.6333333333333333 5000011.325
10.848176666666667 -2.066666666666667 2.6 5000025.4453
11.692046666666666 -4.966666666666667 2.6 5000050.7614
11.50489 -6.466666666666667 2.6 5000045.1467
11.50489 -6.5 2.6 5000045.1467
11.50489 -6.533333333333333 2.6 5000045.1467
14.474266666666667 -6.766666666666667 2.6 5000134.228
12.252253333333334 -6.933333333333334 2.6 5000067.5676
12.252253333333334 -6.966666666666667 2.6 5000067.5676
13.367 -7.1 2.6 5000101.01
13.367 -7.133333333333334 2.6 5000101.01
11.129943333333333 -7.366666666666666 2.6 5000033.8983
11.129943333333333 -7.4 2.6 5000033.8983
11.129943333333333 -7.433333333333334 2.6 5000033.8983
11.043296666666667 -7.466666666666667 2.6 5000031.2989
10.798403333333333 -7.566666666666666 2.6 5000023.9521
10.904566666666666 -8.1 2.6 5000027.137
10.904566666666666 -8.133333333333333 2.6 5000027.137
11.355013333333334 -8.633333333333333 2.6 5000040.6504
11.355013333333334 -8.666666666666666 2.6 5000040.6504
10.848176666666667 -8.833333333333334 2.6 5000025.4453
10.798403333333333 -8.866666666666667 2.6 5000023.9521
10.56593 -9.066666666666666 2.6 5000016.9779
10.617283333333333 -10.6 2.6 5000018.5185
10.617283333333333 -10.633333333333333 2.6 5000018.5185
10.590493333333333 -10.666666666666666 2.6 5000017.7148
10.468493333333333 -10.833333333333334 2.6 5000014.0548
10.468493333333333 -10.866666666666667 2.6 5000014.0548
10.468493333333333 -10.9 2.6 5000014.0548
10.146231 -11.0 2.6 5000004.38693
10.146231 -11.033333333333333 2.6 5000004.38693
10.522466666666666 -12.4 2.6 5000015.674
10.42463 -14.0 2.6 5000012.7389
10.42463 -14.033333333333333 2.6 5000012.7389
10.42463 -14.066666666666666 2.6 5000012.7389
10.42463 -14.1 2.6 5000012.7389
10.388273333333334 -15.133333333333333 2.6 5000011.6482
10.388273333333334 -15.166666666666666 2.6 5000011.6482
10.357653333333333 -15.8 2.6 5000010.7296
10.357653333333333 -15.833333333333334 2.6 5000010.7296
10.388273333333334 -16.533333333333335 2.6 5000011.6482
10.388273333333334 -16.566666666666666 2.6 5000011.6482
10.388273333333334 -16.6 2.6 5000011.6482
10.3775 -16.633333333333333 2.6 5000011.325
11.932366666666667 -4.866666666666666 2.566666666666667 5000057.971
11.50489 -4.9 2.566666666666667 5000045.1467
11.50489 -4.966666666666667 2.566666666666667 5000045.1467
11.50489 -6.533333333333333 2.566666666666667 5000045.1467
11.50489 -6.633333333333334 2.566666666666667 5000045.1467
11.50489 -6.666666666666667 2.566666666666667 5000045.1467
13.367 -6.7 2.566666666666667 5000101.01
14.474266666666667 -6.766666666666667 2.566666666666667 5000134.228
11.692046666666666 -6.866666666666666 2.566666666666667 5000050.7614
12.252253333333334 -6.933333333333334 2.566666666666667 5000067.5676
12.252253333333334 -6.966666666666667 2.566666666666667 5000067.5676
13.367 -7.1 2.566666666666667 5000101.01
13.367 -7.133333333333334 2.566666666666667 5000101.01
13.367 -7.166666666666667 2.566666666666667 5000101.01
11.129943333333333 -7.366666666666666 2.566666666666667 5000033.8983
11.043296666666667 -7.4 2.566666666666667 5000031.2989
11.043296666666667 -7.466666666666667 2.566666666666667 5000031.2989
16.666666666666668 -8.466666666666667 2.566666666666667 5000200.0
10.617283333333333 -8.9 2.566666666666667 5000018.5185
10.302069 -8.933333333333334 2.566666666666667 5000009.06207
10.302069 -8.966666666666667 2.566666666666667 5000009.06207
10.617283333333333 -10.633333333333333 2.566666666666667 5000018.5185
10.617283333333333 -10.666666666666666 2.566666666666667 5000018.5185
10.468493333333333 -10.833333333333334 2.566666666666667 5000014.0548
10.468493333333333 -10.866666666666667 2.566666666666667 5000014.0548
10.54333 -11.733333333333333 2.566666666666667 5000016.2999
10.54333 -11.766666666666667 2.566666666666667 5000016.2999
10.590493333333333 -12.1 2.566666666666667 5000017.7148
10.590493333333333 -12.133333333333333 2.566666666666667 5000017.7148
10.56593 -12.166666666666666 2.566666666666667 5000016.9779
10.56593 -12.2 2.566666666666667 5000016.9779
10.54333 -12.233333333333333 2.566666666666667 5000016.2999
10.54333 -12.266666666666667 2.566666666666667 5000016.2999
10.54333 -12.466666666666667 2.566666666666667 5000016.2999
10.4529 -13.5 2.566666666666667 5000013.587
10.4529 -13.533333333333333 2.566666666666667 5000013.587
10.42463 -14.066666666666666 2.566666666666667 5000012.7389
10.411776666666666 -14.3 2.566666666666667 5000012.3533
10.388273333333334 -15.133333333333333 2.566666666666667 5000011.6482
10.357653333333333 -15.8 2.566666666666667 5000010.7296
10.388273333333334 -16.6 2.566666666666667 5000011.6482
10.3775 -16.633333333333333 2.566666666666667 5000011.325
10.3775 -16.666666666666668 2.566666666666667 5000011.325
11.932366666666667 -4.866666666666666 2.533333333333333 5000057.971
11.50489 -4.9 2.533333333333333 5000045.1467
11.50489 -4.966666666666667 2.533333333333333 5000045.1467
11.50489 -6.633333333333334 2.533333333333333 5000045.1467
11.50489 -6.666666666666667 2.533333333333333 5000045.1467
11.50489 -6.7 2.533333333333333 5000045.1467
11.355013333333334 -6.866666666666666 2.533333333333333 5000040.6504
11.692046666666666 -6.933333333333334 2.533333333333333 5000050.7614
11.355013333333334 -6.966666666666667 2.533333333333333 5000040.6504
13.367 -7.1 2.533333333333333 5000101.01
13.367 -7.133333333333334 2.533333333333333 5000101.01
13.367 -7.166666666666667 2.533333333333333 5000101.01
11.043296666666667 -7.366666666666666 2.533333333333333 5000031.2989
11.043296666666667 -7.4 2.533333333333333 5000031.2989
10.968993333333334 -7.466666666666667 2.533333333333333 5000029.0698
10.968993333333334 -8.0 2.533333333333333 5000029.0698
10.968993333333334 -8.033333333333333 2.533333333333333 5000029.0698
10.71454 -9.933333333333334 2.533333333333333 5000021.4362
10.522466666666666 -11.266666666666667 2.533333333333333 5000015.674
14.474266666666667 -11.5 2.533333333333333 5000134.228
10.848176666666667 -11.933333333333334 2.533333333333333 5000025.4453
10.848176666666667 -12.0 2.533333333333333 5000025.4453
10.54333 -12.133333333333333 2.533333333333333 5000016.2999
10.56593 -12.233333333333333 2.533333333333333 5000016.9779
10.54333 -12.266666666666667 2.533333333333333 5000016.2999
10.54333 -12.3 2.533333333333333 5000016.2999
12.699056666666667 -12.533333333333333 2.533333333333333 5000080.9717
11.932366666666667 -12.6 2.533333333333333 5000057.971
11.932366666666667 -12.633333333333333 2.533333333333333 5000057.971
11.692046666666666 -12.666666666666666 2.533333333333333 5000050.7614
10.54333 -12.733333333333333 2.533333333333333 5000016.2999
10.522466666666666 -12.766666666666667 2.533333333333333 5000015.674
10.522466666666666 -12.833333333333334 2.533333333333333 5000015.674
10.503143333333334 -12.9 2.533333333333333 5000015.0943
10.503143333333334 -13.4 2.533333333333333 5000015.0943
10.468493333333333 -13.433333333333334 2.533333333333333 5000014.0548
10.468493333333333 -13.466666666666667 2.533333333333333 5000014.0548
10.468493333333333 -13.5 2.533333333333333 5000014.0548
10.4529 -13.533333333333333 2.533333333333333 5000013.587
10.36731 -15.733333333333333 2.533333333333333 5000011.0193
10.36731 -15.766666666666667 2.533333333333333 5000011.0193
10.36731 -15.8 2.533333333333333 5000011.0193
10.357653333333333 -15.833333333333334 2.533333333333333 5000010.7296
11.129943333333333 -1.8666666666666667 2.5 5000033.8983
11.355013333333334 -6.033333333333333 2.5 5000040.6504
11.50489 -6.666666666666667 2.5 5000045.1467
11.355013333333334 -6.933333333333334 2.5 5000040.6504
13.367 -7.1 2.5 5000101.01
13.367 -7.166666666666667 2.5 5000101.01
11.043296666666667 -7.366666666666666 2.5 5000031.2989
11.043296666666667 -7.4 2.5 5000031.2989
11.043296666666667 -7.466666666666667 2.5 5000031.2989
10.848176666666667 -7.5 2.5 5000025.4453
10.968993333333334 -8.0 2.5 5000029.0698
10.968993333333334 -8.033333333333333 2.5 5000029.0698
10.165837333333334 -9.266666666666667 2.5 5000004.97512
11.355013333333334 -9.666666666666666 2.5 5000040.6504
10.71454 -9.933333333333334 2.5 5000021.4362
10.71454 -9.966666666666667 2.5 5000021.4362
10.438306666666668 -10.3 2.5 5000013.1492
10.56593 -10.433333333333334 2.5 5000016.9779
10.617283333333333 -10.666666666666666 2.5 5000018.5185
10.848176666666667 -11.966666666666667 2.5 5000025.4453
10.848176666666667 -12.0 2.5 5000025.4453
10.54333 -12.1 2.5 5000016.2999
10.54333 -12.133333333333333 2.5 5000016.2999
10.54333 -12.266666666666667 2.5 5000016.2999
10.54333 -12.3 2.5 5000016.2999
10.522466666666666 -12.333333333333334 2.5 5000015.674
10.522466666666666 -12.366666666666667 2.5 5000015.674
11.932366666666667 -12.6 2.5 5000057.971
11.932366666666667 -12.633333333333333 2.5 5000057.971
11.692046666666666 -12.666666666666666 2.5 5000050.7614
10.54333 -12.7 2.5 5000016.2999
10.54333 -12.733333333333333 2.5 5000016.2999
10.522466666666666 -12.766666666666667 2.5 5000015.674
10.522466666666666 -12.8 2.5 5000015.674
10.522466666666666 -12.833333333333334 2.5 5000015.674
10.522466666666666 -12.866666666666667 2.5 5000015.674
10.503143333333334 -12.9 2.5 5000015.0943
10.503143333333334 -12.933333333333334 2.5 5000015.0943
10.438306666666668 -12.966666666666667 2.5 5000013.1492
10.42463 -13.0 2.5 5000012.7389
10.4852 -13.066666666666666 2.5 5000014.556
10.4852 -13.1 2.5 5000014.556
10.4852 -13.2 2.5 5000014.556
10.4529 -13.233333333333333 2.5 5000013.587
10.617283333333333 -13.266666666666667 2.5 5000018.5185
10.438306666666668 -13.6 2.5 5000013.1492
10.438306666666668 -13.633333333333333 2.5 5000013.1492
10.438306666666668 -13.666666666666666 2.5 5000013.1492
10.388273333333334 -13.766666666666667 2.5 5000011.6482
10.3775 -13.8 2.5 5000011.325
10.3775 -13.833333333333334 2.5 5000011.325
10.3775 -13.866666666666667 2.5 5000011.325
10.468493333333333 -15.5 2.5 5000014.0548
10.468493333333333 -15.533333333333333 2.5 5000014.0548
10.4529 -15.566666666666666 2.5 5000013.587
10.42463 -15.6 2.5 5000012.7389
10.411776666666666 -15.633333333333333 2.5 5000012.3533
10.39968 -15.666666666666666 2.5 5000011.9904
10.3775 -15.7 2.5 5000011.325
10.36731 -15.733333333333333 2.5 5000011.0193
10.36731 -15.766666666666667 2.5 5000011.0193
10.36731 -15.8 2.5 5000011.0193
10.36731 -15.833333333333334 2.5 5000011.0193
10.3775 -16.633333333333333 2.5 5000011.325
10.3775 -16.666666666666668 2.5 5000011.325
11.355013333333334 -6.9 2.466666666666667 5000040.6504
11.355013333333334 -6.933333333333334 2.466666666666667 5000040.6504
11.043296666666667 -7.4 2.466666666666667 5000031.2989
10.848176666666667 -7.5 2.466666666666667 5000025.4453
11.043296666666667 -8.033333333333333 2.466666666666667 5000031.2989
16.666666666666668 -8.133333333333333 2.466666666666667 5000200.0
10.904566666666666 -8.5 2.466666666666667 5000027.137
10.848176666666667 -8.6 2.466666666666667 5000025.4453
11.355013333333334 -9.666666666666666 2.466666666666667 5000040.6504
10.71454 -9.933333333333334 2.466666666666667 5000021.4362
10.71454 -9.966666666666667 2.466666666666667 5000021.4362
10.71454 -10.0 2.466666666666667 5000021.4362
10.438306666666668 -10.3 2.466666666666667 5000013.1492
10.4529 -10.333333333333334 2.466666666666667 5000013.587
10.590493333333333 -10.4 2.466666666666667 5000017.7148
10.56593 -10.433333333333334 2.466666666666667 5000016.9779
10.36731 -10.5 2.466666666666667 5000011.0193
10.36731 -10.533333333333333 2.466666666666667 5000011.0193
10.388273333333334 -10.8 2.466666666666667 5000011.6482
10.503143333333334 -11.1 2.466666666666667 5000015.0943
16.666666666666668 -11.366666666666667 2.466666666666667 5000200.0
16.666666666666668 -11.4 2.466666666666667 5000200.0
16.666666666666668 -11.433333333333334 2.466666666666667 5000200.0
11.043296666666667 -11.8 2.466666666666667 5000031.2989
11.129943333333333 -11.833333333333334 2.466666666666667 5000033.8983
10.848176666666667 -11.933333333333334 2.466666666666667 5000025.4453
10.848176666666667 -11.966666666666667 2.466666666666667 5000025.4453
10.522466666666666 -12.1 2.466666666666667 5000015.674
10.522466666666666 -12.133333333333333 2.466666666666667 5000015.674
10.54333 -12.233333333333333 2.466666666666667 5000016.2999
10.54333 -12.266666666666667 2.466666666666667 5000016.2999
10.522466666666666 -12.3 2.466666666666667 5000015.674
10.522466666666666 -12.333333333333334 2.466666666666667 5000015.674
10.522466666666666 -12.366666666666667 2.466666666666667 5000015.674
10.54333 -12.733333333333333 2.466666666666667 5000016.2999
10.522466666666666 -12.766666666666667 2.466666666666667 5000015.674
10.522466666666666 -12.866666666666667 2.466666666666667 5000015.674
10.503143333333334 -12.9 2.466666666666667 5000015.0943
10.503143333333334 -12.933333333333334 2.466666666666667 5000015.0943
10.438306666666668 -12.966666666666667 2.466666666666667 5000013.1492
10.42463 -13.0 2.466666666666667 5000012.7389
10.4852 -13.1 2.466666666666667 5000014.556
10.4852 -13.133333333333333 2.466666666666667 5000014.556
10.4852 -13.166666666666666 2.466666666666667 5000014.556
10.4852 -13.2 2.466666666666667 5000014.556
10.617283333333333 -13.3 2.466666666666667 5000018.5185
10.4529 -13.533333333333333 2.466666666666667 5000013.587
10.4529 -13.566666666666666 2.466666666666667 5000013.587
10.438306666666668 -13.6 2.466666666666667 5000013.1492
10.438306666666668 -13.633333333333333 2.466666666666667 5000013.1492
10.438306666666668 -13.666666666666666 2.466666666666667 5000013.1492
10.42463 -13.7 2.466666666666667 5000012.7389
10.3775 -13.8 2.466666666666667 5000011.325
10.3775 -13.833333333333334 2.466666666666667 5000011.325
10.3775 -13.866666666666667 2.466666666666667 5000011.325
10.36731 -15.766666666666667 2.466666666666667 5000011.0193
10.388273333333334 -16.633333333333333 2.466666666666667 5000011.6482
10.388273333333334 -16.666666666666668 2.466666666666667 5000011.6482
11.355013333333334 -1.6333333333333333 2.433333333333333 5000040.6504
11.355013333333334 -1.6666666666666667 2.433333333333333 5000040.6504
11.932366666666667 -4.966666666666667 2.433333333333333 5000057.971
11.932366666666667 -5.0 2.433333333333333 5000057.971
11.355013333333334 -5.033333333333333 2.433333333333333 5000040.6504
11.355013333333334 -5.066666666666666 2.433333333333333 5000040.6504
11.232286666666667 -5.1 2.433333333333333 5000036.9686
11.232286666666667 -7.033333333333333 2.433333333333333 5000036.9686
11.232286666666667 -7.066666666666666 2.433333333333333 5000036.9686
16.666666666666668 -7.266666666666667 2.433333333333333 5000200.0
11.043296666666667 -7.466666666666667 2.433333333333333 5000031.2989
10.968993333333334 -7.533333333333333 2.433333333333333 5000029.0698
11.043296666666667 -7.633333333333334 2.433333333333333 5000031.2989
11.043296666666667 -7.666666666666667 2.433333333333333 5000031.2989
16.666666666666668 -8.133333333333333 2.433333333333333 5000200.0
10.904566666666666 -8.5 2.433333333333333 5000027.137
10.904566666666666 -8.533333333333333 2.433333333333333 5000027.137
10.848176666666667 -8.6 2.433333333333333 5000025.4453
10.617283333333333 -8.7 2.433333333333333 5000018.5185
10.42463 -8.966666666666667 2.433333333333333 5000012.7389
10.42463 -9.0 2.433333333333333 5000012.7389
10.71454 -9.966666666666667 2.433333333333333 5000021.4362
10.71454 -10.0 2.433333333333333 5000021.4362
10.64662 -10.133333333333333 2.433333333333333 5000019.3986
10.36731 -10.5 2.433333333333333 5000011.0193
10.36731 -10.533333333333333 2.433333333333333 5000011.0193
10.388273333333334 -10.8 2.433333333333333 5000011.6482
16.666666666666668 -11.4 2.433333333333333 5000200.0
10.54333 -12.266666666666667 2.433333333333333 5000016.2999
10.522466666666666 -12.3 2.433333333333333 5000015.674
10.522466666666666 -12.333333333333334 2.433333333333333 5000015.674
10.522466666666666 -12.366666666666667 2.433333333333333 5000015.674
10.4852 -13.133333333333333 2.433333333333333 5000014.556
10.4852 -13.166666666666666 2.433333333333333 5000014.556
10.4529 -13.566666666666666 2.433333333333333 5000013.587
10.438306666666668 -13.6 2.433333333333333 5000013.1492
10.438306666666668 -13.633333333333333 2.433333333333333 5000013.1492
10.438306666666668 -13.666666666666666 2.433333333333333 5000013.1492
10.42463 -13.7 2.433333333333333 5000012.7389
10.3775 -13.833333333333334 2.433333333333333 5000011.325
10.3775 -13.866666666666667 2.433333333333333 5000011.325
10.388273333333334 -16.633333333333333 2.433333333333333 5000011.6482
10.388273333333334 -16.666666666666668 2.433333333333333 5000011.6482
11.232286666666667 -3.066666666666667 2.4 5000036.9686
11.932366666666667 -5.0 2.4 5000057.971
11.355013333333334 -5.033333333333333 2.4 5000040.6504
11.232286666666667 -5.133333333333334 2.4 5000036.9686
11.129943333333333 -5.166666666666667 2.4 5000033.8983
11.232286666666667 -7.033333333333333 2.4 5000036.9686
11.232286666666667 -7.066666666666666 2.4 5000036.9686
12.699056666666667 -7.2 2.4 5000080.9717
12.699056666666667 -7.266666666666667 2.4 5000080.9717
11.043296666666667 -7.466666666666667 2.4 5000031.2989
11.043296666666667 -7.633333333333334 2.4 5000031.2989
10.438306666666668 -7.966666666666667 2.4 5000013.1492
16.666666666666668 -8.133333333333333 2.4 5000200.0
10.904566666666666 -8.466666666666667 2.4 5000027.137
