VERSION .7
FIELDS x y z rgb
SIZE 4 4 4 4
TYPE F F F F
COUNT 1 1 1 1
WIDTH 836
HEIGHT 1
VIEWPOINT 0 0 0 1 0 0 0
POINTS 836
DATA ascii
11.50489 -6.066666666666666 3.1 5000045.1467
13.367 -6.2 3.1 5000101.01
11.692046666666666 -6.5 3.1 5000050.7614
11.692046666666666 -6.566666666666666 3.1 5000050.7614
11.692046666666666 -6.6 3.1 5000050.7614
10.71454 -6.866666666666666 3.1 5000021.4362
12.252253333333334 -7.633333333333334 3.1 5000067.5676
14.474266666666667 -7.7 3.1 5000134.228
11.129943333333333 -8.066666666666666 3.1 5000033.8983
10.71454 -8.266666666666667 3.1 5000021.4362
10.56593 -11.7 3.1 5000016.9779
10.522466666666666 -12.9 3.1 5000015.674
10.503143333333334 -12.933333333333334 3.1 5000015.0943
10.54333 -13.866666666666667 3.1 5000016.2999
10.54333 -13.9 3.1 5000016.2999
10.522466666666666 -13.933333333333334 3.1 5000015.674
10.522466666666666 -13.966666666666667 3.1 5000015.674
10.503143333333334 -14.0 3.1 5000015.0943
10.522466666666666 -15.133333333333333 3.1 5000015.674
10.522466666666666 -15.166666666666666 3.1 5000015.674
10.388273333333334 -15.466666666666667 3.1 5000011.6482
10.388273333333334 -15.5 3.1 5000011.6482
10.388273333333334 -15.533333333333333 3.1 5000011.6482
10.3775 -15.566666666666666 3.1 5000011.325
10.388273333333334 -17.066666666666666 3.1 5000011.6482
10.388273333333334 -17.1 3.1 5000011.6482
10.3775 -17.133333333333333 3.1 5000011.325
10.357653333333333 -17.233333333333334 3.1 5000010.7296
11.692046666666666 2.1 3.066666666666667 5000050.7614
11.932366666666667 1.7666666666666666 3.066666666666667 5000057.971
12.252253333333334 1.6666666666666667 3.066666666666667 5000067.5676
11.692046666666666 1.0666666666666667 3.066666666666667 5000050.7614
11.692046666666666 1.0333333333333334 3.066666666666667 5000050.7614
11.692046666666666 0.7666666666666667 3.066666666666667 5000050.7614
12.699056666666667 0.5333333333333333 3.066666666666667 5000080.9717
12.699056666666667 0.5 3.066666666666667 5000080.9717
12.252253333333334 -0.7666666666666667 3.066666666666667 5000067.5676
13.367 -1.1333333333333333 3.066666666666667 5000101.01
12.699056666666667 -1.2666666666666666 3.066666666666667 5000080.9717
12.699056666666667 -1.3 3.066666666666667 5000080.9717
14.474266666666667 -1.5333333333333334 3.066666666666667 5000134.228
14.474266666666667 -1.5666666666666667 3.066666666666667 5000134.228
14.474266666666667 -1.6666666666666667 3.066666666666667 5000134.228
12.699056666666667 -1.9333333333333333 3.066666666666667 5000080.9717
12.699056666666667 -1.9666666666666666 3.066666666666667 5000080.9717
13.367 -2.066666666666667 3.066666666666667 5000101.01
12.699056666666667 -2.1333333333333333 3.066666666666667 5000080.9717
13.367 -2.1666666666666665 3.066666666666667 5000101.01
14.474266666666667 -2.5 3.066666666666667 5000134.228
14.474266666666667 -2.7 3.066666666666667 5000134.228
14.474266666666667 -3.2333333333333334 3.066666666666667 5000134.228
11.932366666666667 -3.533333333333333 3.066666666666667 5000057.971
14.474266666666667 -3.9 3.066666666666667 5000134.228
12.699056666666667 -4.633333333333334 3.066666666666667 5000080.9717
12.699056666666667 -4.866666666666666 3.066666666666667 5000080.9717
12.699056666666667 -6.133333333333334 3.066666666666667 5000080.9717
13.367 -6.2 3.066666666666667 5000101.01
12.699056666666667 -6.266666666666667 3.066666666666667 5000080.9717
11.692046666666666 -6.566666666666666 3.066666666666667 5000050.7614
11.692046666666666 -6.6 3.066666666666667 5000050.7614
10.56593 -11.633333333333333 3.066666666666667 5000016.9779
10.54333 -13.9 3.066666666666667 5000016.2999
10.522466666666666 -13.933333333333334 3.066666666666667 5000015.674
10.522466666666666 -13.966666666666667 3.066666666666667 5000015.674
10.503143333333334 -14.0 3.066666666666667 5000015.0943
10.503143333333334 -14.033333333333333 3.066666666666667 5000015.0943
10.4852 -14.066666666666666 3.066666666666667 5000014.556
10.388273333333334 -15.466666666666667 3.066666666666667 5000011.6482
10.388273333333334 -15.5 3.066666666666667 5000011.6482
10.3775 -17.133333333333333 3.066666666666667 5000011.325
10.36731 -17.166666666666668 3.066666666666667 5000011.0193
10.357653333333333 -17.2 3.066666666666667 5000010.7296
10.348493333333334 -17.233333333333334 3.066666666666667 5000010.4548
10.348493333333334 -17.266666666666666 3.066666666666667 5000010.4548
10.33979 -17.3 3.066666666666667 5000010.1937
10.33151 -17.333333333333332 3.066666666666667 5000009.9453
10.33151 -17.366666666666667 3.066666666666667 5000009.9453
10.388273333333334 -17.9 3.066666666666667 5000011.6482
11.692046666666666 2.7333333333333334 3.033333333333333 5000050.7614
11.932366666666667 2.3 3.033333333333333 5000057.971
11.692046666666666 2.1 3.033333333333333 5000050.7614
11.932366666666667 1.7666666666666666 3.033333333333333 5000057.971
11.932366666666667 1.7333333333333334 3.033333333333333 5000057.971
11.932366666666667 1.0666666666666667 3.033333333333333 5000057.971
11.692046666666666 0.7666666666666667 3.033333333333333 5000050.7614
12.699056666666667 0.5 3.033333333333333 5000080.9717
12.252253333333334 -0.7666666666666667 3.033333333333333 5000067.5676
13.367 -1.1333333333333333 3.033333333333333 5000101.01
12.699056666666667 -1.2666666666666666 3.033333333333333 5000080.9717
12.699056666666667 -1.3 3.033333333333333 5000080.9717
14.474266666666667 -1.4 3.033333333333333 5000134.228
14.474266666666667 -1.5333333333333334 3.033333333333333 5000134.228
14.474266666666667 -1.5666666666666667 3.033333333333333 5000134.228
14.474266666666667 -1.6666666666666667 3.033333333333333 5000134.228
12.699056666666667 -1.9333333333333333 3.033333333333333 5000080.9717
12.699056666666667 -1.9666666666666666 3.033333333333333 5000080.9717
12.699056666666667 -2.066666666666667 3.033333333333333 5000080.9717
12.699056666666667 -2.1333333333333333 3.033333333333333 5000080.9717
12.699056666666667 -2.1666666666666665 3.033333333333333 5000080.9717
14.474266666666667 -2.466666666666667 3.033333333333333 5000134.228
14.474266666666667 -2.5 3.033333333333333 5000134.228
14.474266666666667 -2.7 3.033333333333333 5000134.228
14.474266666666667 -3.2333333333333334 3.033333333333333 5000134.228
11.932366666666667 -3.533333333333333 3.033333333333333 5000057.971
12.699056666666667 -4.466666666666667 3.033333333333333 5000080.9717
11.692046666666666 -6.566666666666666 3.033333333333333 5000050.7614
11.355013333333334 -7.066666666666666 3.033333333333333 5000040.6504
11.232286666666667 -7.533333333333333 3.033333333333333 5000036.9686
11.232286666666667 -7.566666666666666 3.033333333333333 5000036.9686
10.678886666666667 -8.333333333333334 3.033333333333333 5000020.3666
10.678886666666667 -8.366666666666667 3.033333333333333 5000020.3666
10.678886666666667 -8.4 3.033333333333333 5000020.3666
10.64662 -8.433333333333334 3.033333333333333 5000019.3986
11.043296666666667 -8.766666666666667 3.033333333333333 5000031.2989
11.043296666666667 -8.8 3.033333333333333 5000031.2989
10.968993333333334 -8.833333333333334 3.033333333333333 5000029.0698
10.64662 -9.0 3.033333333333333 5000019.3986
10.617283333333333 -9.033333333333333 3.033333333333333 5000018.5185
10.56593 -9.066666666666666 3.033333333333333 5000016.9779
10.56593 -9.1 3.033333333333333 5000016.9779
10.56593 -9.133333333333333 3.033333333333333 5000016.9779
10.798403333333333 -9.966666666666667 3.033333333333333 5000023.9521
10.56593 -11.566666666666666 3.033333333333333 5000016.9779
10.56593 -11.6 3.033333333333333 5000016.9779
10.42463 -11.9 3.033333333333333 5000012.7389
10.42463 -11.933333333333334 3.033333333333333 5000012.7389
10.617283333333333 -12.7 3.033333333333333 5000018.5185
10.617283333333333 -12.733333333333333 3.033333333333333 5000018.5185
10.590493333333333 -12.766666666666667 3.033333333333333 5000017.7148
10.522466666666666 -12.833333333333334 3.033333333333333 5000015.674
10.522466666666666 -12.866666666666667 3.033333333333333 5000015.674
10.522466666666666 -13.966666666666667 3.033333333333333 5000015.674
10.503143333333334 -14.0 3.033333333333333 5000015.0943
16.666666666666668 -16.0 3.033333333333333 5000200.0
16.666666666666668 -16.066666666666666 3.033333333333333 5000200.0
10.56593 -16.733333333333334 3.033333333333333 5000016.9779
10.56593 -16.766666666666666 3.033333333333333 5000016.9779
10.54333 -16.8 3.033333333333333 5000016.2999
10.522466666666666 -16.833333333333332 3.033333333333333 5000015.674
10.503143333333334 -16.866666666666667 3.033333333333333 5000015.0943
10.503143333333334 -16.9 3.033333333333333 5000015.0943
10.4852 -16.933333333333334 3.033333333333333 5000014.556
10.468493333333333 -16.966666666666665 3.033333333333333 5000014.0548
10.438306666666668 -17.0 3.033333333333333 5000013.1492
10.42463 -17.033333333333335 3.033333333333333 5000012.7389
10.411776666666666 -17.066666666666666 3.033333333333333 5000012.3533
10.388273333333334 -17.1 3.033333333333333 5000011.6482
10.3775 -17.133333333333333 3.033333333333333 5000011.325
10.36731 -17.166666666666668 3.033333333333333 5000011.0193
10.357653333333333 -17.2 3.033333333333333 5000010.7296
10.348493333333334 -17.233333333333334 3.033333333333333 5000010.4548
10.348493333333334 -17.266666666666666 3.033333333333333 5000010.4548
10.33979 -17.3 3.033333333333333 5000010.1937
10.33151 -17.333333333333332 3.033333333333333 5000009.9453
10.33151 -17.366666666666667 3.033333333333333 5000009.9453
10.323624666666667 -17.4 3.033333333333333 5000009.70874
10.316105666666667 -17.433333333333334 3.033333333333333 5000009.48317
10.302069 -17.466666666666665 3.033333333333333 5000009.06207
10.295508333333334 -17.5 3.033333333333333 5000008.86525
10.289226333333334 -17.533333333333335 3.033333333333333 5000008.67679
10.283206 -17.566666666666666 3.033333333333333 5000008.49618
10.271887 -17.6 3.033333333333333 5000008.15661
10.271887 -17.633333333333333 3.033333333333333 5000008.15661
10.26656 -17.666666666666668 3.033333333333333 5000007.9968
11.50489 2.8666666666666667 3.0 5000045.1467
11.50489 2.8333333333333335 3.0 5000045.1467
11.50489 2.8 3.0 5000045.1467
11.692046666666666 2.1 3.0 5000050.7614
11.932366666666667 1.7666666666666666 3.0 5000057.971
12.252253333333334 1.3666666666666667 3.0 5000067.5676
11.692046666666666 1.1 3.0 5000050.7614
11.692046666666666 0.7666666666666667 3.0 5000050.7614
12.699056666666667 0.5 3.0 5000080.9717
13.367 -1.1333333333333333 3.0 5000101.01
12.699056666666667 -1.3 3.0 5000080.9717
14.474266666666667 -1.4666666666666666 3.0 5000134.228
14.474266666666667 -1.5333333333333334 3.0 5000134.228
14.474266666666667 -1.5666666666666667 3.0 5000134.228
12.699056666666667 -1.8666666666666667 3.0 5000080.9717
14.474266666666667 -2.433333333333333 3.0 5000134.228
14.474266666666667 -2.466666666666667 3.0 5000134.228
13.367 -4.366666666666666 3.0 5000101.01
12.699056666666667 -4.4 3.0 5000080.9717
14.474266666666667 -6.433333333333334 3.0 5000134.228
11.692046666666666 -6.566666666666666 3.0 5000050.7614
16.666666666666668 -6.866666666666666 3.0 5000200.0
11.355013333333334 -7.066666666666666 3.0 5000040.6504
12.699056666666667 -7.366666666666666 3.0 5000080.9717
12.699056666666667 -7.4 3.0 5000080.9717
11.232286666666667 -7.5 3.0 5000036.9686
11.232286666666667 -7.533333333333333 3.0 5000036.9686
10.904566666666666 -7.633333333333334 3.0 5000027.137
12.699056666666667 -7.966666666666667 3.0 5000080.9717
11.355013333333334 -8.1 3.0 5000040.6504
11.129943333333333 -8.166666666666666 3.0 5000033.8983
11.043296666666667 -8.2 3.0 5000031.2989
11.043296666666667 -8.233333333333333 3.0 5000031.2989
10.71454 -8.333333333333334 3.0 5000021.4362
11.043296666666667 -8.766666666666667 3.0 5000031.2989
10.968993333333334 -8.833333333333334 3.0 5000029.0698
10.678886666666667 -8.966666666666667 3.0 5000020.3666
10.64662 -9.0 3.0 5000019.3986
10.56593 -9.066666666666666 3.0 5000016.9779
11.129943333333333 -9.8 3.0 5000033.8983
11.129943333333333 -9.833333333333334 3.0 5000033.8983
11.129943333333333 -9.866666666666667 3.0 5000033.8983
10.848176666666667 -9.933333333333334 3.0 5000025.4453
10.798403333333333 -9.966666666666667 3.0 5000023.9521
10.56593 -11.8 3.0 5000016.9779
10.56593 -11.833333333333334 3.0 5000016.9779
10.617283333333333 -12.7 3.0 5000018.5185
10.617283333333333 -12.733333333333333 3.0 5000018.5185
10.590493333333333 -12.766666666666667 3.0 5000017.7148
10.56593 -12.8 3.0 5000016.9779
10.54333 -12.833333333333334 3.0 5000016.2999
10.522466666666666 -12.866666666666667 3.0 5000015.674
10.503143333333334 -12.9 3.0 5000015.0943
10.4852 -12.933333333333334 3.0 5000014.556
10.468493333333333 -12.966666666666667 3.0 5000014.0548
11.232286666666667 -16.366666666666667 3.0 5000036.9686
10.42463 -17.033333333333335 3.0 5000012.7389
10.411776666666666 -17.066666666666666 3.0 5000012.3533
10.411776666666666 -17.1 3.0 5000012.3533
10.348493333333334 -17.266666666666666 3.0 5000010.4548
10.33979 -17.3 3.0 5000010.1937
10.33151 -17.333333333333332 3.0 5000009.9453
10.33151 -17.366666666666667 3.0 5000009.9453
10.295508333333334 -17.5 3.0 5000008.86525
11.692046666666666 2.8 2.966666666666667 5000050.7614
11.692046666666666 2.7333333333333334 2.966666666666667 5000050.7614
11.932366666666667 1.7666666666666666 2.966666666666667 5000057.971
11.932366666666667 1.7333333333333334 2.966666666666667 5000057.971
11.692046666666666 0.7666666666666667 2.966666666666667 5000050.7614
12.699056666666667 0.5333333333333333 2.966666666666667 5000080.9717
12.699056666666667 0.5 2.966666666666667 5000080.9717
12.699056666666667 -1.3 2.966666666666667 5000080.9717
14.474266666666667 -6.4 2.966666666666667 5000134.228
11.692046666666666 -6.533333333333333 2.966666666666667 5000050.7614
11.692046666666666 -6.633333333333334 2.966666666666667 5000050.7614
11.355013333333334 -7.066666666666666 2.966666666666667 5000040.6504
11.232286666666667 -7.5 2.966666666666667 5000036.9686
11.232286666666667 -7.533333333333333 2.966666666666667 5000036.9686
10.904566666666666 -7.633333333333334 2.966666666666667 5000027.137
16.666666666666668 -7.866666666666666 2.966666666666667 5000200.0
11.355013333333334 -8.1 2.966666666666667 5000040.6504
11.129943333333333 -8.166666666666666 2.966666666666667 5000033.8983
11.043296666666667 -8.2 2.966666666666667 5000031.2989
11.129943333333333 -8.733333333333333 2.966666666666667 5000033.8983
10.968993333333334 -8.766666666666667 2.966666666666667 5000029.0698
10.904566666666666 -8.833333333333334 2.966666666666667 5000027.137
10.678886666666667 -8.933333333333334 2.966666666666667 5000020.3666
10.64662 -8.966666666666667 2.966666666666667 5000019.3986
10.617283333333333 -9.0 2.966666666666667 5000018.5185
10.590493333333333 -9.033333333333333 2.966666666666667 5000017.7148
10.848176666666667 -9.366666666666667 2.966666666666667 5000025.4453
10.3775 -9.433333333333334 2.966666666666667 5000011.325
10.3775 -9.466666666666667 2.966666666666667 5000011.325
10.3775 -9.5 2.966666666666667 5000011.325
10.209183 -9.6 2.966666666666667 5000006.27549
10.209183 -9.633333333333333 2.966666666666667 5000006.27549
10.209183 -9.666666666666666 2.966666666666667 5000006.27549
10.503143333333334 -14.1 2.966666666666667 5000015.0943
10.503143333333334 -14.133333333333333 2.966666666666667 5000015.0943
10.503143333333334 -14.166666666666666 2.966666666666667 5000015.0943
10.388273333333334 -15.2 2.966666666666667 5000011.6482
10.36731 -15.766666666666667 2.966666666666667 5000011.0193
11.692046666666666 2.7333333333333334 2.933333333333333 5000050.7614
11.932366666666667 2.033333333333333 2.933333333333333 5000057.971
11.932366666666667 1.7666666666666666 2.933333333333333 5000057.971
11.932366666666667 1.7333333333333334 2.933333333333333 5000057.971
11.692046666666666 1.0333333333333334 2.933333333333333 5000050.7614
11.692046666666666 1.0 2.933333333333333 5000050.7614
12.699056666666667 0.5333333333333333 2.933333333333333 5000080.9717
12.699056666666667 0.5 2.933333333333333 5000080.9717
11.932366666666667 -0.6333333333333333 2.933333333333333 5000057.971
13.367 -1.1333333333333333 2.933333333333333 5000101.01
16.666666666666668 -3.9 2.933333333333333 5000200.0
14.474266666666667 -6.4 2.933333333333333 5000134.228
11.932366666666667 -6.5 2.933333333333333 5000057.971
11.692046666666666 -6.533333333333333 2.933333333333333 5000050.7614
11.129943333333333 -6.666666666666667 2.933333333333333 5000033.8983
11.355013333333334 -7.066666666666666 2.933333333333333 5000040.6504
12.699056666666667 -7.333333333333333 2.933333333333333 5000080.9717
11.355013333333334 -7.533333333333333 2.933333333333333 5000040.6504
11.355013333333334 -8.1 2.933333333333333 5000040.6504
11.129943333333333 -8.166666666666666 2.933333333333333 5000033.8983
11.043296666666667 -8.2 2.933333333333333 5000031.2989
11.043296666666667 -8.766666666666667 2.933333333333333 5000031.2989
10.3775 -8.833333333333334 2.933333333333333 5000011.325
10.64662 -8.933333333333334 2.933333333333333 5000019.3986
10.64662 -9.0 2.933333333333333 5000019.3986
10.798403333333333 -9.2 2.933333333333333 5000023.9521
10.848176666666667 -9.266666666666667 2.933333333333333 5000025.4453
10.848176666666667 -9.333333333333334 2.933333333333333 5000025.4453
10.848176666666667 -9.366666666666667 2.933333333333333 5000025.4453
10.798403333333333 -9.4 2.933333333333333 5000023.9521
10.3775 -9.433333333333334 2.933333333333333 5000011.325
10.348493333333334 -10.066666666666666 2.933333333333333 5000010.4548
10.56593 -11.8 2.933333333333333 5000016.9779
10.590493333333333 -13.3 2.933333333333333 5000017.7148
10.56593 -13.333333333333334 2.933333333333333 5000016.9779
10.56593 -13.366666666666667 2.933333333333333 5000016.9779
10.56593 -13.4 2.933333333333333 5000016.9779
10.522466666666666 -14.066666666666666 2.933333333333333 5000015.674
10.503143333333334 -14.1 2.933333333333333 5000015.0943
10.503143333333334 -14.133333333333333 2.933333333333333 5000015.0943
10.503143333333334 -14.166666666666666 2.933333333333333 5000015.0943
10.4852 -14.2 2.933333333333333 5000014.556
10.388273333333334 -15.1 2.933333333333333 5000011.6482
10.388273333333334 -15.133333333333333 2.933333333333333 5000011.6482
10.388273333333334 -15.166666666666666 2.933333333333333 5000011.6482
10.36731 -15.9 2.933333333333333 5000011.0193
11.692046666666666 2.7333333333333334 2.9 5000050.7614
11.932366666666667 2.4 2.9 5000057.971
11.932366666666667 2.033333333333333 2.9 5000057.971
11.692046666666666 1.9333333333333333 2.9 5000050.7614
12.252253333333334 1.7666666666666666 2.9 5000067.5676
12.252253333333334 1.7333333333333334 2.9 5000067.5676
13.367 1.1333333333333333 2.9 5000101.01
11.692046666666666 1.0333333333333334 2.9 5000050.7614
12.699056666666667 0.5333333333333333 2.9 5000080.9717
12.699056666666667 0.5 2.9 5000080.9717
12.252253333333334 -0.36666666666666664 2.9 5000067.5676
12.252253333333334 -0.4 2.9 5000067.5676
11.932366666666667 -0.6 2.9 5000057.971
11.932366666666667 -0.6333333333333333 2.9 5000057.971
11.932366666666667 -6.133333333333334 2.9 5000057.971
12.252253333333334 -6.166666666666667 2.9 5000067.5676
11.932366666666667 -6.533333333333333 2.9 5000057.971
11.355013333333334 -7.066666666666666 2.9 5000040.6504
11.355013333333334 -7.1 2.9 5000040.6504
10.848176666666667 -7.3 2.9 5000025.4453
11.129943333333333 -7.633333333333334 2.9 5000033.8983
10.968993333333334 -7.666666666666667 2.9 5000029.0698
10.678886666666667 -7.8 2.9 5000020.3666
11.355013333333334 -8.066666666666666 2.9 5000040.6504
11.355013333333334 -8.1 2.9 5000040.6504
11.129943333333333 -8.166666666666666 2.9 5000033.8983
11.129943333333333 -8.2 2.9 5000033.8983
10.3775 -8.833333333333334 2.9 5000011.325
10.3775 -8.866666666666667 2.9 5000011.325
10.522466666666666 -8.933333333333334 2.9 5000015.674
10.798403333333333 -9.2 2.9 5000023.9521
10.798403333333333 -9.233333333333333 2.9 5000023.9521
10.848176666666667 -9.266666666666667 2.9 5000025.4453
10.56593 -13.3 2.9 5000016.9779
10.56593 -13.333333333333334 2.9 5000016.9779
10.56593 -13.366666666666667 2.9 5000016.9779
10.56593 -13.4 2.9 5000016.9779
10.388273333333334 -15.066666666666666 2.9 5000011.6482
10.388273333333334 -15.1 2.9 5000011.6482
10.36731 -15.733333333333333 2.9 5000011.0193
10.348493333333334 -16.566666666666666 2.9 5000010.4548
10.36731 -16.866666666666667 2.9 5000011.0193
10.33979 -16.966666666666665 2.9 5000010.1937
10.33979 -17.0 2.9 5000010.1937
10.33979 -17.033333333333335 2.9 5000010.1937
10.33979 -17.666666666666668 2.9 5000010.1937
10.33151 -17.7 2.9 5000009.9453
11.692046666666666 2.7333333333333334 2.8666666666666667 5000050.7614
12.252253333333334 1.7666666666666666 2.8666666666666667 5000067.5676
12.252253333333334 1.7333333333333334 2.8666666666666667 5000067.5676
11.692046666666666 1.0333333333333334 2.8666666666666667 5000050.7614
12.252253333333334 -0.36666666666666664 2.8666666666666667 5000067.5676
12.252253333333334 -0.4 2.8666666666666667 5000067.5676
11.932366666666667 -0.6 2.8666666666666667 5000057.971
11.932366666666667 -0.6333333333333333 2.8666666666666667 5000057.971
11.932366666666667 -6.133333333333334 2.8666666666666667 5000057.971
16.666666666666668 -6.633333333333334 2.8666666666666667 5000200.0
11.50489 -6.8 2.8666666666666667 5000045.1467
11.355013333333334 -7.066666666666666 2.8666666666666667 5000040.6504
11.355013333333334 -7.1 2.8666666666666667 5000040.6504
11.232286666666667 -7.166666666666667 2.8666666666666667 5000036.9686
11.043296666666667 -7.233333333333333 2.8666666666666667 5000031.2989
10.848176666666667 -7.3 2.8666666666666667 5000025.4453
13.367 -7.366666666666666 2.8666666666666667 5000101.01
11.232286666666667 -7.566666666666666 2.8666666666666667 5000036.9686
11.129943333333333 -7.633333333333334 2.8666666666666667 5000033.8983
11.129943333333333 -7.666666666666667 2.8666666666666667 5000033.8983
13.367 -7.933333333333334 2.8666666666666667 5000101.01
13.367 -7.966666666666667 2.8666666666666667 5000101.01
11.355013333333334 -8.066666666666666 2.8666666666666667 5000040.6504
11.355013333333334 -8.1 2.8666666666666667 5000040.6504
11.129943333333333 -8.166666666666666 2.8666666666666667 5000033.8983
11.129943333333333 -8.2 2.8666666666666667 5000033.8983
11.355013333333334 -8.566666666666666 2.8666666666666667 5000040.6504
10.71454 -10.433333333333334 2.8666666666666667 5000021.4362
10.71454 -10.466666666666667 2.8666666666666667 5000021.4362
10.71454 -10.5 2.8666666666666667 5000021.4362
10.754146666666667 -10.833333333333334 2.8666666666666667 5000022.6244
10.754146666666667 -10.866666666666667 2.8666666666666667 5000022.6244
10.968993333333334 -12.9 2.8666666666666667 5000029.0698
10.522466666666666 -12.966666666666667 2.8666666666666667 5000015.674
10.522466666666666 -13.0 2.8666666666666667 5000015.674
10.522466666666666 -13.033333333333333 2.8666666666666667 5000015.674
10.56593 -13.333333333333334 2.8666666666666667 5000016.9779
10.56593 -13.366666666666667 2.8666666666666667 5000016.9779
10.56593 -13.4 2.8666666666666667 5000016.9779
10.39968 -15.0 2.8666666666666667 5000011.9904
10.388273333333334 -15.033333333333333 2.8666666666666667 5000011.6482
10.388273333333334 -15.066666666666666 2.8666666666666667 5000011.6482
10.348493333333334 -16.566666666666666 2.8666666666666667 5000010.4548
10.33979 -17.033333333333335 2.8666666666666667 5000010.1937
10.348493333333334 -17.566666666666666 2.8666666666666667 5000010.4548
10.33979 -17.6 2.8666666666666667 5000010.1937
10.33151 -17.633333333333333 2.8666666666666667 5000009.9453
10.33151 -17.666666666666668 2.8666666666666667 5000009.9453
10.33151 -17.7 2.8666666666666667 5000009.9453
10.33151 -17.733333333333334 2.8666666666666667 5000009.9453
10.323624666666667 -17.766666666666666 2.8666666666666667 5000009.70874
10.308928 -17.8 2.8666666666666667 5000009.26784
10.302069 -17.833333333333332 2.8666666666666667 5000009.06207
10.295508333333334 -17.866666666666667 2.8666666666666667 5000008.86525
10.289226333333334 -17.9 2.8666666666666667 5000008.67679
11.692046666666666 2.7333333333333334 2.8333333333333335 5000050.7614
11.692046666666666 2.466666666666667 2.8333333333333335 5000050.7614
12.252253333333334 1.7333333333333334 2.8333333333333335 5000067.5676
11.692046666666666 1.0333333333333334 2.8333333333333335 5000050.7614
12.252253333333334 -6.233333333333333 2.8333333333333335 5000067.5676
12.252253333333334 -6.266666666666667 2.8333333333333335 5000067.5676
11.692046666666666 -6.366666666666666 2.8333333333333335 5000050.7614
11.692046666666666 -6.4 2.8333333333333335 5000050.7614
11.50489 -6.8 2.8333333333333335 5000045.1467
12.699056666666667 -6.966666666666667 2.8333333333333335 5000080.9717
11.355013333333334 -7.066666666666666 2.8333333333333335 5000040.6504
11.355013333333334 -7.1 2.8333333333333335 5000040.6504
11.043296666666667 -7.166666666666667 2.8333333333333335 5000031.2989
11.932366666666667 -7.466666666666667 2.8333333333333335 5000057.971
11.232286666666667 -7.566666666666666 2.8333333333333335 5000036.9686
10.678886666666667 -7.766666666666667 2.8333333333333335 5000020.3666
10.678886666666667 -7.8 2.8333333333333335 5000020.3666
10.678886666666667 -7.833333333333333 2.8333333333333335 5000020.3666
13.367 -7.933333333333334 2.8333333333333335 5000101.01
13.367 -7.966666666666667 2.8333333333333335 5000101.01
11.355013333333334 -8.533333333333333 2.8333333333333335 5000040.6504
10.522466666666666 -9.0 2.8333333333333335 5000015.674
10.438306666666668 -9.133333333333333 2.8333333333333335 5000013.1492
10.56593 -10.6 2.8333333333333335 5000016.9779
10.754146666666667 -10.833333333333334 2.8333333333333335 5000022.6244
10.754146666666667 -10.866666666666667 2.8333333333333335 5000022.6244
10.754146666666667 -10.9 2.8333333333333335 5000022.6244
10.56593 -11.466666666666667 2.8333333333333335 5000016.9779
10.522466666666666 -13.0 2.8333333333333335 5000015.674
10.522466666666666 -13.033333333333333 2.8333333333333335 5000015.674
10.503143333333334 -13.066666666666666 2.8333333333333335 5000015.0943
10.503143333333334 -13.166666666666666 2.8333333333333335 5000015.0943
10.56593 -13.366666666666667 2.8333333333333335 5000016.9779
10.56593 -13.4 2.8333333333333335 5000016.9779
10.39968 -14.933333333333334 2.8333333333333335 5000011.9904
10.39968 -14.966666666666667 2.8333333333333335 5000011.9904
10.39968 -15.0 2.8333333333333335 5000011.9904
10.3775 -15.666666666666666 2.8333333333333335 5000011.325
10.3775 -15.7 2.8333333333333335 5000011.325
10.348493333333334 -16.566666666666666 2.8333333333333335 5000010.4548
10.348493333333334 -16.6 2.8333333333333335 5000010.4548
10.33979 -17.0 2.8333333333333335 5000010.1937
10.33979 -17.033333333333335 2.8333333333333335 5000010.1937
10.33151 -17.7 2.8333333333333335 5000009.9453
11.692046666666666 2.466666666666667 2.8 5000050.7614
12.252253333333334 1.7333333333333334 2.8 5000067.5676
11.692046666666666 1.0333333333333334 2.8 5000050.7614
11.692046666666666 1.0 2.8 5000050.7614
11.932366666666667 -3.4 2.8 5000057.971
11.932366666666667 -3.433333333333333 2.8 5000057.971
11.932366666666667 -3.466666666666667 2.8 5000057.971
11.932366666666667 -3.5 2.8 5000057.971
12.252253333333334 -6.233333333333333 2.8 5000067.5676
12.252253333333334 -6.266666666666667 2.8 5000067.5676
11.932366666666667 -6.3 2.8 5000057.971
11.692046666666666 -6.366666666666666 2.8 5000050.7614
11.692046666666666 -6.4 2.8 5000050.7614
11.232286666666667 -6.433333333333334 2.8 5000036.9686
11.692046666666666 -6.5 2.8 5000050.7614
11.692046666666666 -6.533333333333333 2.8 5000050.7614
11.50489 -6.8 2.8 5000045.1467
11.50489 -6.833333333333333 2.8 5000045.1467
11.50489 -6.966666666666667 2.8 5000045.1467
11.355013333333334 -7.066666666666666 2.8 5000040.6504
11.232286666666667 -7.1 2.8 5000036.9686
11.043296666666667 -7.166666666666667 2.8 5000031.2989
11.932366666666667 -7.466666666666667 2.8 5000057.971
11.232286666666667 -7.566666666666666 2.8 5000036.9686
11.129943333333333 -7.6 2.8 5000033.8983
11.129943333333333 -7.666666666666667 2.8 5000033.8983
10.678886666666667 -7.766666666666667 2.8 5000020.3666
10.678886666666667 -7.8 2.8 5000020.3666
10.678886666666667 -7.833333333333333 2.8 5000020.3666
11.355013333333334 -8.533333333333333 2.8 5000040.6504
10.904566666666666 -8.666666666666666 2.8 5000027.137
10.848176666666667 -8.7 2.8 5000025.4453
10.848176666666667 -8.766666666666667 2.8 5000025.4453
10.617283333333333 -8.8 2.8 5000018.5185
10.522466666666666 -8.966666666666667 2.8 5000015.674
10.522466666666666 -9.0 2.8 5000015.674
10.42463 -9.166666666666666 2.8 5000012.7389
10.42463 -9.2 2.8 5000012.7389
10.754146666666667 -10.833333333333334 2.8 5000022.6244
10.754146666666667 -10.866666666666667 2.8 5000022.6244
10.754146666666667 -10.9 2.8 5000022.6244
10.590493333333333 -11.433333333333334 2.8 5000017.7148
10.590493333333333 -11.7 2.8 5000017.7148
10.590493333333333 -11.733333333333333 2.8 5000017.7148
10.522466666666666 -13.033333333333333 2.8 5000015.674
10.522466666666666 -13.066666666666666 2.8 5000015.674
10.54333 -13.333333333333334 2.8 5000016.2999
10.54333 -13.366666666666667 2.8 5000016.2999
10.54333 -13.4 2.8 5000016.2999
10.39968 -14.9 2.8 5000011.9904
10.39968 -14.933333333333334 2.8 5000011.9904
10.39968 -14.966666666666667 2.8 5000011.9904
10.3775 -15.633333333333333 2.8 5000011.325
10.3775 -15.666666666666666 2.8 5000011.325
10.348493333333334 -16.566666666666666 2.8 5000010.4548
10.33979 -17.033333333333335 2.8 5000010.1937
10.33979 -17.066666666666666 2.8 5000010.1937
10.33979 -17.1 2.8 5000010.1937
10.388273333333334 -17.333333333333332 2.8 5000011.6482
10.388273333333334 -17.366666666666667 2.8 5000011.6482
10.36731 -17.4 2.8 5000011.0193
10.357653333333333 -17.433333333333334 2.8 5000010.7296
10.348493333333334 -17.466666666666665 2.8 5000010.4548
10.33979 -17.5 2.8 5000010.1937
10.33979 -17.533333333333335 2.8 5000010.1937
10.33979 -17.566666666666666 2.8 5000010.1937
10.33979 -17.6 2.8 5000010.1937
10.33151 -17.633333333333333 2.8 5000009.9453
11.692046666666666 2.466666666666667 2.7666666666666666 5000050.7614
12.252253333333334 1.7333333333333334 2.7666666666666666 5000067.5676
11.692046666666666 1.0 2.7666666666666666 5000050.7614
11.692046666666666 0.7 2.7666666666666666 5000050.7614
11.692046666666666 0.6666666666666666 2.7666666666666666 5000050.7614
12.252253333333334 -3.3666666666666667 2.7666666666666666 5000067.5676
11.932366666666667 -3.4 2.7666666666666666 5000057.971
11.932366666666667 -3.433333333333333 2.7666666666666666 5000057.971
11.692046666666666 -6.4 2.7666666666666666 5000050.7614
11.692046666666666 -6.7 2.7666666666666666 5000050.7614
11.50489 -6.833333333333333 2.7666666666666666 5000045.1467
11.50489 -6.966666666666667 2.7666666666666666 5000045.1467
11.50489 -7.0 2.7666666666666666 5000045.1467
11.355013333333334 -7.1 2.7666666666666666 5000040.6504
11.932366666666667 -7.466666666666667 2.7666666666666666 5000057.971
13.367 -8.3 2.7666666666666666 5000101.01
12.699056666666667 -8.4 2.7666666666666666 5000080.9717
11.355013333333334 -8.5 2.7666666666666666 5000040.6504
11.355013333333334 -8.533333333333333 2.7666666666666666 5000040.6504
10.904566666666666 -8.633333333333333 2.7666666666666666 5000027.137
10.904566666666666 -8.666666666666666 2.7666666666666666 5000027.137
10.848176666666667 -8.7 2.7666666666666666 5000025.4453
10.617283333333333 -8.866666666666667 2.7666666666666666 5000018.5185
10.522466666666666 -8.966666666666667 2.7666666666666666 5000015.674
11.355013333333334 -9.566666666666666 2.7666666666666666 5000040.6504
11.355013333333334 -9.6 2.7666666666666666 5000040.6504
10.754146666666667 -9.8 2.7666666666666666 5000022.6244
10.754146666666667 -9.833333333333334 2.7666666666666666 5000022.6244
10.503143333333334 -10.266666666666667 2.7666666666666666 5000015.0943
10.754146666666667 -10.866666666666667 2.7666666666666666 5000022.6244
10.754146666666667 -10.9 2.7666666666666666 5000022.6244
10.590493333333333 -11.433333333333334 2.7666666666666666 5000017.7148
10.522466666666666 -13.066666666666666 2.7666666666666666 5000015.674
10.503143333333334 -13.1 2.7666666666666666 5000015.0943
10.56593 -13.266666666666667 2.7666666666666666 5000016.9779
10.54333 -13.333333333333334 2.7666666666666666 5000016.2999
10.54333 -13.366666666666667 2.7666666666666666 5000016.2999
10.54333 -13.4 2.7666666666666666 5000016.2999
10.39968 -14.866666666666667 2.7666666666666666 5000011.9904
10.3775 -15.633333333333333 2.7666666666666666 5000011.325
10.522466666666666 -15.766666666666667 2.7666666666666666 5000015.674
10.522466666666666 -15.8 2.7666666666666666 5000015.674
10.522466666666666 -15.833333333333334 2.7666666666666666 5000015.674
10.348493333333334 -16.533333333333335 2.7666666666666666 5000010.4548
10.348493333333334 -16.566666666666666 2.7666666666666666 5000010.4548
10.33979 -17.066666666666666 2.7666666666666666 5000010.1937
10.33979 -17.5 2.7666666666666666 5000010.1937
10.33979 -17.533333333333335 2.7666666666666666 5000010.1937
10.33151 -17.566666666666666 2.7666666666666666 5000009.9453
11.692046666666666 2.466666666666667 2.7333333333333334 5000050.7614
12.252253333333334 2.2666666666666666 2.7333333333333334 5000067.5676
12.252253333333334 2.2 2.7333333333333334 5000067.5676
11.692046666666666 1.1 2.7333333333333334 5000050.7614
11.692046666666666 1.0 2.7333333333333334 5000050.7614
12.252253333333334 -3.3333333333333335 2.7333333333333334 5000067.5676
11.692046666666666 -6.533333333333333 2.7333333333333334 5000050.7614
11.692046666666666 -6.566666666666666 2.7333333333333334 5000050.7614
11.692046666666666 -6.7 2.7333333333333334 5000050.7614
12.699056666666667 -6.8 2.7333333333333334 5000080.9717
12.699056666666667 -6.833333333333333 2.7333333333333334 5000080.9717
11.50489 -6.966666666666667 2.7333333333333334 5000045.1467
11.50489 -7.0 2.7333333333333334 5000045.1467
11.043296666666667 -7.133333333333334 2.7333333333333334 5000031.2989
10.26656 -8.066666666666666 2.7333333333333334 5000007.9968
10.26656 -8.1 2.7333333333333334 5000007.9968
10.26656 -8.133333333333333 2.7333333333333334 5000007.9968
11.043296666666667 -8.366666666666667 2.7333333333333334 5000031.2989
11.355013333333334 -8.533333333333333 2.7333333333333334 5000040.6504
10.904566666666666 -8.666666666666666 2.7333333333333334 5000027.137
10.848176666666667 -8.7 2.7333333333333334 5000025.4453
10.848176666666667 -8.766666666666667 2.7333333333333334 5000025.4453
10.617283333333333 -8.866666666666667 2.7333333333333334 5000018.5185
10.522466666666666 -9.033333333333333 2.7333333333333334 5000015.674
10.754146666666667 -9.8 2.7333333333333334 5000022.6244
10.71454 -10.033333333333333 2.7333333333333334 5000021.4362
10.503143333333334 -10.233333333333333 2.7333333333333334 5000015.0943
10.503143333333334 -10.266666666666667 2.7333333333333334 5000015.0943
10.71454 -10.633333333333333 2.7333333333333334 5000021.4362
10.71454 -10.666666666666666 2.7333333333333334 5000021.4362
10.754146666666667 -10.933333333333334 2.7333333333333334 5000022.6244
10.590493333333333 -11.4 2.7333333333333334 5000017.7148
10.678886666666667 -11.566666666666666 2.7333333333333334 5000020.3666
10.522466666666666 -13.066666666666666 2.7333333333333334 5000015.674
10.522466666666666 -13.1 2.7333333333333334 5000015.674
10.522466666666666 -13.133333333333333 2.7333333333333334 5000015.674
10.54333 -13.366666666666667 2.7333333333333334 5000016.2999
10.54333 -13.4 2.7333333333333334 5000016.2999
10.522466666666666 -13.433333333333334 2.7333333333333334 5000015.674
10.522466666666666 -13.466666666666667 2.7333333333333334 5000015.674
10.39968 -14.7 2.7333333333333334 5000011.9904
10.3775 -14.733333333333333 2.7333333333333334 5000011.325
10.3775 -15.6 2.7333333333333334 5000011.325
10.3775 -15.633333333333333 2.7333333333333334 5000011.325
10.522466666666666 -15.8 2.7333333333333334 5000015.674
10.522466666666666 -15.833333333333334 2.7333333333333334 5000015.674
10.522466666666666 -15.866666666666667 2.7333333333333334 5000015.674
10.503143333333334 -15.9 2.7333333333333334 5000015.0943
10.468493333333333 -15.933333333333334 2.7333333333333334 5000014.0548
10.468493333333333 -15.966666666666667 2.7333333333333334 5000014.0548
10.468493333333333 -16.0 2.7333333333333334 5000014.0548
10.4529 -16.033333333333335 2.7333333333333334 5000013.587
10.33979 -17.1 2.7333333333333334 5000010.1937
10.33979 -17.133333333333333 2.7333333333333334 5000010.1937
10.3775 -17.8 2.7333333333333334 5000011.325
10.3775 -17.833333333333332 2.7333333333333334 5000011.325
10.36731 -17.866666666666667 2.7333333333333334 5000011.0193
10.36731 -17.9 2.7333333333333334 5000011.0193
11.692046666666666 1.0 2.7 5000050.7614
12.699056666666667 -3.2 2.7 5000080.9717
12.699056666666667 -3.2333333333333334 2.7 5000080.9717
13.367 -6.566666666666666 2.7 5000101.01
11.692046666666666 -6.666666666666667 2.7 5000050.7614
11.692046666666666 -6.7 2.7 5000050.7614
11.692046666666666 -6.833333333333333 2.7 5000050.7614
11.50489 -6.966666666666667 2.7 5000045.1467
14.474266666666667 -7.366666666666666 2.7 5000134.228
11.129943333333333 -7.566666666666666 2.7 5000033.8983
11.129943333333333 -7.6 2.7 5000033.8983
11.043296666666667 -8.366666666666667 2.7 5000031.2989
11.043296666666667 -8.4 2.7 5000031.2989
10.4852 -8.966666666666667 2.7 5000014.556
10.754146666666667 -9.966666666666667 2.7 5000022.6244
10.71454 -10.0 2.7 5000021.4362
10.503143333333334 -10.233333333333333 2.7 5000015.0943
10.71454 -10.633333333333333 2.7 5000021.4362
10.754146666666667 -10.666666666666666 2.7 5000022.6244
10.71454 -10.7 2.7 5000021.4362
10.522466666666666 -11.833333333333334 2.7 5000015.674
10.522466666666666 -13.1 2.7 5000015.674
10.522466666666666 -13.133333333333333 2.7 5000015.674
10.522466666666666 -13.166666666666666 2.7 5000015.674
10.54333 -14.466666666666667 2.7 5000016.2999
10.4852 -14.533333333333333 2.7 5000014.556
10.468493333333333 -14.566666666666666 2.7 5000014.0548
10.4529 -14.6 2.7 5000013.587
10.42463 -14.633333333333333 2.7 5000012.7389
10.411776666666666 -14.666666666666666 2.7 5000012.3533
10.39968 -14.7 2.7 5000011.9904
10.36731 -14.8 2.7 5000011.0193
10.36731 -14.833333333333334 2.7 5000011.0193
10.348493333333334 -16.533333333333335 2.7 5000010.4548
10.348493333333334 -16.566666666666666 2.7 5000010.4548
10.33979 -17.1 2.7 5000010.1937
10.33979 -17.133333333333333 2.7 5000010.1937
10.36731 -17.866666666666667 2.7 5000011.0193
10.36731 -17.9 2.7 5000011.0193
11.692046666666666 1.0 2.6666666666666665 5000050.7614
11.692046666666666 -5.333333333333333 2.6666666666666665 5000050.7614
11.692046666666666 -5.366666666666666 2.6666666666666665 5000050.7614
11.692046666666666 -5.433333333333334 2.6666666666666665 5000050.7614
11.692046666666666 -6.666666666666667 2.6666666666666665 5000050.7614
14.474266666666667 -7.366666666666666 2.6666666666666665 5000134.228
11.129943333333333 -7.6 2.6666666666666665 5000033.8983
11.129943333333333 -7.666666666666667 2.6666666666666665 5000033.8983
10.54333 -7.933333333333334 2.6666666666666665 5000016.2999
11.043296666666667 -8.366666666666667 2.6666666666666665 5000031.2989
11.043296666666667 -8.4 2.6666666666666665 5000031.2989
10.848176666666667 -9.333333333333334 2.6666666666666665 5000025.4453
10.848176666666667 -9.9 2.6666666666666665 5000025.4453
10.678886666666667 -10.766666666666667 2.6666666666666665 5000020.3666
10.678886666666667 -10.8 2.6666666666666665 5000020.3666
10.522466666666666 -11.833333333333334 2.6666666666666665 5000015.674
10.54333 -13.1 2.6666666666666665 5000016.2999
10.522466666666666 -13.133333333333333 2.6666666666666665 5000015.674
10.522466666666666 -13.166666666666666 2.6666666666666665 5000015.674
10.503143333333334 -13.2 2.6666666666666665 5000015.0943
10.503143333333334 -13.233333333333333 2.6666666666666665 5000015.0943
10.36731 -14.766666666666667 2.6666666666666665 5000011.0193
10.36731 -14.8 2.6666666666666665 5000011.0193
10.3775 -15.566666666666666 2.6666666666666665 5000011.325
10.3775 -15.6 2.6666666666666665 5000011.325
10.348493333333334 -16.533333333333335 2.6666666666666665 5000010.4548
10.36731 -17.866666666666667 2.6666666666666665 5000011.0193
10.36731 -17.9 2.6666666666666665 5000011.0193
11.50489 1.4333333333333333 2.6333333333333333 5000045.1467
11.692046666666666 -2.966666666666667 2.6333333333333333 5000050.7614
11.692046666666666 -3.0 2.6333333333333333 5000050.7614
11.692046666666666 -5.333333333333333 2.6333333333333333 5000050.7614
11.692046666666666 -5.366666666666666 2.6333333333333333 5000050.7614
11.692046666666666 -5.4 2.6333333333333333 5000050.7614
11.692046666666666 -5.433333333333334 2.6333333333333333 5000050.7614
11.692046666666666 -6.766666666666667 2.6333333333333333 5000050.7614
11.692046666666666 -6.8 2.6333333333333333 5000050.7614
11.692046666666666 -6.833333333333333 2.6333333333333333 5000050.7614
11.50489 -6.866666666666666 2.6333333333333333 5000045.1467
13.367 -6.9 2.6333333333333333 5000101.01
11.50489 -7.033333333333333 2.6333333333333333 5000045.1467
11.355013333333334 -7.066666666666666 2.6333333333333333 5000040.6504
13.367 -7.366666666666666 2.6333333333333333 5000101.01
11.129943333333333 -7.6 2.6333333333333333 5000033.8983
10.522466666666666 -8.233333333333333 2.6333333333333333 5000015.674
11.232286666666667 -9.233333333333333 2.6333333333333333 5000036.9686
10.848176666666667 -9.366666666666667 2.6333333333333333 5000025.4453
10.754146666666667 -9.5 2.6333333333333333 5000022.6244
10.468493333333333 -9.766666666666667 2.6333333333333333 5000014.0548
10.503143333333334 -10.233333333333333 2.6333333333333333 5000015.0943
10.678886666666667 -10.733333333333333 2.6333333333333333 5000020.3666
10.678886666666667 -10.766666666666667 2.6333333333333333 5000020.3666
10.678886666666667 -10.8 2.6333333333333333 5000020.3666
10.590493333333333 -11.266666666666667 2.6333333333333333 5000017.7148
10.522466666666666 -13.166666666666666 2.6333333333333333 5000015.674
10.503143333333334 -13.2 2.6333333333333333 5000015.0943
10.503143333333334 -13.233333333333333 2.6333333333333333 5000015.0943
10.3775 -15.566666666666666 2.6333333333333333 5000011.325
10.33151 -17.133333333333333 2.6333333333333333 5000009.9453
10.33151 -17.166666666666668 2.6333333333333333 5000009.9453
11.50489 1.4666666666666666 2.6 5000045.1467
11.50489 1.4333333333333333 2.6 5000045.1467
11.692046666666666 -5.433333333333334 2.6 5000050.7614
11.692046666666666 -6.766666666666667 2.6 5000050.7614
11.692046666666666 -6.8 2.6 5000050.7614
11.692046666666666 -6.833333333333333 2.6 5000050.7614
11.355013333333334 -7.033333333333333 2.6 5000040.6504
11.355013333333334 -7.066666666666666 2.6 5000040.6504
12.699056666666667 -7.433333333333334 2.6 5000080.9717
12.699056666666667 -7.466666666666667 2.6 5000080.9717
11.129943333333333 -7.6 2.6 5000033.8983
11.129943333333333 -7.633333333333334 2.6 5000033.8983
10.904566666666666 -7.966666666666667 2.6 5000027.137
10.678886666666667 -8.1 2.6 5000020.3666
10.522466666666666 -8.266666666666667 2.6 5000015.674
10.522466666666666 -8.3 2.6 5000015.674
12.252253333333334 -9.1 2.6 5000067.5676
11.50489 -9.133333333333333 2.6 5000045.1467
11.232286666666667 -9.233333333333333 2.6 5000036.9686
11.129943333333333 -9.266666666666667 2.6 5000033.8983
10.848176666666667 -9.333333333333334 2.6 5000025.4453
10.848176666666667 -9.366666666666667 2.6 5000025.4453
10.848176666666667 -9.4 2.6 5000025.4453
10.678886666666667 -10.766666666666667 2.6 5000020.3666
10.678886666666667 -10.8 2.6 5000020.3666
10.522466666666666 -10.966666666666667 2.6 5000015.674
10.522466666666666 -11.0 2.6 5000015.674
10.522466666666666 -11.033333333333333 2.6 5000015.674
10.590493333333333 -11.266666666666667 2.6 5000017.7148
10.590493333333333 -11.3 2.6 5000017.7148
10.590493333333333 -11.333333333333334 2.6 5000017.7148
10.503143333333334 -11.433333333333334 2.6 5000015.0943
10.503143333333334 -11.466666666666667 2.6 5000015.0943
10.522466666666666 -13.2 2.6 5000015.674
10.503143333333334 -13.233333333333333 2.6 5000015.0943
10.503143333333334 -13.266666666666667 2.6 5000015.0943
10.522466666666666 -13.533333333333333 2.6 5000015.674
10.522466666666666 -13.566666666666666 2.6 5000015.674
10.3775 -15.533333333333333 2.6 5000011.325
10.33151 -17.133333333333333 2.6 5000009.9453
10.33151 -17.166666666666668 2.6 5000009.9453
11.50489 1.4333333333333333 2.566666666666667 5000045.1467
11.50489 -2.7666666666666666 2.566666666666667 5000045.1467
11.355013333333334 -7.033333333333333 2.566666666666667 5000040.6504
13.367 -7.233333333333333 2.566666666666667 5000101.01
13.367 -7.266666666666667 2.566666666666667 5000101.01
12.252253333333334 -7.433333333333334 2.566666666666667 5000067.5676
12.252253333333334 -7.466666666666667 2.566666666666667 5000067.5676
11.232286666666667 -7.6 2.566666666666667 5000036.9686
11.232286666666667 -7.633333333333334 2.566666666666667 5000036.9686
11.043296666666667 -7.9 2.566666666666667 5000031.2989
10.904566666666666 -7.966666666666667 2.566666666666667 5000027.137
10.678886666666667 -8.1 2.566666666666667 5000020.3666
10.522466666666666 -8.266666666666667 2.566666666666667 5000015.674
10.522466666666666 -8.3 2.566666666666667 5000015.674
12.252253333333334 -9.1 2.566666666666667 5000067.5676
11.232286666666667 -9.2 2.566666666666667 5000036.9686
11.232286666666667 -9.233333333333333 2.566666666666667 5000036.9686
11.232286666666667 -9.266666666666667 2.566666666666667 5000036.9686
10.904566666666666 -9.333333333333334 2.566666666666667 5000027.137
10.848176666666667 -9.366666666666667 2.566666666666667 5000025.4453
10.848176666666667 -9.4 2.566666666666667 5000025.4453
10.848176666666667 -9.433333333333334 2.566666666666667 5000025.4453
10.54333 -9.633333333333333 2.566666666666667 5000016.2999
10.54333 -9.666666666666666 2.566666666666667 5000016.2999
10.54333 -9.7 2.566666666666667 5000016.2999
10.468493333333333 -9.8 2.566666666666667 5000014.0548
10.468493333333333 -9.833333333333334 2.566666666666667 5000014.0548
10.4529 -9.866666666666667 2.566666666666667 5000013.587
10.590493333333333 -11.3 2.566666666666667 5000017.7148
10.590493333333333 -11.333333333333334 2.566666666666667 5000017.7148
10.54333 -11.433333333333334 2.566666666666667 5000016.2999
10.503143333333334 -13.233333333333333 2.566666666666667 5000015.0943
10.503143333333334 -13.266666666666667 2.566666666666667 5000015.0943
10.503143333333334 -13.3 2.566666666666667 5000015.0943
10.678886666666667 -14.433333333333334 2.566666666666667 5000020.3666
10.39968 -14.766666666666667 2.566666666666667 5000011.9904
10.39968 -14.833333333333334 2.566666666666667 5000011.9904
10.411776666666666 -14.866666666666667 2.566666666666667 5000012.3533
10.411776666666666 -14.9 2.566666666666667 5000012.3533
10.3775 -15.5 2.566666666666667 5000011.325
10.3775 -15.533333333333333 2.566666666666667 5000011.325
10.33151 -17.166666666666668 2.566666666666667 5000009.9453
11.932366666666667 -5.333333333333333 2.533333333333333 5000057.971
11.50489 -5.366666666666666 2.533333333333333 5000045.1467
11.50489 -5.433333333333334 2.533333333333333 5000045.1467
11.355013333333334 -7.0 2.533333333333333 5000040.6504
11.355013333333334 -7.033333333333333 2.533333333333333 5000040.6504
13.367 -7.266666666666667 2.533333333333333 5000101.01
12.252253333333334 -7.433333333333334 2.533333333333333 5000067.5676
12.252253333333334 -7.466666666666667 2.533333333333333 5000067.5676
13.367 -7.6 2.533333333333333 5000101.01
13.367 -7.633333333333334 2.533333333333333 5000101.01
11.043296666666667 -7.866666666666666 2.533333333333333 5000031.2989
11.043296666666667 -7.9 2.533333333333333 5000031.2989
10.904566666666666 -7.966666666666667 2.533333333333333 5000027.137
10.848176666666667 -8.0 2.533333333333333 5000025.4453
10.503143333333334 -8.3 2.533333333333333 5000015.0943
11.043296666666667 -8.466666666666667 2.533333333333333 5000031.2989
10.348493333333334 -8.633333333333333 2.533333333333333 5000010.4548
10.33979 -8.666666666666666 2.533333333333333 5000010.1937
10.33979 -8.7 2.533333333333333 5000010.1937
10.323624666666667 -8.733333333333333 2.533333333333333 5000009.70874
11.355013333333334 -9.2 2.533333333333333 5000040.6504
