VERSION .7
FIELDS x y z rgb
SIZE 4 4 4 4
TYPE F F F F
COUNT 1 1 1 1
WIDTH 1480
HEIGHT 1
VIEWPOINT 0 0 0 1 0 0 0
POINTS 1480
DATA ascii
22.97934 -2.26 -0.5 31.2989
18.57126 -2.3 -0.5 23.9521
18.57126 -2.32 -0.5 23.9521
18.57126 -2.34 -0.5 23.9521
17.77464 -2.36 -0.5 22.6244
13.25658 -2.52 -0.5 15.0943
12.933599999999998 -2.54 -0.5 14.556
12.933599999999998 -2.56 -0.5 14.556
12.933599999999998 -2.58 -0.5 14.556
12.3522 -3.44 -0.5 13.587
12.3522 -3.46 -0.5 13.587
12.3522 -3.48 -0.5 13.587
12.08952 -3.5 -0.5 13.1492
13.6044 -3.68 -0.5 15.674
13.6044 -3.7 -0.5 15.674
13.6044 -3.72 -0.5 15.674
12.63288 -3.78 -0.5 14.0548
12.3522 -3.8 -0.5 13.587
11.843340000000001 -5.14 -0.5 12.7389
28.590239999999998 1.92 -0.52 40.6504
38.9826 0.24 -0.52 57.971
31.28802 0.2 -0.52 45.1467
28.590239999999998 0.18 -0.52 40.6504
28.590239999999998 -0.78 -0.52 40.6504
28.590239999999998 -0.8 -0.52 40.6504
24.53898 -0.94 -0.52 33.8983
26.38116 -1.06 -0.52 36.9686
26.38116 -1.08 -0.52 36.9686
22.97934 -1.16 -0.52 31.2989
22.97934 -1.18 -0.52 31.2989
21.64188 -1.34 -0.52 29.0698
21.64188 -1.36 -0.52 29.0698
21.64188 -1.38 -0.52 29.0698
13.979940000000001 -1.42 -0.52 16.2999
19.467180000000003 -1.84 -0.52 25.4453
19.467180000000003 -1.86 -0.52 25.4453
31.28802 -2.16 -0.52 45.1467
31.28802 -2.18 -0.52 45.1467
26.38116 -2.22 -0.52 36.9686
24.53898 -2.24 -0.52 33.8983
18.57126 -2.32 -0.52 23.9521
17.77464 -2.34 -0.52 22.6244
17.77464 -2.36 -0.52 22.6244
17.77464 -2.38 -0.52 22.6244
17.06172 -2.4 -0.52 21.4362
12.933599999999998 -2.54 -0.52 14.556
12.933599999999998 -2.56 -0.52 14.556
11.18892 -2.68 -0.52 11.6482
13.979940000000001 -3.68 -0.52 16.2999
13.6044 -3.7 -0.52 15.674
13.6044 -3.72 -0.52 15.674
13.25658 -3.74 -0.52 15.0943
12.933599999999998 -3.78 -0.52 14.556
12.3522 -3.8 -0.52 13.587
11.843340000000001 -5.12 -0.52 12.7389
11.843340000000001 -5.14 -0.52 12.7389
38.9826 0.24 -0.54 57.971
31.28802 0.2 -0.54 45.1467
28.590239999999998 0.18 -0.54 40.6504
28.590239999999998 -0.8 -0.54 40.6504
28.590239999999998 -0.88 -0.54 40.6504
28.590239999999998 -0.9 -0.54 40.6504
24.53898 -0.94 -0.54 33.8983
26.38116 -1.04 -0.54 36.9686
26.38116 -1.06 -0.54 36.9686
26.38116 -1.08 -0.54 36.9686
22.97934 -1.16 -0.54 31.2989
22.97934 -1.18 -0.54 31.2989
22.97934 -1.2 -0.54 31.2989
21.64188 -1.36 -0.54 29.0698
13.25658 -1.42 -0.54 15.0943
13.25658 -1.44 -0.54 15.0943
17.77464 -2.36 -0.54 22.6244
17.77464 -2.38 -0.54 22.6244
7.463532 -2.44 -0.54 5.43922
7.463532 -2.46 -0.54 5.43922
12.933599999999998 -2.54 -0.54 14.556
13.6044 -3.7 -0.54 15.674
13.6044 -3.72 -0.54 15.674
13.25658 -3.74 -0.54 15.0943
12.08952 -5.1 -0.54 13.1492
12.08952 -5.12 -0.54 13.1492
12.08952 -5.14 -0.54 13.1492
10.16718 -6.5 -0.54 9.9453
38.9826 0.24 -0.56 57.971
31.28802 0.2 -0.56 45.1467
28.590239999999998 0.18 -0.56 40.6504
28.590239999999998 -0.88 -0.56 40.6504
28.590239999999998 -0.9 -0.56 40.6504
64.806 -0.94 -0.56 101.01
24.53898 -1.04 -0.56 33.8983
24.53898 -1.06 -0.56 33.8983
24.53898 -1.08 -0.56 33.8983
22.97934 -1.16 -0.56 31.2989
22.97934 -1.18 -0.56 31.2989
22.97934 -1.2 -0.56 31.2989
16.419959999999996 -1.22 -0.56 20.3666
21.64188 -1.34 -0.56 29.0698
21.64188 -1.36 -0.56 29.0698
21.64188 -1.38 -0.56 29.0698
19.467180000000003 -1.8 -0.56 25.4453
13.25658 -3.74 -0.56 15.0943
13.25658 -3.76 -0.56 15.0943
11.18892 -3.88 -0.56 11.6482
11.18892 -3.92 -0.56 11.6482
10.16718 -6.38 -0.56 9.9453
10.16718 -6.4 -0.56 9.9453
10.16718 -6.68 -0.56 9.9453
10.025244 -6.7 -0.56 9.70874
10.025244 -6.72 -0.56 9.70874
28.590239999999998 -0.88 -0.58 40.6504
28.590239999999998 -0.9 -0.58 40.6504
24.53898 -1.06 -0.58 33.8983
24.53898 -1.08 -0.58 33.8983
16.419959999999996 -1.2 -0.58 20.3666
16.419959999999996 -1.22 -0.58 20.3666
21.64188 -1.34 -0.58 29.0698
21.64188 -1.36 -0.58 29.0698
18.57126 -1.38 -0.58 23.9521
12.933599999999998 -1.4 -0.58 14.556
12.933599999999998 -1.46 -0.58 14.556
19.467180000000003 -1.78 -0.58 25.4453
19.467180000000003 -1.8 -0.58 25.4453
15.3111 -3.16 -0.58 18.5185
14.82888 -3.18 -0.58 17.7148
11.61198 -3.92 -0.58 12.3533
12.63288 -4.94 -0.58 14.0548
12.63288 -4.96 -0.58 14.0548
12.3522 -4.98 -0.58 13.587
12.3522 -5.0 -0.58 13.587
12.3522 -5.02 -0.58 13.587
12.08952 -5.04 -0.58 13.1492
10.16718 -6.26 -0.58 9.9453
10.16718 -6.28 -0.58 9.9453
10.025244 -6.7 -0.58 9.70874
10.025244 -6.72 -0.58 9.70874
10.025244 -6.74 -0.58 9.70874
24.53898 -1.06 -0.6 33.8983
12.3522 -1.36 -0.6 13.587
12.3522 -1.38 -0.6 13.587
12.3522 -1.4 -0.6 13.587
11.843340000000001 -1.44 -0.6 12.7389
19.467180000000003 -1.8 -0.6 25.4453
19.467180000000003 -1.84 -0.6 25.4453
10.025244 -1.86 -0.6 9.70874
10.025244 -1.88 -0.6 9.70874
9.889902000000001 -1.9 -0.6 9.48317
15.3111 -3.16 -0.6 18.5185
14.82888 -3.18 -0.6 17.7148
14.82888 -3.2 -0.6 17.7148
13.25658 -3.28 -0.6 15.0943
13.25658 -3.3 -0.6 15.0943
12.08952 -3.36 -0.6 13.1492
12.08952 -3.38 -0.6 13.1492
124.19999999999999 -4.12 -0.6 200.0
124.19999999999999 -4.14 -0.6 200.0
124.19999999999999 -4.16 -0.6 200.0
124.19999999999999 -4.18 -0.6 200.0
124.19999999999999 -4.2 -0.6 200.0
12.3522 -4.26 -0.6 13.587
12.3522 -4.28 -0.6 13.587
11.61198 -4.34 -0.6 12.3533
15.83916 -4.74 -0.6 19.3986
15.83916 -4.76 -0.6 19.3986
15.83916 -4.78 -0.6 19.3986
14.386740000000001 -4.84 -0.6 16.9779
14.386740000000001 -4.86 -0.6 16.9779
12.3522 -4.98 -0.6 13.587
12.3522 -5.0 -0.6 13.587
12.08952 -5.02 -0.6 13.1492
12.08952 -5.04 -0.6 13.1492
11.843340000000001 -5.06 -0.6 12.7389
10.16718 -6.24 -0.6 9.9453
10.16718 -6.26 -0.6 9.9453
10.16718 -6.28 -0.6 9.9453
10.025244 -6.72 -0.6 9.70874
10.025244 -6.74 -0.6 9.70874
34.65684 0.18 -0.62 50.7614
26.38116 0.12 -0.62 36.9686
24.53898 -1.06 -0.62 33.8983
15.83916 -1.26 -0.62 19.3986
12.3522 -1.4 -0.62 13.587
12.3522 -1.48 -0.62 13.587
15.83916 -1.56 -0.62 19.3986
8.024094 -1.94 -0.62 6.37349
8.024094 -1.96 -0.62 6.37349
17.77464 -2.14 -0.62 22.6244
15.83916 -2.2 -0.62 19.3986
15.3111 -2.24 -0.62 18.5185
16.419959999999996 -2.44 -0.62 20.3666
16.419959999999996 -2.46 -0.62 20.3666
15.3111 -3.16 -0.62 18.5185
14.82888 -3.18 -0.62 17.7148
14.82888 -3.2 -0.62 17.7148
14.82888 -3.22 -0.62 17.7148
12.08952 -3.36 -0.62 13.1492
12.63288 -3.6 -0.62 14.0548
12.63288 -3.62 -0.62 14.0548
11.61198 -3.92 -0.62 12.3533
11.843340000000001 -4.94 -0.62 12.7389
12.3522 -4.96 -0.62 13.587
11.843340000000001 -5.06 -0.62 12.7389
11.843340000000001 -5.08 -0.62 12.7389
13.979940000000001 -5.32 -0.62 16.2999
13.6044 -5.34 -0.62 15.674
11.843340000000001 -5.42 -0.62 12.7389
11.61198 -5.44 -0.62 12.3533
11.843340000000001 -5.5 -0.62 12.7389
11.843340000000001 -5.54 -0.62 12.7389
10.316220000000001 -5.64 -0.62 10.1937
10.316220000000001 -6.22 -0.62 10.1937
10.16718 -6.24 -0.62 9.9453
10.16718 -6.26 -0.62 9.9453
10.16718 -6.28 -0.62 9.9453
34.65684 0.18 -0.64 50.7614
34.65684 0.16 -0.64 50.7614
24.53898 0.1 -0.64 33.8983
24.53898 0.08 -0.64 33.8983
24.53898 -1.12 -0.64 33.8983
24.53898 -1.14 -0.64 33.8983
24.53898 -1.16 -0.64 33.8983
15.83916 -1.28 -0.64 19.3986
15.83916 -1.3 -0.64 19.3986
15.83916 -1.52 -0.64 19.3986
15.83916 -1.54 -0.64 19.3986
17.77464 -2.12 -0.64 22.6244
17.77464 -2.14 -0.64 22.6244
17.77464 -2.16 -0.64 22.6244
15.83916 -2.2 -0.64 19.3986
15.83916 -2.22 -0.64 19.3986
13.979940000000001 -2.28 -0.64 16.2999
13.979940000000001 -2.3 -0.64 16.2999
10.637759999999998 -2.52 -0.64 10.7296
10.637759999999998 -2.54 -0.64 10.7296
10.637759999999998 -2.56 -0.64 10.7296
14.82888 -3.18 -0.64 17.7148
14.82888 -3.2 -0.64 17.7148
14.82888 -3.22 -0.64 17.7148
10.995 -3.5 -0.64 11.325
10.995 -3.52 -0.64 11.325
12.63288 -3.58 -0.64 14.0548
12.63288 -3.62 -0.64 14.0548
12.08952 -3.86 -0.64 13.1492
11.843340000000001 -3.88 -0.64 12.7389
11.843340000000001 -3.9 -0.64 12.7389
11.61198 -3.92 -0.64 12.3533
11.61198 -3.94 -0.64 12.3533
11.843340000000001 -4.94 -0.64 12.7389
11.843340000000001 -4.96 -0.64 12.7389
12.08952 -5.06 -0.64 13.1492
11.843340000000001 -5.08 -0.64 12.7389
11.843340000000001 -5.1 -0.64 12.7389
11.61198 -5.12 -0.64 12.3533
11.61198 -5.14 -0.64 12.3533
13.6044 -5.34 -0.64 15.674
13.6044 -5.36 -0.64 15.674
13.25658 -5.38 -0.64 15.0943
11.843340000000001 -5.4 -0.64 12.7389
11.843340000000001 -5.42 -0.64 12.7389
11.61198 -5.44 -0.64 12.3533
11.61198 -5.46 -0.64 12.3533
11.61198 -5.48 -0.64 12.3533
11.843340000000001 -5.52 -0.64 12.7389
11.843340000000001 -5.54 -0.64 12.7389
11.843340000000001 -5.56 -0.64 12.7389
11.61198 -5.58 -0.64 12.3533
10.637759999999998 -5.6 -0.64 10.7296
10.316220000000001 -5.66 -0.64 10.1937
10.316220000000001 -5.68 -0.64 10.1937
10.16718 -6.46 -0.64 9.9453
9.889902000000001 -6.72 -0.64 9.48317
9.889902000000001 -6.74 -0.64 9.48317
22.97934 2.42 -0.66 31.2989
34.65684 0.14 -0.66 50.7614
24.53898 0.08 -0.66 33.8983
24.53898 0.06 -0.66 33.8983
24.53898 -1.12 -0.66 33.8983
24.53898 -1.14 -0.66 33.8983
24.53898 -1.16 -0.66 33.8983
15.83916 -1.28 -0.66 19.3986
15.83916 -1.3 -0.66 19.3986
21.64188 -1.4 -0.66 29.0698
21.64188 -1.42 -0.66 29.0698
21.64188 -1.44 -0.66 29.0698
15.83916 -1.54 -0.66 19.3986
13.979940000000001 -1.58 -0.66 16.2999
10.637759999999998 -1.6 -0.66 10.7296
10.316220000000001 -1.62 -0.66 10.1937
17.77464 -2.12 -0.66 22.6244
17.77464 -2.14 -0.66 22.6244
13.979940000000001 -2.28 -0.66 16.2999
16.419959999999996 -2.44 -0.66 20.3666
14.82888 -3.22 -0.66 17.7148
13.6044 -3.32 -0.66 15.674
13.6044 -3.38 -0.66 15.674
11.61198 -4.94 -0.66 12.3533
11.61198 -4.96 -0.66 12.3533
11.843340000000001 -5.08 -0.66 12.7389
11.61198 -5.1 -0.66 12.3533
11.61198 -5.12 -0.66 12.3533
11.61198 -5.14 -0.66 12.3533
11.843340000000001 -5.42 -0.66 12.7389
11.61198 -5.44 -0.66 12.3533
11.843340000000001 -5.52 -0.66 12.7389
11.843340000000001 -5.54 -0.66 12.7389
11.843340000000001 -5.56 -0.66 12.7389
11.61198 -5.58 -0.66 12.3533
10.472879999999998 -5.62 -0.66 10.4548
10.316220000000001 -5.64 -0.66 10.1937
10.316220000000001 -5.94 -0.66 10.1937
14.386740000000001 -5.98 -0.66 16.9779
14.82888 -6.0 -0.66 17.7148
14.386740000000001 -6.02 -0.66 16.9779
10.472879999999998 -6.3 -0.66 10.4548
10.316220000000001 -6.32 -0.66 10.1937
10.316220000000001 -6.34 -0.66 10.1937
10.16718 -6.36 -0.66 9.9453
10.16718 -6.38 -0.66 9.9453
8.905884 -6.54 -0.66 7.84314
8.817162000000001 -6.56 -0.66 7.69527
8.731722000000001 -6.58 -0.66 7.55287
8.64939 -6.6 -0.66 7.41565
10.025244 -6.7 -0.66 9.70874
9.889902000000001 -6.72 -0.66 9.48317
24.53898 0.08 -0.68 33.8983
24.53898 0.06 -0.68 33.8983
21.64188 -1.4 -0.68 29.0698
21.64188 -1.42 -0.68 29.0698
21.64188 -1.44 -0.68 29.0698
21.64188 -1.46 -0.68 29.0698
18.57126 -2.12 -0.68 23.9521
18.57126 -2.14 -0.68 23.9521
11.61198 -2.44 -0.68 12.3533
12.08952 -4.38 -0.68 13.1492
12.3522 -4.56 -0.68 13.587
11.61198 -4.96 -0.68 12.3533
12.08952 -5.04 -0.68 13.1492
12.08952 -5.06 -0.68 13.1492
11.843340000000001 -5.08 -0.68 12.7389
11.61198 -5.1 -0.68 12.3533
11.61198 -5.12 -0.68 12.3533
11.61198 -5.14 -0.68 12.3533
11.843340000000001 -5.54 -0.68 12.7389
10.637759999999998 -5.86 -0.68 10.7296
10.472879999999998 -5.88 -0.68 10.4548
10.472879999999998 -5.9 -0.68 10.4548
10.316220000000001 -5.92 -0.68 10.1937
10.316220000000001 -5.94 -0.68 10.1937
14.82888 -6.0 -0.68 17.7148
14.386740000000001 -6.02 -0.68 16.9779
14.386740000000001 -6.04 -0.68 16.9779
13.979940000000001 -6.06 -0.68 16.2999
12.63288 -6.08 -0.68 14.0548
12.3522 -6.1 -0.68 13.587
12.3522 -6.12 -0.68 13.587
12.08952 -6.14 -0.68 13.1492
11.843340000000001 -6.16 -0.68 12.7389
11.61198 -6.18 -0.68 12.3533
11.394240000000002 -6.2 -0.68 11.9904
11.394240000000002 -6.22 -0.68 11.9904
10.995 -6.24 -0.68 11.325
10.637759999999998 -6.26 -0.68 10.7296
10.472879999999998 -6.28 -0.68 10.4548
10.472879999999998 -6.3 -0.68 10.4548
10.316220000000001 -6.32 -0.68 10.1937
10.316220000000001 -6.34 -0.68 10.1937
10.16718 -6.36 -0.68 9.9453
10.16718 -6.38 -0.68 9.9453
10.025244 -6.4 -0.68 9.70874
8.64939 -6.6 -0.68 7.41565
8.64939 -6.62 -0.68 7.41565
8.569992 -6.64 -0.68 7.28332
8.569992 -6.66 -0.68 7.28332
9.889902000000001 -6.74 -0.68 9.48317
21.64188 -1.42 -0.7 29.0698
18.57126 -2.12 -0.7 23.9521
15.3111 -2.96 -0.7 18.5185
13.6044 -3.04 -0.7 15.674
13.6044 -3.34 -0.7 15.674
13.6044 -3.36 -0.7 15.674
12.08952 -3.46 -0.7 13.1492
10.995 -3.6 -0.7 11.325
12.63288 -4.38 -0.7 14.0548
12.3522 -4.54 -0.7 13.587
12.3522 -4.56 -0.7 13.587
12.3522 -4.58 -0.7 13.587
11.18892 -4.64 -0.7 11.6482
11.18892 -4.66 -0.7 11.6482
11.843340000000001 -5.1 -0.7 12.7389
11.61198 -5.12 -0.7 12.3533
11.61198 -5.14 -0.7 12.3533
11.61198 -5.16 -0.7 12.3533
11.394240000000002 -5.78 -0.7 11.9904
11.394240000000002 -5.8 -0.7 11.9904
10.472879999999998 -5.9 -0.7 10.4548
10.316220000000001 -5.92 -0.7 10.1937
10.472879999999998 -6.3 -0.7 10.4548
10.316220000000001 -6.32 -0.7 10.1937
10.316220000000001 -6.34 -0.7 10.1937
10.16718 -6.36 -0.7 9.9453
10.16718 -6.38 -0.7 9.9453
10.025244 -6.4 -0.7 9.70874
8.817162000000001 -6.56 -0.7 7.69527
21.64188 -1.42 -0.72 29.0698
18.57126 -2.12 -0.72 23.9521
13.6044 -2.98 -0.72 15.674
15.83916 -3.22 -0.72 19.3986
15.83916 -3.24 -0.72 19.3986
13.979940000000001 -3.34 -0.72 16.2999
12.08952 -3.46 -0.72 13.1492
12.08952 -3.48 -0.72 13.1492
12.3522 -4.54 -0.72 13.587
12.3522 -4.56 -0.72 13.587
11.18892 -4.64 -0.72 11.6482
11.18892 -4.66 -0.72 11.6482
11.61198 -5.12 -0.72 12.3533
11.61198 -5.14 -0.72 12.3533
10.316220000000001 -6.34 -0.72 10.1937
10.16718 -6.36 -0.72 9.9453
10.16718 -6.38 -0.72 9.9453
28.590239999999998 0.0 -0.74 40.6504
17.06172 -2.38 -0.74 21.4362
15.3111 -2.44 -0.74 18.5185
15.3111 -2.92 -0.74 18.5185
15.3111 -2.94 -0.74 18.5185
13.6044 -2.98 -0.74 15.674
14.82888 -3.0 -0.74 17.7148
15.83916 -3.24 -0.74 19.3986
15.3111 -3.26 -0.74 18.5185
13.979940000000001 -3.3 -0.74 16.2999
13.979940000000001 -3.32 -0.74 16.2999
13.979940000000001 -3.34 -0.74 16.2999
12.08952 -3.48 -0.74 13.1492
12.63288 -4.36 -0.74 14.0548
12.63288 -4.38 -0.74 14.0548
12.3522 -4.54 -0.74 13.587
11.18892 -4.66 -0.74 11.6482
28.590239999999998 0.02 -0.76 40.6504
28.590239999999998 0.0 -0.76 40.6504
21.64188 -0.06 -0.76 29.0698
20.4822 -0.08 -0.76 27.137
20.4822 -1.76 -0.76 27.137
20.4822 -1.78 -0.76 27.137
20.4822 -1.8 -0.76 27.137
31.28802 -2.2 -0.76 45.1467
14.82888 -2.44 -0.76 17.7148
14.82888 -2.46 -0.76 17.7148
15.83916 -2.84 -0.76 19.3986
15.83916 -2.86 -0.76 19.3986
14.82888 -2.94 -0.76 17.7148
14.82888 -3.0 -0.76 17.7148
13.979940000000001 -3.3 -0.76 16.2999
13.979940000000001 -3.32 -0.76 16.2999
12.933599999999998 -3.4 -0.76 14.556
12.63288 -3.42 -0.76 14.0548
10.316220000000001 -5.32 -0.76 10.1937
10.995 -5.58 -0.76 11.325
10.995 -5.6 -0.76 11.325
11.18892 -5.62 -0.76 11.6482
28.590239999999998 -0.02 -0.78 40.6504
20.4822 -0.08 -0.78 27.137
20.4822 -0.1 -0.78 27.137
20.4822 -0.12 -0.78 27.137
20.4822 -1.76 -0.78 27.137
20.4822 -1.78 -0.78 27.137
20.4822 -1.8 -0.78 27.137
13.979940000000001 -1.94 -0.78 16.2999
13.979940000000001 -1.96 -0.78 16.2999
13.979940000000001 -1.98 -0.78 16.2999
13.6044 -2.0 -0.78 15.674
124.19999999999999 -2.06 -0.78 200.0
84.7368 -2.08 -0.78 134.228
17.06172 -2.36 -0.78 21.4362
17.06172 -2.38 -0.78 21.4362
15.3111 -2.42 -0.78 18.5185
14.82888 -2.44 -0.78 17.7148
14.82888 -2.46 -0.78 17.7148
13.979940000000001 -3.3 -0.78 16.2999
13.979940000000001 -3.32 -0.78 16.2999
12.933599999999998 -3.38 -0.78 14.556
11.61198 -5.22 -0.78 12.3533
11.61198 -5.24 -0.78 12.3533
11.61198 -5.26 -0.78 12.3533
8.99808 -5.78 -0.78 7.9968
20.4822 -0.12 -0.8 27.137
19.467180000000003 -0.14 -0.8 25.4453
20.4822 -1.78 -0.8 27.137
20.4822 -1.8 -0.8 27.137
19.467180000000003 -1.82 -0.8 25.4453
19.467180000000003 -1.9 -0.8 25.4453
13.979940000000001 -1.94 -0.8 16.2999
13.979940000000001 -1.96 -0.8 16.2999
13.979940000000001 -1.98 -0.8 16.2999
17.77464 -2.12 -0.8 22.6244
17.77464 -2.14 -0.8 22.6244
17.77464 -2.16 -0.8 22.6244
17.06172 -2.36 -0.8 21.4362
17.06172 -2.38 -0.8 21.4362
14.386740000000001 -2.44 -0.8 16.9779
14.386740000000001 -2.46 -0.8 16.9779
14.82888 -3.0 -0.8 17.7148
14.82888 -3.02 -0.8 17.7148
13.979940000000001 -3.3 -0.8 16.2999
13.979940000000001 -3.32 -0.8 16.2999
13.6044 -3.36 -0.8 15.674
12.08952 -4.46 -0.8 13.1492
12.08952 -4.48 -0.8 13.1492
11.61198 -5.22 -0.8 12.3533
11.61198 -5.24 -0.8 12.3533
11.61198 -5.26 -0.8 12.3533
11.18892 -5.48 -0.8 11.6482
10.995 -5.5 -0.8 11.325
10.637759999999998 -5.54 -0.8 10.7296
10.637759999999998 -5.56 -0.8 10.7296
10.637759999999998 -5.58 -0.8 10.7296
19.467180000000003 -0.14 -0.82 25.4453
19.467180000000003 -0.16 -0.82 25.4453
19.467180000000003 -1.8 -0.82 25.4453
13.979940000000001 -1.96 -0.82 16.2999
13.979940000000001 -1.98 -0.82 16.2999
17.77464 -2.16 -0.82 22.6244
14.82888 -2.24 -0.82 17.7148
17.06172 -2.36 -0.82 21.4362
14.82888 -2.46 -0.82 17.7148
14.82888 -3.02 -0.82 17.7148
13.979940000000001 -3.3 -0.82 16.2999
12.3522 -4.2 -0.82 13.587
12.3522 -4.22 -0.82 13.587
12.08952 -4.48 -0.82 13.1492
12.08952 -4.5 -0.82 13.1492
17.06172 -4.86 -0.82 21.4362
17.06172 -4.88 -0.82 21.4362
15.83916 -4.9 -0.82 19.3986
15.3111 -4.92 -0.82 18.5185
14.82888 -4.94 -0.82 17.7148
13.25658 -4.96 -0.82 15.0943
12.933599999999998 -5.0 -0.82 14.556
12.63288 -5.02 -0.82 14.0548
12.3522 -5.04 -0.82 13.587
12.08952 -5.06 -0.82 13.1492
11.843340000000001 -5.08 -0.82 12.7389
11.843340000000001 -5.1 -0.82 12.7389
11.61198 -5.22 -0.82 12.3533
11.61198 -5.24 -0.82 12.3533
11.18892 -5.46 -0.82 11.6482
11.18892 -5.48 -0.82 11.6482
10.637759999999998 -5.54 -0.82 10.7296
10.472879999999998 -5.56 -0.82 10.4548
19.467180000000003 -0.16 -0.84 25.4453
19.467180000000003 -0.18 -0.84 25.4453
17.06172 -2.36 -0.84 21.4362
16.419959999999996 -2.44 -0.84 20.3666
16.419959999999996 -2.46 -0.84 20.3666
14.82888 -2.48 -0.84 17.7148
15.83916 -2.84 -0.84 19.3986
15.83916 -2.86 -0.84 19.3986
14.82888 -2.92 -0.84 17.7148
14.82888 -2.94 -0.84 17.7148
14.82888 -2.96 -0.84 17.7148
14.82888 -3.04 -0.84 17.7148
12.3522 -4.18 -0.84 13.587
12.3522 -4.2 -0.84 13.587
12.3522 -4.22 -0.84 13.587
12.08952 -4.46 -0.84 13.1492
12.08952 -4.48 -0.84 13.1492
12.08952 -4.5 -0.84 13.1492
12.08952 -4.64 -0.84 13.1492
12.933599999999998 -4.98 -0.84 14.556
12.933599999999998 -5.0 -0.84 14.556
12.63288 -5.02 -0.84 14.0548
12.08952 -5.06 -0.84 13.1492
11.843340000000001 -5.08 -0.84 12.7389
11.843340000000001 -5.1 -0.84 12.7389
11.61198 -5.12 -0.84 12.3533
11.61198 -5.14 -0.84 12.3533
11.394240000000002 -5.16 -0.84 11.9904
11.61198 -5.22 -0.84 12.3533
11.61198 -5.24 -0.84 12.3533
10.16718 -5.34 -0.84 9.9453
10.025244 -5.36 -0.84 9.70874
10.025244 -5.4 -0.84 9.70874
9.760704 -6.72 -0.84 9.26784
17.06172 -2.32 -0.86 21.4362
17.06172 -2.34 -0.86 21.4362
17.06172 -2.36 -0.86 21.4362
17.06172 -2.42 -0.86 21.4362
17.06172 -2.44 -0.86 21.4362
15.83916 -2.84 -0.86 19.3986
15.83916 -2.86 -0.86 19.3986
14.82888 -2.92 -0.86 17.7148
14.82888 -2.94 -0.86 17.7148
14.82888 -2.96 -0.86 17.7148
12.3522 -4.18 -0.86 13.587
12.3522 -4.2 -0.86 13.587
12.3522 -4.22 -0.86 13.587
12.08952 -4.24 -0.86 13.1492
12.3522 -4.42 -0.86 13.587
12.08952 -4.48 -0.86 13.1492
12.08952 -4.5 -0.86 13.1492
12.08952 -4.64 -0.86 13.1492
12.08952 -4.66 -0.86 13.1492
12.933599999999998 -5.0 -0.86 14.556
12.63288 -5.02 -0.86 14.0548
12.08952 -5.06 -0.86 13.1492
11.843340000000001 -5.08 -0.86 12.7389
11.843340000000001 -5.1 -0.86 12.7389
11.61198 -5.12 -0.86 12.3533
11.61198 -5.22 -0.86 12.3533
11.61198 -5.24 -0.86 12.3533
11.61198 -5.26 -0.86 12.3533
10.472879999999998 -5.28 -0.86 10.4548
10.316220000000001 -5.3 -0.86 10.1937
10.811580000000001 -5.9 -0.86 11.0193
10.811580000000001 -5.92 -0.86 11.0193
10.637759999999998 -5.94 -0.86 10.7296
10.637759999999998 -5.96 -0.86 10.7296
10.472879999999998 -5.98 -0.86 10.4548
10.472879999999998 -6.0 -0.86 10.4548
9.760704 -6.7 -0.86 9.26784
38.9826 -2.16 -0.88 57.971
38.9826 -2.18 -0.88 57.971
38.9826 -2.2 -0.88 57.971
17.77464 -2.22 -0.88 22.6244
21.64188 -2.34 -0.88 29.0698
21.64188 -2.36 -0.88 29.0698
17.06172 -2.42 -0.88 21.4362
17.06172 -2.44 -0.88 21.4362
17.06172 -2.46 -0.88 21.4362
14.82888 -2.94 -0.88 17.7148
14.82888 -2.96 -0.88 17.7148
12.3522 -4.2 -0.88 13.587
12.3522 -4.22 -0.88 13.587
11.18892 -4.32 -0.88 11.6482
12.08952 -4.64 -0.88 13.1492
12.08952 -4.66 -0.88 13.1492
11.843340000000001 -4.92 -0.88 12.7389
11.843340000000001 -4.94 -0.88 12.7389
11.843340000000001 -5.08 -0.88 12.7389
11.843340000000001 -5.1 -0.88 12.7389
11.61198 -5.12 -0.88 12.3533
10.472879999999998 -5.28 -0.88 10.4548
10.316220000000001 -5.3 -0.88 10.1937
10.637759999999998 -5.96 -0.88 10.7296
10.472879999999998 -5.98 -0.88 10.4548
10.472879999999998 -6.0 -0.88 10.4548
9.406074 -6.06 -0.88 8.67679
9.406074 -6.08 -0.88 8.67679
9.406074 -6.1 -0.88 8.67679
17.06172 -2.44 -0.9 21.4362
17.06172 -2.46 -0.9 21.4362
14.82888 -2.92 -0.9 17.7148
14.82888 -4.04 -0.9 17.7148
14.82888 -4.06 -0.9 17.7148
14.82888 -4.08 -0.9 17.7148
14.386740000000001 -4.1 -0.9 16.9779
12.3522 -4.2 -0.9 13.587
11.394240000000002 -4.28 -0.9 11.9904
11.394240000000002 -4.3 -0.9 11.9904
11.18892 -4.32 -0.9 11.6482
11.18892 -4.34 -0.9 11.6482
10.995 -4.36 -0.9 11.325
11.843340000000001 -4.66 -0.9 12.7389
11.843340000000001 -4.92 -0.9 12.7389
11.843340000000001 -4.94 -0.9 12.7389
10.995 -5.48 -0.9 11.325
10.025244 -6.62 -0.9 9.70874
10.025244 -6.64 -0.9 9.70874
9.889902000000001 -6.66 -0.9 9.48317
9.889902000000001 -6.68 -0.9 9.48317
17.06172 -2.44 -0.92 21.4362
17.06172 -2.46 -0.92 21.4362
13.979940000000001 -2.56 -0.92 16.2999
15.3111 -2.84 -0.92 18.5185
15.3111 -2.92 -0.92 18.5185
15.3111 -2.94 -0.92 18.5185
15.3111 -2.96 -0.92 18.5185
13.979940000000001 -3.26 -0.92 16.2999
13.979940000000001 -3.28 -0.92 16.2999
13.979940000000001 -3.3 -0.92 16.2999
13.6044 -3.32 -0.92 15.674
13.25658 -3.34 -0.92 15.0943
12.933599999999998 -4.14 -0.92 14.556
12.3522 -4.16 -0.92 13.587
12.3522 -4.18 -0.92 13.587
11.61198 -4.26 -0.92 12.3533
11.394240000000002 -4.28 -0.92 11.9904
11.394240000000002 -4.3 -0.92 11.9904
11.843340000000001 -4.92 -0.92 12.7389
11.843340000000001 -4.94 -0.92 12.7389
11.843340000000001 -4.96 -0.92 12.7389
10.995 -5.48 -0.92 11.325
10.995 -5.5 -0.92 11.325
10.995 -5.52 -0.92 11.325
9.889902000000001 -6.66 -0.92 9.48317
9.889902000000001 -6.68 -0.92 9.48317
9.889902000000001 -6.7 -0.92 9.48317
9.760704 -6.72 -0.92 9.26784
18.57126 -0.26 -0.94 23.9521
18.57126 -0.28 -0.94 23.9521
17.77464 -0.36 -0.94 22.6244
17.06172 -0.38 -0.94 21.4362
16.419959999999996 -2.42 -0.94 20.3666
16.419959999999996 -2.44 -0.94 20.3666
16.419959999999996 -2.46 -0.94 20.3666
13.979940000000001 -2.54 -0.94 16.2999
13.979940000000001 -2.56 -0.94 16.2999
15.3111 -2.84 -0.94 18.5185
15.3111 -2.94 -0.94 18.5185
15.3111 -2.96 -0.94 18.5185
13.979940000000001 -3.26 -0.94 16.2999
13.979940000000001 -3.28 -0.94 16.2999
13.6044 -3.32 -0.94 15.674
13.979940000000001 -3.4 -0.94 16.2999
13.979940000000001 -3.42 -0.94 16.2999
13.979940000000001 -3.44 -0.94 16.2999
11.61198 -4.26 -0.94 12.3533
11.843340000000001 -4.94 -0.94 12.7389
11.843340000000001 -4.96 -0.94 12.7389
11.843340000000001 -4.98 -0.94 12.7389
9.760704 -6.0 -0.94 9.26784
9.760704 -6.02 -0.94 9.26784
9.760704 -6.04 -0.94 9.26784
17.06172 1.82 -0.96 21.4362
18.57126 -0.28 -0.96 23.9521
17.06172 -0.38 -0.96 21.4362
17.06172 -0.4 -0.96 21.4362
17.06172 -0.42 -0.96 21.4362
17.06172 -2.36 -0.96 21.4362
13.979940000000001 -2.54 -0.96 16.2999
13.979940000000001 -2.56 -0.96 16.2999
15.3111 -2.84 -0.96 18.5185
15.3111 -2.94 -0.96 18.5185
15.3111 -2.96 -0.96 18.5185
13.979940000000001 -3.42 -0.96 16.2999
11.61198 -4.24 -0.96 12.3533
11.843340000000001 -4.96 -0.96 12.7389
11.843340000000001 -4.98 -0.96 12.7389
10.995 -5.76 -0.96 11.325
10.811580000000001 -5.78 -0.96 11.0193
10.637759999999998 -5.8 -0.96 10.7296
10.637759999999998 -5.82 -0.96 10.7296
10.025244 -5.84 -0.96 9.70874
9.760704 -5.98 -0.96 9.26784
9.760704 -6.0 -0.96 9.26784
9.760704 -6.02 -0.96 9.26784
9.760704 -6.04 -0.96 9.26784
9.637241999999999 -6.06 -0.96 9.06207
9.51915 -6.08 -0.96 8.86525
9.406074 -6.12 -0.96 8.67679
9.297708 -6.14 -0.96 8.49618
17.06172 -0.44 -0.98 21.4362
17.06172 -0.46 -0.98 21.4362
17.06172 -2.38 -0.98 21.4362
17.06172 -2.4 -0.98 21.4362
15.83916 -2.48 -0.98 19.3986
21.64188 -2.76 -0.98 29.0698
15.83916 -2.82 -0.98 19.3986
15.3111 -2.84 -0.98 18.5185
15.3111 -2.92 -0.98 18.5185
15.3111 -2.94 -0.98 18.5185
11.61198 -4.24 -0.98 12.3533
10.995 -5.4 -0.98 11.325
10.811580000000001 -5.48 -0.98 11.0193
10.811580000000001 -5.5 -0.98 11.0193
10.637759999999998 -5.82 -0.98 10.7296
10.025244 -5.84 -0.98 9.70874
10.025244 -5.86 -0.98 9.70874
9.889902000000001 -5.88 -0.98 9.48317
9.760704 -5.9 -0.98 9.26784
9.297708 -6.14 -0.98 8.49618
16.419959999999996 -0.48 -1.0 20.3666
16.419959999999996 -0.5 -1.0 20.3666
19.467180000000003 -2.78 -1.0 25.4453
15.83916 -2.8 -1.0 19.3986
15.83916 -2.82 -1.0 19.3986
15.83916 -2.84 -1.0 19.3986
15.3111 -2.92 -1.0 18.5185
15.3111 -2.94 -1.0 18.5185
14.82888 -2.96 -1.0 17.7148
14.82888 -2.98 -1.0 17.7148
12.08952 -4.38 -1.0 13.1492
11.843340000000001 -4.4 -1.0 12.7389
11.843340000000001 -4.42 -1.0 12.7389
10.995 -5.38 -1.0 11.325
10.995 -5.4 -1.0 11.325
10.811580000000001 -5.46 -1.0 11.0193
10.025244 -5.84 -1.0 9.70874
17.06172 -0.42 -1.02 21.4362
16.419959999999996 -0.5 -1.02 20.3666
16.419959999999996 -0.52 -1.02 20.3666
16.419959999999996 -0.54 -1.02 20.3666
17.77464 -2.82 -1.02 22.6244
15.83916 -2.84 -1.02 19.3986
15.3111 -2.92 -1.02 18.5185
15.3111 -2.94 -1.02 18.5185
14.82888 -2.96 -1.02 17.7148
14.386740000000001 -2.98 -1.02 16.9779
12.63288 -3.0 -1.02 14.0548
14.82888 -3.26 -1.02 17.7148
11.843340000000001 -4.42 -1.02 12.7389
11.843340000000001 -4.44 -1.02 12.7389
11.843340000000001 -4.72 -1.02 12.7389
11.843340000000001 -4.74 -1.02 12.7389
10.811580000000001 -5.44 -1.02 11.0193
10.811580000000001 -5.46 -1.02 11.0193
16.419959999999996 -0.52 -1.04 20.3666
16.419959999999996 -0.54 -1.04 20.3666
15.83916 -0.56 -1.04 19.3986
17.77464 -2.84 -1.04 22.6244
15.83916 -2.86 -1.04 19.3986
15.3111 -2.9 -1.04 18.5185
15.3111 -2.92 -1.04 18.5185
15.3111 -2.94 -1.04 18.5185
14.386740000000001 -3.26 -1.04 16.9779
13.6044 -3.48 -1.04 15.674
11.843340000000001 -4.3 -1.04 12.7389
11.843340000000001 -4.72 -1.04 12.7389
11.843340000000001 -4.74 -1.04 12.7389
12.08952 -4.9 -1.04 13.1492
11.843340000000001 -4.92 -1.04 12.7389
11.843340000000001 -4.94 -1.04 12.7389
11.843340000000001 -4.96 -1.04 12.7389
10.811580000000001 -5.44 -1.04 11.0193
15.3111 -2.9 -1.06 18.5185
15.3111 -2.92 -1.06 18.5185
15.3111 -2.94 -1.06 18.5185
14.386740000000001 -3.28 -1.06 16.9779
14.386740000000001 -3.3 -1.06 16.9779
12.3522 -4.36 -1.06 13.587
12.08952 -4.38 -1.06 13.1492
11.61198 -4.46 -1.06 12.3533
12.08952 -4.9 -1.06 13.1492
11.843340000000001 -4.92 -1.06 12.7389
11.843340000000001 -4.94 -1.06 12.7389
11.61198 -4.96 -1.06 12.3533
11.61198 -4.98 -1.06 12.3533
10.811580000000001 -5.42 -1.06 11.0193
10.811580000000001 -5.44 -1.06 11.0193
9.760704 -5.64 -1.06 9.26784
9.760704 -5.66 -1.06 9.26784
14.386740000000001 -3.28 -1.08 16.9779
14.386740000000001 -3.3 -1.08 16.9779
13.979940000000001 -3.42 -1.08 16.2999
13.6044 -3.44 -1.08 15.674
12.63288 -4.22 -1.08 14.0548
12.63288 -4.24 -1.08 14.0548
12.3522 -4.36 -1.08 13.587
12.3522 -4.38 -1.08 13.587
11.843340000000001 -4.92 -1.08 12.7389
11.843340000000001 -4.94 -1.08 12.7389
11.61198 -4.96 -1.08 12.3533
11.61198 -4.98 -1.08 12.3533
13.979940000000001 2.58 -1.1 16.2999
12.63288 -4.22 -1.1 14.0548
12.63288 -4.24 -1.1 14.0548
11.61198 -4.96 -1.1 12.3533
11.61198 -4.98 -1.1 12.3533
11.843340000000001 -4.48 -1.12 12.7389
11.18892 -5.34 -1.12 11.6482
10.637759999999998 -5.4 -1.12 10.7296
10.637759999999998 -5.42 -1.12 10.7296
24.53898 -3.22 -1.14 33.8983
13.979940000000001 -3.44 -1.14 16.2999
13.979940000000001 -3.46 -1.14 16.2999
13.6044 -3.62 -1.14 15.674
15.3111 -3.82 -1.14 18.5185
12.08952 -4.42 -1.14 13.1492
12.08952 -4.44 -1.14 13.1492
19.467180000000003 -3.26 -1.16 25.4453
14.386740000000001 -3.3 -1.16 16.9779
13.979940000000001 -3.32 -1.16 16.2999
13.6044 -3.44 -1.16 15.674
13.6044 -3.46 -1.16 15.674
13.6044 -3.58 -1.16 15.674
13.6044 -3.6 -1.16 15.674
13.6044 -3.62 -1.16 15.674
12.08952 -4.44 -1.16 13.1492
10.472879999999998 -5.8 -1.16 10.4548
13.979940000000001 -3.3 -1.18 16.2999
13.979940000000001 -3.32 -1.18 16.2999
13.979940000000001 -3.34 -1.18 16.2999
13.6044 -3.58 -1.18 15.674
13.6044 -3.6 -1.18 15.674
11.394240000000002 -3.66 -1.18 11.9904
11.18892 -3.68 -1.18 11.6482
13.979940000000001 -4.28 -1.18 16.2999
12.08952 -4.42 -1.18 13.1492
12.08952 -4.44 -1.18 13.1492
11.843340000000001 -5.54 -1.18 12.7389
11.843340000000001 -5.56 -1.18 12.7389
11.61198 -5.58 -1.18 12.3533
10.637759999999998 -5.64 -1.18 10.7296
10.637759999999998 -5.66 -1.18 10.7296
10.637759999999998 -5.68 -1.18 10.7296
10.472879999999998 -5.7 -1.18 10.4548
10.472879999999998 -5.72 -1.18 10.4548
14.386740000000001 -0.76 -1.2 16.9779
14.386740000000001 -0.78 -1.2 16.9779
13.979940000000001 -0.88 -1.2 16.2999
13.979940000000001 -3.32 -1.2 16.2999
13.979940000000001 -3.34 -1.2 16.2999
13.979940000000001 -3.36 -1.2 16.2999
12.3522 -3.44 -1.2 13.587
12.3522 -3.46 -1.2 13.587
12.3522 -3.48 -1.2 13.587
13.979940000000001 -3.58 -1.2 16.2999
13.25658 -3.64 -1.2 15.0943
12.08952 -4.42 -1.2 13.1492
11.843340000000001 -4.44 -1.2 12.7389
11.843340000000001 -4.46 -1.2 12.7389
11.843340000000001 -5.52 -1.2 12.7389
10.637759999999998 -5.68 -1.2 10.7296
10.472879999999998 -5.7 -1.2 10.4548
10.472879999999998 -5.72 -1.2 10.4548
10.316220000000001 -5.74 -1.2 10.1937
14.386740000000001 -0.78 -1.22 16.9779
13.979940000000001 -0.9 -1.22 16.2999
13.979940000000001 -0.92 -1.22 16.2999
13.979940000000001 -3.34 -1.22 16.2999
13.979940000000001 -3.36 -1.22 16.2999
13.6044 -3.38 -1.22 15.674
12.3522 -4.36 -1.22 13.587
10.637759999999998 -5.66 -1.22 10.7296
10.316220000000001 -5.74 -1.22 10.1937
13.6044 -0.94 -1.24 15.674
13.6044 -0.96 -1.24 15.674
12.3522 -4.34 -1.24 13.587
12.3522 -4.36 -1.24 13.587
12.3522 -4.38 -1.24 13.587
11.394240000000002 -4.46 -1.24 11.9904
11.394240000000002 -4.48 -1.24 11.9904
10.637759999999998 -5.66 -1.24 10.7296
10.637759999999998 -5.68 -1.24 10.7296
10.16718 -5.76 -1.24 9.9453
13.25658 2.2 -1.26 15.0943
13.6044 -0.98 -1.26 15.674
12.3522 -4.36 -1.26 13.587
12.3522 -4.38 -1.26 13.587
11.394240000000002 -4.44 -1.26 11.9904
12.08952 -4.9 -1.26 13.1492
11.61198 -5.1 -1.26 12.3533
10.637759999999998 -5.66 -1.26 10.7296
10.637759999999998 -5.68 -1.26 10.7296
10.16718 -5.78 -1.26 9.9453
13.25658 -1.02 -1.28 15.0943
13.25658 -1.04 -1.28 15.0943
13.979940000000001 -4.26 -1.28 16.2999
13.979940000000001 -4.28 -1.28 16.2999
11.843340000000001 -4.44 -1.28 12.7389
10.316220000000001 -5.62 -1.28 10.1937
10.637759999999998 -5.68 -1.28 10.7296
12.933599999999998 -1.06 -1.3 14.556
12.933599999999998 -1.08 -1.3 14.556
12.08952 -4.4 -1.3 13.1492
12.08952 -4.42 -1.3 13.1492
10.811580000000001 -5.48 -1.3 11.0193
10.811580000000001 -5.5 -1.3 11.0193
10.16718 -5.56 -1.3 9.9453
10.316220000000001 -5.58 -1.3 10.1937
10.316220000000001 -5.62 -1.3 10.1937
12.933599999999998 -1.1 -1.32 14.556
12.08952 -4.38 -1.32 13.1492
12.08952 -4.4 -1.32 13.1492
12.08952 -4.42 -1.32 13.1492
10.811580000000001 -5.48 -1.32 11.0193
10.811580000000001 -5.5 -1.32 11.0193
10.316220000000001 -5.58 -1.32 10.1937
10.472879999999998 -5.78 -1.32 10.4548
12.933599999999998 -1.14 -1.34 14.556
12.08952 -4.38 -1.34 13.1492
12.08952 -4.4 -1.34 13.1492
10.811580000000001 -5.48 -1.34 11.0193
10.472879999999998 -5.76 -1.34 10.4548
10.472879999999998 -5.78 -1.34 10.4548
10.472879999999998 -5.8 -1.34 10.4548
12.3522 -4.34 -1.36 13.587
12.08952 -4.36 -1.36 13.1492
12.08952 -4.38 -1.36 13.1492
12.08952 -4.4 -1.36 13.1492
10.811580000000001 -5.46 -1.36 11.0193
10.811580000000001 -5.48 -1.36 11.0193
10.637759999999998 -5.74 -1.36 10.7296
10.472879999999998 -5.76 -1.36 10.4548
10.472879999999998 -5.78 -1.36 10.4548
10.472879999999998 -5.8 -1.36 10.4548
12.3522 2.36 -1.38 13.587
12.3522 2.34 -1.38 13.587
12.933599999999998 -1.2 -1.38 14.556
12.3522 -4.34 -1.38 13.587
12.08952 -4.36 -1.38 13.1492
12.08952 -4.38 -1.38 13.1492
10.811580000000001 -5.46 -1.38 11.0193
10.811580000000001 -5.48 -1.38 11.0193
10.637759999999998 -5.74 -1.38 10.7296
10.472879999999998 -5.76 -1.38 10.4548
10.472879999999998 -5.78 -1.38 10.4548
10.472879999999998 -5.8 -1.38 10.4548
10.316220000000001 -5.82 -1.38 10.1937
12.3522 -1.24 -1.4 13.587
12.3522 -1.26 -1.4 13.587
10.811580000000001 -5.46 -1.4 11.0193
10.811580000000001 -5.48 -1.4 11.0193
10.472879999999998 -5.76 -1.4 10.4548
10.472879999999998 -5.78 -1.4 10.4548
10.472879999999998 -5.8 -1.4 10.4548
12.3522 -1.24 -1.42 13.587
12.3522 -1.26 -1.42 13.587
12.3522 -1.28 -1.42 13.587
12.3522 -4.22 -1.42 13.587
12.3522 -4.24 -1.42 13.587
12.3522 -4.26 -1.42 13.587
21.64188 -5.12 -1.42 29.0698
21.64188 -5.14 -1.42 29.0698
21.64188 -5.16 -1.42 29.0698
10.811580000000001 -5.46 -1.42 11.0193
10.811580000000001 -5.48 -1.42 11.0193
10.637759999999998 -5.52 -1.42 10.7296
10.316220000000001 -5.54 -1.42 10.1937
10.316220000000001 -5.56 -1.42 10.1937
10.16718 -5.6 -1.42 9.9453
12.08952 2.42 -1.44 13.1492
12.3522 -1.28 -1.44 13.587
12.3522 -4.24 -1.44 13.587
12.3522 -4.26 -1.44 13.587
12.3522 -4.28 -1.44 13.587
12.08952 -4.3 -1.44 13.1492
10.811580000000001 -5.46 -1.44 11.0193
10.811580000000001 -5.48 -1.44 11.0193
10.637759999999998 -5.52 -1.44 10.7296
10.316220000000001 -5.54 -1.44 10.1937
10.316220000000001 -5.56 -1.44 10.1937
10.316220000000001 -5.58 -1.44 10.1937
10.16718 -5.6 -1.44 9.9453
10.637759999999998 -5.7 -1.44 10.7296
10.637759999999998 -5.72 -1.44 10.7296
10.811580000000001 -5.46 -1.46 11.0193
10.811580000000001 -5.48 -1.46 11.0193
10.316220000000001 -5.54 -1.46 10.1937
10.316220000000001 -5.56 -1.46 10.1937
10.316220000000001 -5.58 -1.46 10.1937
10.637759999999998 -5.68 -1.46 10.7296
10.637759999999998 -5.7 -1.46 10.7296
10.637759999999998 -5.72 -1.46 10.7296
11.843340000000001 2.48 -1.48 12.7389
10.811580000000001 -5.46 -1.48 11.0193
10.811580000000001 -5.48 -1.48 11.0193
10.637759999999998 -5.68 -1.48 10.7296
10.637759999999998 -5.7 -1.48 10.7296
10.637759999999998 -5.72 -1.48 10.7296
10.025244 -5.8 -1.48 9.70874
8.905884 -5.9 -1.48 7.84314
11.843340000000001 2.5 -1.5 12.7389
13.25658 -5.38 -1.5 15.0943
13.25658 -5.4 -1.5 15.0943
10.811580000000001 -5.46 -1.5 11.0193
10.811580000000001 -5.48 -1.5 11.0193
10.637759999999998 -5.68 -1.5 10.7296
10.637759999999998 -5.7 -1.5 10.7296
10.637759999999998 -5.72 -1.5 10.7296
10.025244 -5.8 -1.5 9.70874
10.811580000000001 -5.46 -1.52 11.0193
10.811580000000001 -5.48 -1.52 11.0193
10.811580000000001 -5.54 -1.52 11.0193
10.637759999999998 -5.7 -1.52 10.7296
10.637759999999998 -5.72 -1.52 10.7296
10.16718 -5.78 -1.52 9.9453
10.16718 -5.8 -1.52 9.9453
11.394240000000002 -3.38 -1.54 11.9904
11.394240000000002 -3.4 -1.54 11.9904
11.18892 -3.42 -1.54 11.6482
64.806 -5.0 -1.54 101.01
18.57126 -5.28 -1.54 23.9521
17.77464 -5.3 -1.54 22.6244
10.811580000000001 -5.48 -1.54 11.0193
10.811580000000001 -5.54 -1.54 11.0193
10.811580000000001 -5.56 -1.54 11.0193
10.811580000000001 -5.58 -1.54 11.0193
10.637759999999998 -5.6 -1.54 10.7296
10.16718 -5.78 -1.54 9.9453
11.61198 -3.34 -1.56 12.3533
11.61198 -3.36 -1.56 12.3533
11.394240000000002 -3.38 -1.56 11.9904
11.394240000000002 -3.4 -1.56 11.9904
11.18892 -3.42 -1.56 11.6482
10.995 -3.44 -1.56 11.325
16.419959999999996 -5.34 -1.56 20.3666
16.419959999999996 -5.36 -1.56 20.3666
10.811580000000001 -5.56 -1.56 11.0193
10.811580000000001 -5.58 -1.56 11.0193
10.637759999999998 -5.6 -1.56 10.7296
10.637759999999998 -5.7 -1.56 10.7296
10.472879999999998 -5.72 -1.56 10.4548
10.472879999999998 -5.74 -1.56 10.4548
10.472879999999998 -5.76 -1.56 10.4548
11.18892 2.58 -1.58 11.6482
10.472879999999998 -5.72 -1.58 10.4548
10.472879999999998 -5.74 -1.58 10.4548
10.472879999999998 -5.76 -1.58 10.4548
10.316220000000001 -5.78 -1.58 10.1937
9.51915 -5.82 -1.58 8.86525
9.297708 -5.84 -1.58 8.49618
9.297708 -5.86 -1.58 8.49618
9.193757999999999 -5.88 -1.58 8.32293
10.637759999999998 -5.7 -1.6 10.7296
10.637759999999998 -5.72 -1.6 10.7296
10.472879999999998 -5.74 -1.6 10.4548
10.472879999999998 -5.76 -1.6 10.4548
9.193757999999999 -5.88 -1.6 8.32293
9.193757999999999 -5.9 -1.6 8.32293
10.472879999999998 -6.0 -1.6 10.4548
15.3111 -5.24 -1.62 18.5185
15.3111 -5.26 -1.62 18.5185
14.82888 -5.28 -1.62 17.7148
14.386740000000001 -5.3 -1.62 16.9779
10.995 -5.44 -1.62 11.325
10.811580000000001 -5.52 -1.62 11.0193
10.811580000000001 -5.54 -1.62 11.0193
10.472879999999998 -5.98 -1.62 10.4548
10.472879999999998 -6.0 -1.62 10.4548
10.995 2.66 -1.64 11.325
14.386740000000001 -5.32 -1.64 16.9779
13.6044 -5.34 -1.64 15.674
11.394240000000002 -5.38 -1.64 11.9904
11.18892 -5.4 -1.64 11.6482
10.995 -5.42 -1.64 11.325
10.811580000000001 -5.44 -1.64 11.0193
10.811580000000001 -5.46 -1.64 11.0193
11.18892 -5.58 -1.64 11.6482
11.18892 -5.6 -1.64 11.6482
10.995 -5.62 -1.64 11.325
10.995 -5.64 -1.64 11.325
10.811580000000001 -5.66 -1.64 11.0193
10.637759999999998 -5.68 -1.64 10.7296
10.637759999999998 -5.7 -1.64 10.7296
10.472879999999998 -5.98 -1.64 10.4548
10.472879999999998 -6.0 -1.64 10.4548
8.569992 -6.24 -1.64 7.28332
8.569992 -6.26 -1.64 7.28332
11.394240000000002 -5.38 -1.66 11.9904
11.18892 -5.4 -1.66 11.6482
10.811580000000001 -5.44 -1.66 11.0193
10.811580000000001 -5.46 -1.66 11.0193
10.995 -5.62 -1.66 11.325
10.995 -5.64 -1.66 11.325
10.811580000000001 -5.66 -1.66 11.0193
10.637759999999998 -5.68 -1.66 10.7296
10.637759999999998 -5.7 -1.66 10.7296
10.472879999999998 -5.72 -1.66 10.4548
10.472879999999998 -5.96 -1.66 10.4548
10.472879999999998 -5.98 -1.66 10.4548
8.419410000000001 -6.32 -1.66 7.03235
8.419410000000001 -6.34 -1.66 7.03235
10.811580000000001 -5.46 -1.68 11.0193
10.811580000000001 -5.48 -1.68 11.0193
10.811580000000001 2.72 -1.7 11.0193
10.811580000000001 -5.48 -1.7 11.0193
10.811580000000001 -5.5 -1.7 11.0193
10.025244 5.34 -1.72 9.70874
10.811580000000001 -5.48 -1.72 11.0193
10.637759999999998 -5.5 -1.72 10.7296
10.637759999999998 -5.52 -1.72 10.7296
10.637759999999998 -5.54 -1.72 10.7296
10.637759999999998 -5.54 -1.74 10.7296
10.472879999999998 -5.56 -1.74 10.4548
10.472879999999998 2.8 -1.76 10.4548
10.637759999999998 -3.3 -1.76 10.7296
10.637759999999998 -3.32 -1.76 10.7296
10.637759999999998 -3.34 -1.76 10.7296
10.472879999999998 -3.36 -1.76 10.4548
10.16718 -3.42 -1.76 9.9453
10.16718 -3.44 -1.76 9.9453
10.16718 -3.44 -1.78 9.9453
10.16718 -3.46 -1.78 9.9453
10.637759999999998 -5.34 -1.78 10.7296
10.637759999999998 -5.36 -1.78 10.7296
10.811580000000001 -1.82 -1.8 11.0193
10.811580000000001 -1.84 -1.82 11.0193
10.637759999999998 -2.0 -1.82 10.7296
10.637759999999998 -2.02 -1.82 10.7296
10.025244 2.92 -1.86 9.70874
10.16718 -2.1 -1.86 9.9453
10.025244 2.92 -1.88 9.70874
10.16718 -2.16 -1.9 9.9453
10.16718 -2.18 -1.9 9.9453
9.297708 4.8 -1.96 8.49618
9.889902000000001 -2.28 -1.96 9.48317
10.025244 -5.02 -1.96 9.70874
10.025244 -5.04 -1.96 9.70874
9.51915 -5.1 -1.96 8.86525
9.889902000000001 -5.5 -2.0 9.48317
9.889902000000001 -5.52 -2.0 9.48317
9.760704 -5.7 -2.02 9.26784
9.760704 -5.72 -2.02 9.26784
9.760704 -5.7 -2.04 9.26784
9.51915 3.16 -2.06 8.86525
9.51915 -2.52 -2.08 8.86525
8.905884 5.56 -2.1 7.84314
9.760704 -6.06 -2.1 9.26784
9.51915 -6.08 -2.1 8.86525
9.51915 -6.1 -2.1 8.86525
9.51915 -6.12 -2.1 8.86525
9.51915 -6.12 -2.12 8.86525
9.093966 -6.2 -2.12 8.15661
9.093966 -6.22 -2.12 8.15661
9.406074 -6.14 -2.14 8.67679
9.297708 -6.16 -2.14 8.49618
9.193757999999999 -6.18 -2.14 8.32293
9.093966 -6.2 -2.14 8.15661
9.093966 -6.22 -2.14 8.15661
9.093966 -6.24 -2.14 8.15661
8.99808 -6.26 -2.14 7.9968
8.905884 -6.3 -2.14 7.84314
8.905884 4.98 -2.18 7.84314
8.817162000000001 4.66 -2.18 7.69527
8.817162000000001 4.64 -2.18 7.69527
8.817162000000001 4.64 -2.2 7.69527
8.99808 3.32 -2.2 7.9968
9.297708 -2.72 -2.2 8.49618
8.731722000000001 5.3 -2.22 7.55287
8.817162000000001 5.18 -2.24 7.69527
8.64939 5.36 -2.26 7.41565
8.817162000000001 5.18 -2.26 7.69527
8.64939 4.24 -2.28 7.41565
8.569992 5.64 -2.3 7.28332
9.093966 -2.9 -2.3 8.15661
8.569992 4.32 -2.32 7.28332
8.569992 4.3 -2.32 7.28332
8.905884 -2.96 -2.32 7.84314
8.569992 4.34 -2.34 7.28332
8.569992 4.32 -2.34 7.28332
8.569992 4.3 -2.34 7.28332
8.569992 4.28 -2.34 7.28332
8.569992 4.28 -2.36 7.28332
8.347944 5.36 -2.4 6.91324
8.817162000000001 3.14 -2.4 7.69527
8.817162000000001 3.12 -2.4 7.69527
8.817162000000001 3.1 -2.4 7.69527
8.27886 5.0 -2.44 6.7981
8.493384 4.96 -2.44 7.15564
8.212038 5.06 -2.46 6.68673
8.212038 5.04 -2.46 6.68673
8.212038 5.06 -2.48 6.68673
8.212038 5.04 -2.48 6.68673
8.212038 5.02 -2.48 6.68673
8.147369999999999 5.74 -2.5 6.57895
8.212038 5.48 -2.5 6.68673
8.212038 5.04 -2.5 6.68673
8.147369999999999 5.72 -2.52 6.57895
8.147369999999999 5.7 -2.52 6.57895
8.147369999999999 5.32 -2.52 6.57895
8.419410000000001 -3.28 -2.52 7.03235
8.419410000000001 -3.3 -2.52 7.03235
8.419410000000001 -3.32 -2.52 7.03235
8.147369999999999 5.42 -2.54 6.57895
8.147369999999999 5.4 -2.54 6.57895
8.147369999999999 5.34 -2.54 6.57895
8.147369999999999 5.32 -2.54 6.57895
8.147369999999999 5.3 -2.54 6.57895
8.731722000000001 -3.12 -2.54 7.55287
8.64939 -3.14 -2.54 7.41565
8.569992 -3.16 -2.54 7.28332
8.493384 -3.18 -2.54 7.15564
8.419410000000001 -3.2 -2.54 7.03235
8.27886 -3.3 -2.54 6.7981
8.212038 -3.32 -2.54 6.68673
8.493384 -3.18 -2.56 7.15564
8.419410000000001 -3.2 -2.56 7.03235
8.347944 -3.22 -2.56 6.91324
8.347944 -3.24 -2.56 6.91324
8.347944 -3.26 -2.56 6.91324
8.347944 -3.28 -2.56 6.91324
8.27886 -3.3 -2.56 6.7981
8.147369999999999 -3.32 -2.56 6.57895
8.084754 -3.34 -2.56 6.47459
8.084754 -3.32 -2.58 6.47459
8.024094 -3.34 -2.58 6.37349
7.965294 -3.36 -2.58 6.27549
7.965294 -3.36 -2.6 6.27549
7.908282 -3.38 -2.6 6.18047
7.7992799999999995 -3.4 -2.6 5.9988
8.084754 5.02 -2.62 6.47459
8.084754 5.0 -2.62 6.47459
7.965294 5.1 -2.66 6.27549
7.965294 5.12 -2.68 6.27549
7.965294 5.1 -2.68 6.27549
7.965294 5.08 -2.68 6.27549
7.908282 5.22 -2.7 6.18047
7.8529680000000015 5.0 -2.76 6.08828
8.024094 4.18 -2.76 6.37349
8.024094 4.16 -2.76 6.37349
7.965294 4.02 -2.76 6.27549
7.965294 4.0 -2.76 6.27549
7.965294 3.98 -2.76 6.27549
7.747145999999999 4.08 -2.78 5.91191
7.7992799999999995 4.06 -2.78 5.9988
7.965294 4.02 -2.78 6.27549
7.965294 4.0 -2.78 6.27549
7.747145999999999 5.06 -2.86 5.91191
7.747145999999999 5.04 -2.86 5.91191
7.908282 4.4 -2.86 6.18047
7.747145999999999 5.04 -2.88 5.91191
7.965294 4.04 -2.88 6.27549
7.965294 4.02 -2.88 6.27549
7.965294 3.98 -2.9 6.27549
7.747145999999999 5.02 -2.94 5.91191
7.965294 3.96 -2.94 6.27549
7.747145999999999 5.02 -2.96 5.91191
7.747145999999999 5.0 -2.96 5.91191
7.6472880000000005 4.84 -3.0 5.74548
7.6472880000000005 4.8 -3.0 5.74548
7.8529680000000015 -5.84 -3.0 6.08828
7.6472880000000005 4.84 -3.02 5.74548
7.6472880000000005 4.82 -3.02 5.74548
7.6472880000000005 4.8 -3.02 5.74548
8.084754 3.94 -3.06 6.47459
7.696506 4.02 -3.12 5.82751
7.696506 4.0 -3.12 5.82751
7.696506 3.98 -3.12 5.82751
7.696506 3.96 -3.12 5.82751
7.552889999999999 5.0 -3.14 5.58815
7.696506 4.0 -3.14 5.82751
7.696506 3.98 -3.14 5.82751
7.696506 3.96 -3.14 5.82751
7.696506 3.94 -3.14 5.82751
7.696506 3.92 -3.14 5.82751
7.463532 5.38 -3.16 5.43922
7.552889999999999 5.0 -3.16 5.58815
7.420614 5.5 -3.18 5.36769
7.463532 5.38 -3.18 5.43922
7.420614 5.32 -3.18 5.36769
7.552889999999999 5.26 -3.18 5.58815
7.420614 5.3 -3.2 5.36769
7.6472880000000005 -2.24 -3.24 5.74548
7.378806 4.8 -3.32 5.29801
7.185072 5.68 -3.38 4.97512
7.298376 4.96 -3.38 5.16396
7.149126 5.68 -3.4 4.91521
7.221906000000001 5.4 -3.4 5.03651
7.298376 4.96 -3.4 5.16396
7.149126 5.7 -3.42 4.91521
7.149126 5.68 -3.42 4.91521
7.221906000000001 5.4 -3.42 5.03651
7.298376 4.94 -3.42 5.16396
7.149126 5.68 -3.44 4.91521
7.149126 5.5 -3.44 4.91521
7.149126 5.48 -3.44 4.91521
7.149126 5.46 -3.44 4.91521
7.149126 5.5 -3.46 4.91521
7.149126 5.48 -3.46 4.91521
7.149126 5.46 -3.46 4.91521
7.378806 4.5 -3.46 5.29801
7.114037999999999 5.34 -3.56 4.85673
7.185072 -3.52 -3.68 4.97512
7.259664000000001 -5.1 -3.7 5.09944
7.259664000000001 -5.12 -3.7 5.09944
7.259664000000001 -5.14 -3.7 5.09944
7.149126 -5.16 -3.7 4.91521
7.149126 -5.36 -3.7 4.91521
7.114037999999999 -5.38 -3.7 4.85673
7.114037999999999 -5.42 -3.7 4.85673
7.114037999999999 -5.44 -3.7 4.85673
6.981642 5.72 -3.72 4.63607
6.981642 5.7 -3.72 4.63607
7.149126 3.82 -3.72 4.91521
7.259664000000001 -5.12 -3.72 5.09944
7.259664000000001 -5.14 -3.72 5.09944
7.149126 -5.16 -3.72 4.91521
7.079772 -5.18 -3.72 4.79962
7.079772 -5.2 -3.72 4.79962
7.046298 -5.22 -3.72 4.74383
7.046298 -5.24 -3.72 4.74383
6.981642 5.72 -3.74 4.63607
6.981642 5.7 -3.74 4.63607
7.079772 -5.2 -3.74 4.79962
7.046298 -5.22 -3.74 4.74383
7.046298 -5.24 -3.74 4.74383
6.981642 5.74 -3.76 4.63607
6.981642 5.72 -3.76 4.63607
7.114037999999999 4.84 -3.76 4.85673
6.981642 -5.28 -3.76 4.63607
6.919854 -5.3 -3.76 4.53309
7.114037999999999 4.84 -3.78 4.85673
7.149126 -3.42 -3.78 4.91521
7.149126 -3.44 -3.78 4.91521
6.832158 -3.86 -4.24 4.38693
6.776765999999999 -4.32 -4.3 4.29461
6.72366 -2.1 -4.32 4.2061
6.72366 -2.12 -4.32 4.2061
6.69792 4.98 -4.34 4.1632
6.69792 4.92 -4.34 4.1632
6.72366 -2.1 -4.34 4.2061
6.72366 -2.12 -4.34 4.2061
6.647982 5.02 -4.38 4.07997
6.647982 5.0 -4.38 4.07997
6.647982 4.98 -4.38 4.07997
6.647982 5.02 -4.4 4.07997
6.647982 5.0 -4.4 4.07997
6.647982 4.98 -4.4 4.07997
6.672695999999999 -4.34 -4.44 4.12116
6.672695999999999 -4.36 -4.44 4.12116
6.647982 0.2 -4.5 4.07997
6.647982 0.18 -4.5 4.07997
6.623754 -0.42 -4.52 4.03959
6.623754 -1.88 -4.56 4.03959
6.623754 -6.32 -4.58 4.03959
6.623754 -6.34 -4.58 4.03959
8
10.995 -3.5 -0.64 5000011.325
10.995 -3.52 -0.64 5000011.325
12.63288 -3.58 -0.64 5000014.0548
12.63288 -3.62 -0.64 5000014.0548
12.08952 -3.86 -0.64 5000013.1492
11.843340000000001 -3.88 -0.64 5000012.7389
11.843340000000001 -3.9 -0.64 5000012.7389
11.61198 -3.92 -0.64 5000012.3533
11.61198 -3.94 -0.64 5000012.3533
11.843340000000001 -4.94 -0.64 5000012.7389
11.843340000000001 -4.96 -0.64 5000012.7389
12.08952 -5.06 -0.64 5000013.1492
11.843340000000001 -5.08 -0.64 5000012.7389
11.843340000000001 -5.1 -0.64 5000012.7389
11.61198 -5.12 -0.64 5000012.3533
11.61198 -5.14 -0.64 5000012.3533
13.6044 -5.34 -0.64 5000015.674
13.6044 -5.36 -0.64 5000015.674
13.25658 -5.38 -0.64 5000015.0943
11.843340000000001 -5.4 -0.64 5000012.7389
11.843340000000001 -5.42 -0.64 5000012.7389
11.61198 -5.44 -0.64 5000012.3533
11.61198 -5.46 -0.64 5000012.3533
11.61198 -5.48 -0.64 5000012.3533
11.843340000000001 -5.52 -0.64 5000012.7389
11.843340000000001 -5.54 -0.64 5000012.7389
11.843340000000001 -5.56 -0.64 5000012.7389
11.61198 -5.58 -0.64 5000012.3533
10.637759999999998 -5.6 -0.64 5000010.7296
10.316220000000001 -5.66 -0.64 5000010.1937
10.316220000000001 -5.68 -0.64 5000010.1937
10.16718 -6.46 -0.64 5000009.9453
9.889902000000001 -6.72 -0.64 5000009.48317
9.889902000000001 -6.74 -0.64 5000009.48317
22.97934 2.42 -0.66 5000031.2989
34.65684 0.14 -0.66 5000050.7614
24.53898 0.08 -0.66 5000033.8983
24.53898 0.06 -0.66 5000033.8983
24.53898 -1.12 -0.66 5000033.8983
24.53898 -1.14 -0.66 5000033.8983
24.53898 -1.16 -0.66 5000033.8983
15.83916 -1.28 -0.66 5000019.3986
15.83916 -1.3 -0.66 5000019.3986
21.64188 -1.4 -0.66 5000029.0698
21.64188 -1.42 -0.66 5000029.0698
21.64188 -1.44 -0.66 5000029.0698
15.83916 -1.54 -0.66 5000019.3986
13.979940000000001 -1.58 -0.66 5000016.2999
10.637759999999998 -1.6 -0.66 5000010.7296
10.316220000000001 -1.62 -0.66 5000010.1937
17.77464 -2.12 -0.66 5000022.6244
17.77464 -2.14 -0.66 5000022.6244
13.979940000000001 -2.28 -0.66 5000016.2999
16.419959999999996 -2.44 -0.66 5000020.3666
14.82888 -3.22 -0.66 5000017.7148
13.6044 -3.32 -0.66 5000015.674
13.6044 -3.38 -0.66 5000015.674
11.61198 -4.94 -0.66 5000012.3533
11.61198 -4.96 -0.66 5000012.3533
11.843340000000001 -5.08 -0.66 5000012.7389
11.61198 -5.1 -0.66 5000012.3533
11.61198 -5.12 -0.66 5000012.3533
11.61198 -5.14 -0.66 5000012.3533
11.843340000000001 -5.42 -0.66 5000012.7389
11.61198 -5.44 -0.66 5000012.3533
11.843340000000001 -5.52 -0.66 5000012.7389
11.843340000000001 -5.54 -0.66 5000012.7389
11.843340000000001 -5.56 -0.66 5000012.7389
11.61198 -5.58 -0.66 5000012.3533
10.472879999999998 -5.62 -0.66 5000010.4548
10.316220000000001 -5.64 -0.66 5000010.1937
10.316220000000001 -5.94 -0.66 5000010.1937
14.386740000000001 -5.98 -0.66 5000016.9779
