VERSION .7
FIELDS x y z rgb
SIZE 4 4 4 4
TYPE F F F F
COUNT 1 1 1 1
WIDTH 1396
HEIGHT 1
VIEWPOINT 0 0 0 1 0 0 0
POINTS 1396
DATA ascii
18.57126 -0.62 -0.8 23.9521
18.57126 -0.64 -0.8 23.9521
18.57126 -2.42 -0.8 23.9521
17.77464 -2.44 -0.8 22.6244
13.25658 -2.62 -0.8 15.0943
13.25658 -3.18 -0.8 15.0943
13.25658 -3.2 -0.8 15.0943
12.63288 -3.74 -0.8 14.0548
12.63288 -3.76 -0.8 14.0548
13.6044 -3.84 -0.8 15.674
13.6044 -3.86 -0.8 15.674
12.933599999999998 -4.2 -0.8 14.556
12.933599999999998 -4.22 -0.8 14.556
12.08952 -4.26 -0.8 13.1492
11.843340000000001 -4.28 -0.8 12.7389
10.637759999999998 -6.68 -0.8 10.7296
10.637759999999998 -6.7 -0.8 10.7296
26.38116 -0.56 -0.82 36.9686
18.57126 -0.64 -0.82 23.9521
18.57126 -0.66 -0.82 23.9521
15.3111 -2.54 -0.82 18.5185
15.3111 -2.56 -0.82 18.5185
15.83916 -3.06 -0.82 19.3986
15.83916 -3.08 -0.82 19.3986
12.933599999999998 -3.2 -0.82 14.556
12.933599999999998 -3.22 -0.82 14.556
13.979940000000001 -3.66 -0.82 16.2999
12.63288 -3.76 -0.82 14.0548
12.63288 -3.78 -0.82 14.0548
13.6044 -3.88 -0.82 15.674
12.08952 -4.26 -0.82 13.1492
10.811580000000001 -5.72 -0.82 11.0193
10.811580000000001 -5.74 -0.82 11.0193
14.82888 -6.16 -0.82 17.7148
14.386740000000001 -6.18 -0.82 16.9779
14.386740000000001 -6.2 -0.82 16.9779
13.6044 -6.24 -0.82 15.674
13.25658 -6.26 -0.82 15.0943
13.25658 -6.28 -0.82 15.0943
12.933599999999998 -6.3 -0.82 14.556
12.08952 -6.32 -0.82 13.1492
11.843340000000001 -6.34 -0.82 12.7389
11.61198 -6.36 -0.82 12.3533
11.394240000000002 -6.38 -0.82 11.9904
11.18892 -6.4 -0.82 11.6482
11.18892 -6.42 -0.82 11.6482
10.995 -6.44 -0.82 11.325
10.811580000000001 -6.48 -0.82 11.0193
10.637759999999998 -6.5 -0.82 10.7296
10.637759999999998 -6.52 -0.82 10.7296
10.472879999999998 -6.54 -0.82 10.4548
10.472879999999998 -6.68 -0.82 10.4548
10.637759999999998 -6.7 -0.82 10.7296
18.57126 -0.66 -0.84 23.9521
124.19999999999999 -2.7 -0.84 200.0
124.19999999999999 -2.72 -0.84 200.0
15.83916 -3.06 -0.84 19.3986
15.83916 -3.08 -0.84 19.3986
12.933599999999998 -3.2 -0.84 14.556
12.933599999999998 -3.22 -0.84 14.556
13.979940000000001 -3.64 -0.84 16.2999
13.979940000000001 -3.66 -0.84 16.2999
12.63288 -3.76 -0.84 14.0548
12.63288 -3.78 -0.84 14.0548
11.18892 -5.36 -0.84 11.6482
10.995 -5.4 -0.84 11.325
10.811580000000001 -5.72 -0.84 11.0193
10.811580000000001 -5.74 -0.84 11.0193
10.811580000000001 -5.76 -0.84 11.0193
14.82888 -6.16 -0.84 17.7148
14.386740000000001 -6.18 -0.84 16.9779
14.386740000000001 -6.2 -0.84 16.9779
13.979940000000001 -6.22 -0.84 16.2999
13.6044 -6.24 -0.84 15.674
13.25658 -6.26 -0.84 15.0943
11.61198 -6.36 -0.84 12.3533
11.394240000000002 -6.38 -0.84 11.9904
11.18892 -6.4 -0.84 11.6482
11.18892 -6.42 -0.84 11.6482
10.995 -6.44 -0.84 11.325
10.811580000000001 -6.46 -0.84 11.0193
10.811580000000001 -6.48 -0.84 11.0193
10.637759999999998 -6.5 -0.84 10.7296
10.472879999999998 -6.52 -0.84 10.4548
10.316220000000001 -6.54 -0.84 10.1937
10.16718 -6.58 -0.84 9.9453
10.472879999999998 -6.68 -0.84 10.4548
10.472879999999998 -6.7 -0.84 10.4548
84.7368 -2.74 -0.86 134.228
84.7368 -2.76 -0.86 134.228
64.806 -2.78 -0.86 101.01
16.419959999999996 -2.88 -0.86 20.3666
15.83916 -2.9 -0.86 19.3986
15.83916 -3.06 -0.86 19.3986
15.83916 -3.08 -0.86 19.3986
15.83916 -3.14 -0.86 19.3986
15.3111 -3.16 -0.86 18.5185
15.3111 -3.2 -0.86 18.5185
13.979940000000001 -3.64 -0.86 16.2999
13.979940000000001 -3.66 -0.86 16.2999
12.3522 -3.76 -0.86 13.587
12.3522 -3.78 -0.86 13.587
12.3522 -3.8 -0.86 13.587
11.394240000000002 -5.32 -0.86 11.9904
11.394240000000002 -5.34 -0.86 11.9904
10.995 -5.4 -0.86 11.325
10.995 -5.42 -0.86 11.325
10.811580000000001 -5.74 -0.86 11.0193
10.811580000000001 -5.76 -0.86 11.0193
10.637759999999998 -5.96 -0.86 10.7296
11.18892 -6.42 -0.86 11.6482
10.811580000000001 -6.48 -0.86 11.0193
10.472879999999998 -6.5 -0.86 10.4548
10.472879999999998 -6.52 -0.86 10.4548
10.316220000000001 -6.54 -0.86 10.1937
10.316220000000001 -6.58 -0.86 10.1937
9.760704 -6.6 -0.86 9.26784
9.637241999999999 -6.62 -0.86 9.06207
10.637759999999998 -6.64 -0.86 10.7296
10.472879999999998 -6.68 -0.86 10.4548
10.472879999999998 -6.7 -0.86 10.4548
18.57126 -2.82 -0.88 23.9521
16.419959999999996 -2.84 -0.88 20.3666
16.419959999999996 -2.86 -0.88 20.3666
16.419959999999996 -2.88 -0.88 20.3666
15.3111 -3.16 -0.88 18.5185
15.3111 -3.18 -0.88 18.5185
10.995 -5.38 -0.88 11.325
10.637759999999998 -5.94 -0.88 10.7296
10.637759999999998 -5.96 -0.88 10.7296
10.472879999999998 -6.32 -0.88 10.4548
10.316220000000001 -6.54 -0.88 10.1937
10.316220000000001 -6.56 -0.88 10.1937
10.472879999999998 -6.7 -0.88 10.4548
15.83916 -2.92 -0.9 19.3986
15.3111 -3.16 -0.9 18.5185
15.3111 -3.18 -0.9 18.5185
18.57126 -4.02 -0.9 23.9521
18.57126 -4.04 -0.9 23.9521
13.25658 -4.16 -0.9 15.0943
10.16718 -5.52 -0.9 9.9453
10.16718 -5.54 -0.9 9.9453
10.472879999999998 -6.32 -0.9 10.4548
10.316220000000001 -6.54 -0.9 10.1937
10.316220000000001 -6.56 -0.9 10.1937
22.97934 -0.76 -0.92 31.2989
15.3111 -3.16 -0.92 18.5185
15.3111 -3.18 -0.92 18.5185
13.25658 -3.28 -0.92 15.0943
13.25658 -3.3 -0.92 15.0943
13.979940000000001 -3.64 -0.92 16.2999
13.979940000000001 -3.74 -0.92 16.2999
13.979940000000001 -3.76 -0.92 16.2999
13.979940000000001 -3.78 -0.92 16.2999
13.25658 -4.14 -0.92 15.0943
12.933599999999998 -4.16 -0.92 14.556
12.933599999999998 -4.18 -0.92 14.556
12.63288 -4.2 -0.92 14.0548
12.3522 -4.22 -0.92 13.587
12.08952 -4.24 -0.92 13.1492
12.08952 -4.26 -0.92 13.1492
11.61198 -5.28 -0.92 12.3533
11.394240000000002 -5.3 -0.92 11.9904
10.995 -5.36 -0.92 11.325
10.316220000000001 -5.48 -0.92 10.1937
10.16718 -5.5 -0.92 9.9453
10.811580000000001 -5.96 -0.92 11.0193
10.811580000000001 -5.98 -0.92 11.0193
10.472879999999998 -6.32 -0.92 10.4548
10.472879999999998 -6.34 -0.92 10.4548
22.97934 -0.76 -0.94 31.2989
22.97934 -0.78 -0.94 31.2989
17.06172 -0.84 -0.94 21.4362
16.419959999999996 -0.86 -0.94 20.3666
16.419959999999996 -0.88 -0.94 20.3666
24.53898 -3.0 -0.94 33.8983
15.3111 -3.14 -0.94 18.5185
15.3111 -3.16 -0.94 18.5185
13.25658 -3.26 -0.94 15.0943
13.25658 -3.28 -0.94 15.0943
13.25658 -3.3 -0.94 15.0943
13.979940000000001 -3.64 -0.94 16.2999
13.979940000000001 -3.76 -0.94 16.2999
13.979940000000001 -3.78 -0.94 16.2999
12.933599999999998 -4.16 -0.94 14.556
12.933599999999998 -4.18 -0.94 14.556
12.63288 -4.2 -0.94 14.0548
12.3522 -4.22 -0.94 13.587
12.08952 -4.24 -0.94 13.1492
12.08952 -4.26 -0.94 13.1492
12.08952 -4.28 -0.94 13.1492
12.63288 -4.34 -0.94 14.0548
12.63288 -4.36 -0.94 14.0548
12.3522 -4.38 -0.94 13.587
12.3522 -4.4 -0.94 13.587
11.61198 -5.28 -0.94 12.3533
11.394240000000002 -5.3 -0.94 11.9904
11.394240000000002 -5.34 -0.94 11.9904
10.472879999999998 -5.46 -0.94 10.4548
10.637759999999998 -6.28 -0.94 10.7296
10.637759999999998 -6.3 -0.94 10.7296
10.637759999999998 -6.32 -0.94 10.7296
10.472879999999998 -6.34 -0.94 10.4548
10.472879999999998 -6.36 -0.94 10.4548
10.472879999999998 -6.38 -0.94 10.4548
21.64188 -0.8 -0.96 29.0698
16.419959999999996 -0.88 -0.96 20.3666
16.419959999999996 -0.9 -0.96 20.3666
15.83916 -3.08 -0.96 19.3986
15.83916 -3.1 -0.96 19.3986
13.25658 -3.3 -0.96 15.0943
13.979940000000001 -3.64 -0.96 16.2999
13.979940000000001 -3.78 -0.96 16.2999
12.933599999999998 -4.18 -0.96 14.556
12.08952 -4.24 -0.96 13.1492
12.63288 -4.34 -0.96 14.0548
12.63288 -4.36 -0.96 14.0548
12.3522 -4.38 -0.96 13.587
12.3522 -4.4 -0.96 13.587
10.811580000000001 -4.42 -0.96 11.0193
10.472879999999998 -5.44 -0.96 10.4548
15.83916 -0.92 -0.98 19.3986
15.83916 -0.94 -0.98 19.3986
15.83916 -3.08 -0.98 19.3986
15.83916 -3.1 -0.98 19.3986
15.83916 -3.12 -0.98 19.3986
13.6044 -3.2 -0.98 15.674
13.6044 -3.22 -0.98 15.674
13.979940000000001 -3.62 -0.98 16.2999
13.979940000000001 -3.64 -0.98 16.2999
15.83916 -0.96 -1.0 19.3986
15.83916 -0.98 -1.0 19.3986
13.25658 -3.22 -1.0 15.0943
13.979940000000001 -3.62 -1.0 16.2999
13.979940000000001 -3.64 -1.0 16.2999
13.979940000000001 -3.74 -1.0 16.2999
13.979940000000001 -3.76 -1.0 16.2999
10.316220000000001 -6.38 -1.0 10.1937
15.83916 -1.0 -1.02 19.3986
15.3111 -1.02 -1.02 18.5185
14.386740000000001 -3.64 -1.02 16.9779
13.979940000000001 -3.74 -1.02 16.2999
13.979940000000001 -3.76 -1.02 16.2999
13.6044 -3.8 -1.02 15.674
11.843340000000001 -3.82 -1.02 12.7389
10.811580000000001 -5.62 -1.02 11.0193
10.811580000000001 -5.64 -1.02 11.0193
15.83916 -0.94 -1.04 19.3986
15.3111 -1.02 -1.04 18.5185
15.3111 -1.04 -1.04 18.5185
15.3111 -1.06 -1.04 18.5185
14.386740000000001 -3.64 -1.04 16.9779
13.979940000000001 -3.74 -1.04 16.2999
13.979940000000001 -3.76 -1.04 16.2999
13.6044 -3.8 -1.04 15.674
11.843340000000001 -3.82 -1.04 12.7389
12.63288 -4.42 -1.04 14.0548
12.3522 -4.44 -1.04 13.587
10.995 -5.54 -1.04 11.325
10.811580000000001 -5.64 -1.04 11.0193
15.3111 -1.04 -1.06 18.5185
15.3111 -1.06 -1.06 18.5185
14.82888 -1.08 -1.06 17.7148
13.979940000000001 -3.7 -1.06 16.2999
13.979940000000001 -3.72 -1.06 16.2999
13.979940000000001 -3.74 -1.06 16.2999
13.979940000000001 -3.76 -1.06 16.2999
12.3522 -4.44 -1.06 13.587
11.394240000000002 -4.54 -1.06 11.9904
11.394240000000002 -4.56 -1.06 11.9904
12.63288 -5.36 -1.06 14.0548
11.843340000000001 -5.42 -1.06 12.7389
11.843340000000001 -5.44 -1.06 12.7389
11.61198 -5.46 -1.06 12.3533
11.394240000000002 -5.48 -1.06 11.9904
11.18892 -5.5 -1.06 11.6482
11.18892 -5.54 -1.06 11.6482
10.472879999999998 -6.06 -1.06 10.4548
10.472879999999998 -6.08 -1.06 10.4548
10.472879999999998 -6.1 -1.06 10.4548
13.979940000000001 -3.72 -1.08 16.2999
13.979940000000001 -3.74 -1.08 16.2999
12.933599999999998 -4.2 -1.08 14.556
12.933599999999998 -4.22 -1.08 14.556
12.63288 -4.38 -1.08 14.0548
11.18892 -5.5 -1.08 11.6482
11.18892 -5.54 -1.08 11.6482
10.995 -5.6 -1.08 11.325
10.811580000000001 -5.64 -1.08 11.0193
10.472879999999998 -6.08 -1.08 10.4548
10.472879999999998 -6.1 -1.08 10.4548
10.637759999999998 -6.3 -1.08 10.7296
10.472879999999998 -6.32 -1.08 10.4548
10.472879999999998 -6.34 -1.08 10.4548
10.472879999999998 -6.36 -1.08 10.4548
12.933599999999998 -4.2 -1.1 14.556
12.933599999999998 -4.22 -1.1 14.556
12.63288 -4.36 -1.1 14.0548
12.63288 -4.38 -1.1 14.0548
12.3522 -4.46 -1.1 13.587
10.995 -5.58 -1.1 11.325
10.995 -5.6 -1.1 11.325
10.472879999999998 -5.66 -1.1 10.4548
10.16718 -5.72 -1.1 9.9453
10.637759999999998 -6.3 -1.1 10.7296
10.472879999999998 -6.32 -1.1 10.4548
10.472879999999998 -6.34 -1.1 10.4548
10.316220000000001 -6.36 -1.1 10.1937
10.316220000000001 -6.38 -1.1 10.1937
13.979940000000001 -3.7 -1.12 16.2999
11.18892 -5.4 -1.12 11.6482
11.18892 -5.42 -1.12 11.6482
10.995 -5.58 -1.12 11.325
10.995 -5.6 -1.12 11.325
10.472879999999998 -5.66 -1.12 10.4548
10.472879999999998 -6.32 -1.12 10.4548
10.472879999999998 -6.34 -1.12 10.4548
10.316220000000001 -6.36 -1.12 10.1937
10.316220000000001 -6.38 -1.12 10.1937
10.316220000000001 -6.4 -1.12 10.1937
12.63288 -4.3 -1.14 14.0548
12.63288 -4.34 -1.14 14.0548
11.18892 -5.4 -1.14 11.6482
11.18892 -5.42 -1.14 11.6482
11.61198 -5.48 -1.14 12.3533
11.394240000000002 -5.5 -1.14 11.9904
11.394240000000002 -5.52 -1.14 11.9904
11.18892 -5.54 -1.14 11.6482
10.995 -5.58 -1.14 11.325
10.995 -5.6 -1.14 11.325
10.472879999999998 -5.66 -1.14 10.4548
10.472879999999998 -6.34 -1.14 10.4548
10.316220000000001 -6.36 -1.14 10.1937
10.316220000000001 -6.38 -1.14 10.1937
12.3522 -4.6 -1.16 13.587
11.61198 -4.68 -1.16 12.3533
11.18892 -5.4 -1.16 11.6482
11.394240000000002 -5.52 -1.16 11.9904
11.18892 -5.54 -1.16 11.6482
12.63288 -4.24 -1.18 14.0548
12.63288 -4.38 -1.18 14.0548
12.63288 -4.4 -1.18 14.0548
12.63288 -4.42 -1.18 14.0548
12.3522 -4.58 -1.18 13.587
12.3522 -4.6 -1.18 13.587
10.637759999999998 -5.68 -1.18 10.7296
10.637759999999998 -5.7 -1.18 10.7296
13.25658 1.78 -1.2 15.0943
12.63288 -4.22 -1.2 14.0548
12.63288 -4.24 -1.2 14.0548
12.63288 -4.26 -1.2 14.0548
12.63288 -4.38 -1.2 14.0548
12.63288 -4.4 -1.2 14.0548
12.3522 -4.56 -1.2 13.587
12.3522 -4.58 -1.2 13.587
12.3522 -4.6 -1.2 13.587
10.811580000000001 -5.68 -1.2 11.0193
10.811580000000001 -5.7 -1.2 11.0193
12.63288 -4.24 -1.22 14.0548
12.63288 -4.26 -1.22 14.0548
12.63288 -4.36 -1.22 14.0548
12.3522 -4.56 -1.22 13.587
12.3522 -4.58 -1.22 13.587
12.3522 -4.6 -1.22 13.587
17.06172 -1.32 -1.24 21.4362
15.83916 -4.14 -1.24 19.3986
12.63288 -4.24 -1.24 14.0548
12.63288 -4.26 -1.24 14.0548
12.63288 -4.28 -1.24 14.0548
12.3522 -4.56 -1.24 13.587
12.3522 -4.58 -1.24 13.587
14.82888 -5.24 -1.24 17.7148
10.811580000000001 -5.64 -1.24 11.0193
10.811580000000001 -5.66 -1.24 11.0193
10.811580000000001 -5.68 -1.24 11.0193
10.811580000000001 -5.7 -1.24 11.0193
12.933599999999998 1.86 -1.26 14.556
16.419959999999996 -1.34 -1.26 20.3666
13.6044 -1.44 -1.26 15.674
13.25658 -1.46 -1.26 15.0943
12.933599999999998 -4.22 -1.26 14.556
12.933599999999998 -4.24 -1.26 14.556
12.63288 -4.26 -1.26 14.0548
12.63288 -4.28 -1.26 14.0548
12.63288 -4.3 -1.26 14.0548
10.811580000000001 -5.66 -1.26 11.0193
10.811580000000001 -5.68 -1.26 11.0193
10.811580000000001 -5.7 -1.26 11.0193
15.83916 -1.38 -1.28 19.3986
13.25658 -1.48 -1.28 15.0943
12.933599999999998 -1.5 -1.28 14.556
12.63288 -4.28 -1.28 14.0548
12.3522 -4.3 -1.28 13.587
12.3522 -4.32 -1.28 13.587
12.3522 -4.34 -1.28 13.587
10.811580000000001 -5.68 -1.28 11.0193
12.63288 1.92 -1.3 14.0548
15.83916 -1.4 -1.3 19.3986
12.63288 -1.52 -1.3 14.0548
12.63288 -1.54 -1.3 14.0548
11.61198 -5.5 -1.3 12.3533
11.61198 -5.52 -1.3 12.3533
11.61198 -5.54 -1.3 12.3533
11.18892 -5.56 -1.3 11.6482
10.995 -5.58 -1.3 11.325
10.995 -5.6 -1.3 11.325
10.995 -5.62 -1.3 11.325
10.316220000000001 -5.72 -1.3 10.1937
10.316220000000001 -5.74 -1.3 10.1937
10.025244 -5.76 -1.3 9.70874
9.406074 -5.8 -1.3 8.67679
9.297708 -5.82 -1.3 8.49618
9.297708 -5.84 -1.3 8.49618
15.83916 -1.44 -1.32 19.3986
12.63288 -1.56 -1.32 14.0548
12.3522 -1.58 -1.32 13.587
10.995 -5.58 -1.32 11.325
10.995 -5.6 -1.32 11.325
10.995 -5.62 -1.32 11.325
10.316220000000001 -5.7 -1.32 10.1937
10.637759999999998 -6.32 -1.32 10.7296
12.3522 -1.58 -1.34 13.587
12.3522 -1.6 -1.34 13.587
13.6044 -5.3 -1.34 15.674
13.6044 -5.32 -1.34 15.674
13.6044 -5.34 -1.34 15.674
10.995 -5.6 -1.34 11.325
10.316220000000001 -5.68 -1.34 10.1937
10.316220000000001 -5.7 -1.34 10.1937
10.637759999999998 -6.36 -1.34 10.7296
12.933599999999998 5.62 -1.36 14.556
12.3522 -1.62 -1.36 13.587
12.08952 -1.64 -1.36 13.1492
12.08952 -1.66 -1.36 13.1492
12.63288 -5.38 -1.36 14.0548
12.3522 -5.4 -1.36 13.587
12.08952 -5.42 -1.36 13.1492
11.18892 -5.46 -1.36 11.6482
11.18892 -5.48 -1.36 11.6482
10.637759999999998 -5.54 -1.36 10.7296
10.637759999999998 -6.34 -1.36 10.7296
10.637759999999998 -6.36 -1.36 10.7296
12.08952 -1.66 -1.38 13.1492
12.08952 -1.68 -1.38 13.1492
11.18892 -5.46 -1.38 11.6482
11.18892 -5.48 -1.38 11.6482
10.637759999999998 -5.54 -1.38 10.7296
124.19999999999999 -6.16 -1.38 200.0
11.843340000000001 -1.7 -1.4 12.7389
11.843340000000001 -1.72 -1.4 12.7389
10.995 -5.6 -1.4 11.325
10.811580000000001 -5.62 -1.4 11.0193
10.811580000000001 -5.64 -1.4 11.0193
10.811580000000001 -5.66 -1.4 11.0193
11.843340000000001 -1.72 -1.42 12.7389
11.843340000000001 -1.74 -1.42 12.7389
11.843340000000001 -1.76 -1.42 12.7389
10.811580000000001 -5.62 -1.42 11.0193
10.811580000000001 -5.64 -1.42 11.0193
10.811580000000001 -5.66 -1.42 11.0193
11.843340000000001 -6.32 -1.42 12.7389
11.61198 2.1 -1.44 12.3533
11.843340000000001 -1.76 -1.44 12.7389
11.843340000000001 -1.78 -1.44 12.7389
11.18892 -5.56 -1.44 11.6482
10.995 -5.58 -1.44 11.325
10.811580000000001 -5.62 -1.44 11.0193
14.82888 -1.66 -1.46 17.7148
11.61198 -1.8 -1.46 12.3533
11.61198 -1.82 -1.46 12.3533
11.18892 -5.54 -1.46 11.6482
11.18892 -5.56 -1.46 11.6482
10.995 -5.58 -1.46 11.325
10.995 -5.6 -1.46 11.325
10.811580000000001 -5.62 -1.46 11.0193
14.82888 -1.7 -1.48 17.7148
11.61198 -1.84 -1.48 12.3533
11.61198 -1.86 -1.48 12.3533
10.811580000000001 3.36 -1.5 11.0193
14.82888 -1.74 -1.5 17.7148
11.61198 -1.86 -1.5 12.3533
11.394240000000002 -1.88 -1.5 11.9904
13.979940000000001 -5.24 -1.5 16.2999
11.394240000000002 -1.9 -1.52 11.9904
11.394240000000002 -1.92 -1.52 11.9904
12.63288 -5.3 -1.52 14.0548
12.63288 -5.32 -1.52 14.0548
12.63288 -5.34 -1.52 14.0548
11.843340000000001 -5.36 -1.52 12.7389
11.843340000000001 -5.38 -1.52 12.7389
11.61198 -5.4 -1.52 12.3533
11.394240000000002 -5.42 -1.52 11.9904
11.18892 -5.44 -1.52 11.6482
10.995 -5.46 -1.52 11.325
11.18892 -1.92 -1.54 11.6482
11.18892 -1.94 -1.54 11.6482
11.18892 -1.96 -1.54 11.6482
11.843340000000001 -5.38 -1.54 12.7389
11.61198 -5.4 -1.54 12.3533
11.394240000000002 -5.42 -1.54 11.9904
11.18892 -5.44 -1.54 11.6482
10.995 -5.46 -1.54 11.325
10.995 -5.48 -1.54 11.325
10.811580000000001 -5.5 -1.54 11.0193
9.406074 -5.72 -1.54 8.67679
11.18892 -1.94 -1.56 11.6482
11.18892 -1.96 -1.56 11.6482
10.811580000000001 -5.5 -1.56 11.0193
10.637759999999998 -5.52 -1.56 10.7296
10.637759999999998 -5.54 -1.56 10.7296
11.18892 -1.96 -1.58 11.6482
20.4822 -6.68 -1.58 27.137
10.995 2.32 -1.6 11.325
10.472879999999998 5.54 -1.62 10.4548
10.472879999999998 5.54 -1.64 10.4548
10.316220000000001 5.24 -1.66 10.1937
10.316220000000001 5.22 -1.66 10.1937
10.316220000000001 -4.48 -1.68 10.1937
10.316220000000001 -4.5 -1.68 10.1937
10.316220000000001 -4.52 -1.68 10.1937
10.472879999999998 -4.42 -1.7 10.4548
10.472879999999998 -4.44 -1.7 10.4548
10.472879999999998 -4.46 -1.7 10.4548
10.316220000000001 -4.48 -1.7 10.1937
10.316220000000001 -4.5 -1.7 10.1937
10.316220000000001 -4.52 -1.7 10.1937
17.77464 -6.74 -1.7 22.6244
10.637759999999998 -4.38 -1.72 10.7296
10.637759999999998 -4.4 -1.72 10.7296
10.472879999999998 -4.42 -1.72 10.4548
10.472879999999998 -4.44 -1.72 10.4548
10.472879999999998 -4.46 -1.72 10.4548
10.316220000000001 -4.48 -1.72 10.1937
9.193757999999999 -4.58 -1.72 8.32293
9.193757999999999 -4.6 -1.72 8.32293
10.637759999999998 -4.4 -1.74 10.7296
10.472879999999998 -4.42 -1.74 10.4548
9.193757999999999 -4.62 -1.74 8.32293
8.99808 -4.64 -1.74 7.9968
10.16718 5.78 -1.76 9.9453
9.760704 4.62 -1.78 9.26784
9.760704 3.9 -1.78 9.26784
9.760704 3.88 -1.78 9.26784
9.760704 5.12 -1.82 9.26784
9.760704 5.1 -1.82 9.26784
9.51915 4.54 -1.86 8.86525
9.51915 4.52 -1.86 8.86525
9.51915 4.5 -1.86 8.86525
9.51915 4.22 -1.86 8.86525
9.51915 4.2 -1.86 8.86525
9.51915 4.1 -1.88 8.86525
9.406074 3.88 -1.9 8.67679
9.406074 3.86 -1.9 8.67679
9.51915 5.02 -1.92 8.86525
9.51915 3.74 -1.92 8.86525
9.406074 5.18 -1.94 8.67679
9.51915 3.72 -1.94 8.86525
9.760704 -4.44 -1.98 9.26784
9.760704 -4.46 -1.98 9.26784
9.760704 -4.48 -1.98 9.26784
9.637241999999999 -4.5 -1.98 9.06207
9.51915 -4.54 -1.98 8.86525
9.51915 -4.56 -1.98 8.86525
9.406074 -4.58 -1.98 8.67679
9.297708 -4.6 -1.98 8.49618
9.297708 -4.62 -1.98 8.49618
9.193757999999999 -4.64 -1.98 8.32293
9.193757999999999 4.04 -2.0 8.32293
9.760704 -4.46 -2.0 9.26784
9.760704 -4.48 -2.0 9.26784
9.637241999999999 -4.5 -2.0 9.06207
9.51915 -4.52 -2.0 8.86525
9.51915 -4.54 -2.0 8.86525
9.51915 -4.56 -2.0 8.86525
9.406074 -4.58 -2.0 8.67679
9.297708 -4.62 -2.0 8.49618
9.193757999999999 -4.64 -2.0 8.32293
9.093966 -4.66 -2.0 8.15661
8.905884 -4.68 -2.0 7.84314
9.093966 5.34 -2.02 8.15661
9.193757999999999 4.54 -2.02 8.32293
8.817162000000001 -4.7 -2.02 7.69527
8.64939 -4.72 -2.02 7.41565
8.99808 4.4 -2.04 7.9968
8.99808 4.38 -2.04 7.9968
8.99808 4.34 -2.06 7.9968
9.51915 -2.68 -2.06 8.86525
9.51915 -2.7 -2.08 8.86525
9.406074 -2.88 -2.08 8.67679
9.406074 -2.9 -2.08 8.67679
9.406074 -2.92 -2.08 8.67679
9.406074 -2.92 -2.1 8.67679
9.297708 -2.94 -2.1 8.49618
9.193757999999999 -2.98 -2.12 8.32293
9.193757999999999 3.0 -2.14 8.32293
9.193757999999999 -3.0 -2.14 8.32293
9.193757999999999 -3.02 -2.14 8.32293
8.817162000000001 3.78 -2.16 7.69527
8.64939 4.82 -2.2 7.41565
8.99808 3.06 -2.2 7.9968
9.093966 -3.1 -2.2 8.15661
8.99808 -3.12 -2.2 7.9968
8.99808 -3.14 -2.2 7.9968
8.99808 -3.14 -2.22 7.9968
8.99808 -3.16 -2.22 7.9968
8.905884 -6.68 -2.22 7.84314
8.905884 -6.7 -2.22 7.84314
8.569992 4.68 -2.24 7.28332
8.569992 4.72 -2.26 7.28332
8.569992 3.98 -2.26 7.28332
8.905884 -6.74 -2.26 7.84314
8.569992 3.98 -2.28 7.28332
8.569992 3.96 -2.28 7.28332
8.569992 5.22 -2.3 7.28332
8.905884 -3.28 -2.3 7.84314
8.347944 5.46 -2.32 6.91324
8.905884 -3.32 -2.32 7.84314
8.347944 5.5 -2.34 6.91324
8.347944 5.02 -2.34 6.91324
8.27886 4.52 -2.34 6.7981
8.347944 5.48 -2.36 6.91324
8.27886 4.5 -2.36 6.7981
8.27886 4.48 -2.36 6.7981
8.419410000000001 3.96 -2.36 7.03235
8.347944 5.46 -2.38 6.91324
8.64939 -3.44 -2.38 7.41565
8.27886 5.38 -2.4 6.7981
8.419410000000001 5.48 -2.42 7.03235
8.419410000000001 5.48 -2.44 7.03235
8.419410000000001 5.52 -2.46 7.03235
8.569992 -3.56 -2.46 7.28332
8.493384 -3.58 -2.46 7.15564
8.493384 -3.62 -2.48 7.15564
8.419410000000001 -3.64 -2.5 7.03235
8.419410000000001 -3.66 -2.5 7.03235
8.27886 3.48 -2.52 6.7981
8.024094 5.28 -2.54 6.37349
8.084754 5.06 -2.54 6.47459
8.347944 -3.72 -2.54 6.91324
8.024094 5.24 -2.56 6.37349
8.024094 5.22 -2.56 6.37349
8.347944 -3.52 -2.58 6.91324
8.27886 -3.8 -2.58 6.7981
8.024094 4.12 -2.62 6.37349
8.024094 4.1 -2.62 6.37349
7.908282 5.18 -2.64 6.18047
7.965294 4.54 -2.66 6.27549
8.212038 -3.92 -2.66 6.68673
8.212038 -3.94 -2.66 6.68673
8.212038 -3.96 -2.66 6.68673
8.212038 -3.96 -2.68 6.68673
7.8529680000000015 5.48 -2.7 6.08828
7.8529680000000015 5.46 -2.7 6.08828
7.908282 5.0 -2.7 6.18047
7.965294 3.8 -2.7 6.27549
7.8529680000000015 5.48 -2.72 6.08828
7.8529680000000015 5.46 -2.72 6.08828
7.8529680000000015 5.44 -2.72 6.08828
7.8529680000000015 5.1 -2.72 6.08828
7.8529680000000015 4.9 -2.72 6.08828
7.908282 3.8 -2.72 6.18047
7.908282 3.78 -2.72 6.18047
7.8529680000000015 5.08 -2.74 6.08828
7.8529680000000015 4.96 -2.74 6.08828
7.8529680000000015 4.88 -2.74 6.08828
7.908282 3.76 -2.74 6.18047
7.908282 3.74 -2.74 6.18047
7.7992799999999995 5.34 -2.76 5.9988
7.7992799999999995 5.18 -2.76 5.9988
7.8529680000000015 4.96 -2.76 6.08828
7.908282 4.08 -2.76 6.18047
7.908282 4.06 -2.76 6.18047
7.7992799999999995 3.86 -2.76 5.9988
7.7992799999999995 3.84 -2.76 5.9988
7.7992799999999995 3.82 -2.76 5.9988
8.024094 -5.18 -2.76 6.37349
8.024094 -5.2 -2.76 6.37349
7.747145999999999 4.68 -2.8 5.91191
7.747145999999999 4.76 -2.82 5.91191
7.747145999999999 4.76 -2.84 5.91191
7.747145999999999 4.74 -2.84 5.91191
7.747145999999999 4.72 -2.84 5.91191
7.6472880000000005 5.0 -2.86 5.74548
7.747145999999999 4.74 -2.86 5.91191
7.747145999999999 4.72 -2.86 5.91191
7.599432 5.1 -2.88 5.66572
7.747145999999999 5.02 -2.88 5.91191
7.6472880000000005 4.96 -2.88 5.74548
7.7992799999999995 5.18 -2.9 5.9988
7.7992799999999995 5.16 -2.9 5.9988
7.599432 4.94 -2.9 5.66572
7.7992799999999995 5.18 -2.92 5.9988
7.599432 5.14 -2.92 5.66572
7.599432 4.96 -2.92 5.66572
7.599432 4.94 -2.92 5.66572
7.908282 3.44 -2.92 6.18047
7.908282 3.42 -2.92 6.18047
7.7992799999999995 -4.38 -2.92 5.9988
7.7992799999999995 -4.4 -2.92 5.9988
7.507607999999999 5.3 -2.94 5.51268
7.552889999999999 5.14 -2.94 5.58815
7.552889999999999 5.12 -2.94 5.58815
7.599432 4.98 -2.94 5.66572
7.747145999999999 -6.0 -2.94 5.91191
7.747145999999999 -6.02 -2.94 5.91191
7.507607999999999 5.28 -2.96 5.51268
7.552889999999999 5.14 -2.96 5.58815
7.552889999999999 5.12 -2.96 5.58815
7.552889999999999 5.1 -2.96 5.58815
7.507607999999999 5.04 -2.96 5.51268
7.599432 4.96 -2.96 5.66572
7.908282 3.6 -2.96 6.18047
7.908282 3.58 -2.96 6.18047
7.7992799999999995 3.56 -2.96 5.9988
7.552889999999999 5.12 -2.98 5.58815
7.552889999999999 5.1 -2.98 5.58815
7.552889999999999 5.08 -2.98 5.58815
7.908282 3.58 -2.98 6.18047
7.7992799999999995 3.56 -2.98 5.9988
7.7992799999999995 3.54 -2.98 5.9988
7.7992799999999995 3.52 -2.98 5.9988
7.7992799999999995 3.5 -2.98 5.9988
7.7992799999999995 3.48 -2.98 5.9988
7.7992799999999995 3.46 -2.98 5.9988
7.552889999999999 5.08 -3.0 5.58815
7.7992799999999995 3.48 -3.0 5.9988
7.599432 4.16 -3.04 5.66572
7.599432 4.14 -3.04 5.66572
7.463532 5.08 -3.06 5.43922
7.463532 5.06 -3.06 5.43922
7.507607999999999 4.48 -3.06 5.51268
7.552889999999999 -4.66 -3.06 5.58815
7.463532 5.06 -3.08 5.43922
7.378806 5.38 -3.1 5.29801
7.463532 4.88 -3.1 5.43922
7.463532 4.86 -3.1 5.43922
7.6472880000000005 2.26 -3.14 5.74548
7.6472880000000005 2.24 -3.14 5.74548
7.6472880000000005 -4.6 -3.22 5.74548
7.552889999999999 -4.64 -3.22 5.58815
7.507607999999999 -4.66 -3.22 5.51268
7.463532 -4.84 -3.22 5.43922
7.463532 -4.86 -3.22 5.43922
7.420614 -4.88 -3.22 5.36769
7.378806 -4.9 -3.22 5.29801
7.378806 -4.92 -3.22 5.29801
7.552889999999999 -4.64 -3.24 5.58815
7.507607999999999 -4.66 -3.24 5.51268
7.507607999999999 -4.68 -3.24 5.51268
7.507607999999999 -4.7 -3.24 5.51268
7.463532 -4.72 -3.24 5.43922
7.420614 -4.74 -3.24 5.36769
7.378806 -4.76 -3.24 5.29801
7.463532 -4.82 -3.24 5.43922
7.463532 -4.84 -3.24 5.43922
7.463532 -4.86 -3.24 5.43922
7.420614 -4.88 -3.24 5.36769
7.378806 -4.9 -3.24 5.29801
7.378806 -4.92 -3.24 5.29801
7.259664000000001 -4.94 -3.24 5.09944
7.507607999999999 -4.68 -3.26 5.51268
7.507607999999999 -4.7 -3.26 5.51268
7.463532 -4.72 -3.26 5.43922
7.420614 -4.74 -3.26 5.36769
7.378806 -4.76 -3.26 5.29801
7.338077999999999 -4.78 -3.26 5.23013
7.463532 -4.8 -3.26 5.43922
7.378806 -4.92 -3.26 5.29801
7.259664000000001 -4.96 -3.26 5.09944
7.046298 -4.98 -3.26 4.74383
7.046298 -4.98 -3.28 4.74383
7.046298 -5.0 -3.28 4.74383
7.298376 -2.76 -3.42 5.16396
7.298376 -2.78 -3.42 5.16396
7.298376 -2.8 -3.42 5.16396
7.013598 -2.92 -3.46 4.68933
7.046298 5.08 -3.5 4.74383
7.046298 5.08 -3.52 4.74383
7.046298 5.06 -3.52 4.74383
7.221906000000001 3.4 -3.56 5.03651
7.221906000000001 3.38 -3.56 5.03651
7.221906000000001 3.36 -3.56 5.03651
7.114037999999999 -6.06 -3.58 4.85673
7.114037999999999 -4.0 -3.6 4.85673
7.114037999999999 -4.02 -3.6 4.85673
7.114037999999999 -4.04 -3.6 4.85673
6.9504 5.44 -3.68 4.584
6.981642 5.24 -3.68 4.63607
6.981642 5.22 -3.68 4.63607
7.013598 5.04 -3.68 4.68933
6.9504 5.02 -3.68 4.584
6.9504 5.46 -3.7 4.584
6.9504 5.44 -3.7 4.584
6.981642 5.26 -3.7 4.63607
6.981642 5.24 -3.7 4.63607
6.981642 5.22 -3.7 4.63607
6.981642 5.2 -3.7 4.63607
6.919854 5.12 -3.7 4.53309
6.919854 5.1 -3.7 4.53309
6.9504 5.02 -3.7 4.584
6.9504 5.0 -3.7 4.584
6.9504 4.98 -3.7 4.584
6.981642 4.88 -3.7 4.63607
6.981642 5.2 -3.72 4.63607
6.9504 4.98 -3.72 4.584
7.046298 4.64 -3.78 4.74383
6.981642 5.12 -3.84 4.63607
6.981642 5.1 -3.84 4.63607
6.981642 4.64 -3.84 4.63607
7.013598 4.62 -3.84 4.68933
7.013598 3.68 -3.84 4.68933
7.013598 3.66 -3.84 4.68933
6.981642 5.08 -3.86 4.63607
6.9504 5.06 -3.86 4.584
6.919854 5.04 -3.88 4.53309
6.981642 4.68 -3.88 4.63607
6.981642 4.66 -3.88 4.63607
6.981642 4.64 -3.88 4.63607
6.919854 5.02 -3.9 4.53309
6.919854 5.0 -3.9 4.53309
6.88998 4.94 -3.9 4.4833
6.919854 5.0 -3.92 4.53309
6.88998 4.98 -3.92 4.4833
6.88998 4.98 -3.94 4.4833
6.88998 4.94 -3.96 4.4833
6.776765999999999 -6.44 -4.0 4.29461
6.776765999999999 -6.42 -4.02 4.29461
6.776765999999999 -6.44 -4.02 4.29461
6.804168 -3.3 -4.04 4.34028
6.860754 4.46 -4.06 4.43459
6.832158 2.56 -4.12 4.38693
6.7499340000000005 -1.48 -4.12 4.24989
6.9504 5.0 -4.14 4.584
6.832158 2.54 -4.14 4.38693
6.919854 5.0 -4.16 4.53309
6.804168 4.5 -4.18 4.34028
6.72366 -4.94 -4.18 4.2061
6.72366 -4.96 -4.18 4.2061
6.72366 5.06 -4.2 4.2061
6.7499340000000005 4.96 -4.2 4.24989
6.776765999999999 4.74 -4.2 4.29461
6.804168 4.48 -4.2 4.34028
6.776765999999999 5.04 -4.22 4.29461
6.72366 5.02 -4.22 4.2061
6.72366 4.96 -4.22 4.2061
6.72366 4.94 -4.22 4.2061
6.776765999999999 5.2 -4.24 4.29461
6.776765999999999 5.18 -4.24 4.29461
6.776765999999999 5.16 -4.24 4.29461
6.7499340000000005 4.66 -4.24 4.24989
6.776765999999999 5.2 -4.26 4.29461
6.776765999999999 5.18 -4.26 4.29461
6.776765999999999 5.16 -4.26 4.29461
6.7499340000000005 5.14 -4.26 4.24989
6.72366 5.08 -4.26 4.2061
6.7499340000000005 5.14 -4.28 4.24989
6.776765999999999 5.12 -4.28 4.29461
6.69792 5.08 -4.28 4.1632
6.69792 5.06 -4.28 4.1632
6.7499340000000005 5.12 -4.3 4.24989
6.7499340000000005 5.1 -4.3 4.24989
6.69792 5.06 -4.3 4.1632
6.776765999999999 5.04 -4.3 4.29461
6.69792 5.08 -4.32 4.1632
6.69792 4.56 -4.32 4.1632
6.623754 3.88 -4.48 4.03959
6.623754 -3.74 -4.66 4.03959
.7614
22.97934 -0.38 -0.62 5000031.2989
22.97934 -0.4 -0.62 5000031.2989
22.97934 -1.68 -0.62 5000031.2989
22.97934 -1.7 -0.62 5000031.2989
21.64188 -1.72 -0.62 5000029.0698
17.77464 -1.78 -0.62 5000022.6244
14.82888 -1.86 -0.62 5000017.7148
14.82888 -1.88 -0.62 5000017.7148
14.82888 -2.1 -0.62 5000017.7148
14.82888 -2.14 -0.62 5000017.7148
14.82888 -2.5 -0.62 5000017.7148
17.06172 -2.78 -0.62 5000021.4362
17.06172 -2.8 -0.62 5000021.4362
14.82888 -2.9 -0.62 5000017.7148
13.25658 -2.96 -0.62 5000015.0943
13.25658 -2.98 -0.62 5000015.0943
13.25658 -4.1 -0.62 5000015.0943
11.843340000000001 -4.24 -0.62 5000012.7389
9.406074 -4.6 -0.62 5000008.67679
9.406074 -4.62 -0.62 5000008.67679
14.386740000000001 -6.02 -0.62 5000016.9779
10.472879999999998 -6.32 -0.62 5000010.4548
10.472879999999998 -6.34 -0.62 5000010.4548
10.472879999999998 -6.52 -0.62 5000010.4548
10.472879999999998 -6.54 -0.62 5000010.4548
24.53898 -0.34 -0.64 5000033.8983
22.97934 -0.38 -0.64 5000031.2989
22.97934 -0.4 -0.64 5000031.2989
22.97934 -0.42 -0.64 5000031.2989
17.77464 -1.78 -0.64 5000022.6244
21.64188 -1.98 -0.64 5000029.0698
21.64188 -2.0 -0.64 5000029.0698
19.467180000000003 -2.04 -0.64 5000025.4453
11.394240000000002 -2.06 -0.64 5000011.9904
17.06172 -2.8 -0.64 5000021.4362
13.25658 -4.12 -0.64 5000015.0943
11.843340000000001 -4.22 -0.64 5000012.7389
13.979940000000001 -6.06 -0.64 5000016.2999
13.6044 -6.08 -0.64 5000015.674
13.6044 -6.1 -0.64 5000015.674
10.472879999999998 -6.34 -0.64 5000010.4548
10.472879999999998 -6.36 -0.64 5000010.4548
11.18892 -6.46 -0.64 5000011.6482
10.472879999999998 -6.52 -0.64 5000010.4548
10.472879999999998 -6.54 -0.64 5000010.4548
10.472879999999998 -6.56 -0.64 5000010.4548
22.97934 -0.42 -0.66 5000031.2989
28.590239999999998 -1.86 -0.66 5000040.6504
28.590239999999998 -1.88 -0.66 5000040.6504
21.64188 -1.98 -0.66 5000029.0698
20.4822 -2.0 -0.66 5000027.137
18.57126 -2.38 -0.66 5000023.9521
17.06172 -2.8 -0.66 5000021.4362
10.995 -5.78 -0.66 5000011.325
10.995 -5.8 -0.66 5000011.325
10.995 -5.82 -0.66 5000011.325
10.637759999999998 -6.18 -0.66 5000010.7296
10.637759999999998 -6.2 -0.66 5000010.7296
11.18892 -6.46 -0.66 5000011.6482
10.472879999999998 -6.52 -0.66 5000010.4548
10.472879999999998 -6.54 -0.66 5000010.4548
10.472879999999998 -6.56 -0.66 5000010.4548
31.28802 -1.9 -0.68 5000045.1467
28.590239999999998 -1.92 -0.68 5000040.6504
21.64188 -1.96 -0.68 5000029.0698
21.64188 -1.98 -0.68 5000029.0698
20.4822 -2.0 -0.68 5000027.137
13.6044 -3.78 -0.68 5000015.674
13.6044 -3.8 -0.68 5000015.674
13.979940000000001 -4.08 -0.68 5000016.2999
13.979940000000001 -4.1 -0.68 5000016.2999
13.979940000000001 -4.12 -0.68 5000016.2999
12.63288 -4.26 -0.68 5000014.0548
11.61198 -4.3 -0.68 5000012.3533
11.394240000000002 -4.32 -0.68 5000011.9904
11.394240000000002 -4.4 -0.68 5000011.9904
11.18892 -4.42 -0.68 5000011.6482
10.995 -5.78 -0.68 5000011.325
10.995 -5.8 -0.68 5000011.325
10.995 -5.82 -0.68 5000011.325
10.472879999999998 -6.52 -0.68 5000010.4548
10.472879999999998 -6.54 -0.68 5000010.4548
10.472879999999998 -6.56 -0.68 5000010.4548
10.316220000000001 -6.58 -0.68 5000010.1937
21.64188 -1.98 -0.7 5000029.0698
64.806 -2.1 -0.7 5000101.01
13.979940000000001 -2.16 -0.7 5000016.2999
13.979940000000001 -2.18 -0.7 5000016.2999
13.6044 -2.22 -0.7 5000015.674
13.6044 -3.8 -0.7 5000015.674
13.6044 -3.82 -0.7 5000015.674
13.979940000000001 -4.08 -0.7 5000016.2999
13.979940000000001 -4.1 -0.7 5000016.2999
13.979940000000001 -4.12 -0.7 5000016.2999
12.63288 -4.24 -0.7 5000014.0548
12.63288 -4.28 -0.7 5000014.0548
11.394240000000002 -4.4 -0.7 5000011.9904
10.995 -4.44 -0.7 5000011.325
10.811580000000001 -4.46 -0.7 5000011.0193
10.811580000000001 -4.48 -0.7 5000011.0193
11.394240000000002 -5.54 -0.7 5000011.9904
11.394240000000002 -5.56 -0.7 5000011.9904
11.18892 -5.76 -0.7 5000011.6482
10.995 -5.78 -0.7 5000011.325
10.995 -5.8 -0.7 5000011.325
10.472879999999998 -6.54 -0.7 5000010.4548
10.472879999999998 -6.56 -0.7 5000010.4548
28.590239999999998 -0.46 -0.72 5000040.6504
21.64188 -0.52 -0.72 5000029.0698
13.979940000000001 -2.16 -0.72 5000016.2999
18.57126 -2.38 -0.72 5000023.9521
13.6044 -3.18 -0.72 5000015.674
13.979940000000001 -3.66 -0.72 5000016.2999
12.933599999999998 -3.74 -0.72 5000014.556
13.6044 -3.76 -0.72 5000015.674
13.6044 -3.82 -0.72 5000015.674
13.6044 -3.84 -0.72 5000015.674
12.933599999999998 -4.22 -0.72 5000014.556
12.933599999999998 -4.24 -0.72 5000014.556
10.811580000000001 -4.48 -0.72 5000011.0193
11.394240000000002 -5.56 -0.72 5000011.9904
11.18892 -5.76 -0.72 5000011.6482
11.18892 -5.78 -0.72 5000011.6482
10.811580000000001 -5.94 -0.72 5000011.0193
28.590239999999998 -0.46 -0.74 5000040.6504
28.590239999999998 -0.48 -0.74 5000040.6504
20.4822 -0.54 -0.74 5000027.137
20.4822 -0.56 -0.74 5000027.137
18.57126 -2.38 -0.74 5000023.9521
18.57126 -2.4 -0.74 5000023.9521
18.57126 -2.42 -0.74 5000023.9521
15.83916 -3.08 -0.74 5000019.3986
13.6044 -3.16 -0.74 5000015.674
13.6044 -3.18 -0.74 5000015.674
13.6044 -3.2 -0.74 5000015.674
13.979940000000001 -3.62 -0.74 5000016.2999
13.979940000000001 -3.64 -0.74 5000016.2999
13.979940000000001 -3.66 -0.74 5000016.2999
13.979940000000001 -3.7 -0.74 5000016.2999
12.933599999999998 -3.78 -0.74 5000014.556
12.933599999999998 -4.22 -0.74 5000014.556
12.933599999999998 -4.24 -0.74 5000014.556
11.843340000000001 -4.32 -0.74 5000012.7389
11.843340000000001 -4.34 -0.74 5000012.7389
10.811580000000001 -5.94 -0.74 5000011.0193
10.16718 -6.04 -0.74 5000009.9453
28.590239999999998 -0.48 -0.76 5000040.6504
28.590239999999998 -0.5 -0.76 5000040.6504
20.4822 -0.56 -0.76 5000027.137
19.467180000000003 -0.58 -0.76 5000025.4453
19.467180000000003 -0.6 -0.76 5000025.4453
18.57126 -2.38 -0.76 5000023.9521
18.57126 -2.4 -0.76 5000023.9521
18.57126 -2.42 -0.76 5000023.9521
17.77464 -2.56 -0.76 5000022.6244
13.25658 -2.58 -0.76 5000015.0943
13.25658 -2.6 -0.76 5000015.0943
13.25658 -2.62 -0.76 5000015.0943
15.83916 -3.04 -0.76 5000019.3986
15.83916 -3.06 -0.76 5000019.3986
15.83916 -3.08 -0.76 5000019.3986
13.6044 -3.14 -0.76 5000015.674
13.6044 -3.16 -0.76 5000015.674
13.6044 -3.18 -0.76 5000015.674
13.979940000000001 -3.64 -0.76 5000016.2999
12.933599999999998 -4.22 -0.76 5000014.556
11.843340000000001 -4.3 -0.76 5000012.7389
11.843340000000001 -4.32 -0.76 5000012.7389
11.843340000000001 -4.34 -0.76 5000012.7389
10.637759999999998 -6.24 -0.76 5000010.7296
10.637759999999998 -6.68 -0.76 5000010.7296
10.637759999999998 -6.7 -0.76 5000010.7296
26.38116 -0.52 -0.78 5000036.9686
19.467180000000003 -0.6 -0.78 5000025.4453
19.467180000000003 -0.62 -0.78 5000025.4453
18.57126 -2.4 -0.78 5000023.9521
18.57126 -2.42 -0.78 5000023.9521
17.77464 -2.44 -0.78 5000022.6244
15.3111 -2.52 -0.78 5000018.5185
15.3111 -2.56 -0.78 5000018.5185
13.979940000000001 -2.58 -0.78 5000016.2999
13.25658 -2.6 -0.78 5000015.0943
13.25658 -2.62 -0.78 5000015.0943
12.933599999999998 -2.64 -0.78 5000014.556
15.83916 -3.06 -0.78 5000019.3986
15.83916 -3.08 -0.78 5000019.3986
13.6044 -3.16 -0.78 5000015.674
13.6044 -3.18 -0.78 5000015.674
12.933599999999998 -4.22 -0.78 5000014.556
11.843340000000001 -4.28 -0.78 5000012.7389
11.843340000000001 -4.3 -0.78 5000012.7389
10.995 -5.68 -0.78 5000011.325
10.995 -5.7 -0.78 5000011.325
10.637759999999998 -6.68 -0.78 5000010.7296
10.637759999999998 -6.7 -0.78 5000010.7296
26.38116 -0.54 -0.8 5000036.9686
18.57126 -0.62 -0.8 5000023.9521
18.57126 -0.64 -0.8 5000023.9521
18.57126 -2.42 -0.8 5000023.9521
17.77464 -2.44 -0.8 5000022.6244
13.25658 -2.62 -0.8 5000015.0943
13.25658 -3.18 -0.8 5000015.0943
13.25658 -3.2 -0.8 5000015.0943
12.63288 -3.74 -0.8 5000014.0548
12.63288 -3.76 -0.8 5000014.0548
13.6044 -3.84 -0.8 5000015.674
13.6044 -3.86 -0.8 5000015.674
12.933599999999998 -4.2 -0.8 5000014.556
12.933599999999998 -4.22 -0.8 5000014.556
12.08952 -4.26 -0.8 5000013.1492
11.843340000000001 -4.28 -0.8 5000012.7389
10.637759999999998 -6.68 -0.8 5000010.7296
10.637759999999998 -6.7 -0.8 5000010.7296
26.38116 -0.56 -0.82 5000036.9686
18.57126 -0.64 -0.82 5000023.9521
18.57126 -0.66 -0.82 5000023.9521
15.3111 -2.54 -0.82 5000018.5185
15.3111 -2.56 -0.82 5000018.5185
15.83916 -3.06 -0.82 5000019.3986
15.83916 -3.08 -0.82 5000019.3986
12.933599999999998 -3.2 -0.82 5000014.556
12.933599999999998 -3.22 -0.82 5000014.556
13.979940000000001 -3.66 -0.82 5000016.2999
12.63288 -3.76 -0.82 5000014.0548
12.63288 -3.78 -0.82 5000014.0548
13.6044 -3.88 -0.82 5000015.674
12.08952 -4.26 -0.82 5000013.1492
10.811580000000001 -5.72 -0.82 5000011.0193
10.811580000000001 -5.74 -0.82 5000011.0193
14.82888 -6.16 -0.82 5000017.7148
14.386740000000001 -6.18 -0.82 5000016.9779
14.386740000000001 -6.2 -0.82 5000016.9779
13.6044 -6.24 -0.82 5000015.674
13.25658 -6.26 -0.82 5000015.0943
13.25658 -6.28 -0.82 5000015.0943
12.933599999999998 -6.3 -0.82 5000014.556
12.08952 -6.32 -0.82 5000013.1492
11.843340000000001 -6.34 -0.82 5000012.7389
11.61198 -6.36 -0.82 5000012.3533
11.394240000000002 -6.38 -0.82 5000011.9904
11.18892 -6.4 -0.82 5000011.6482
11.18892 -6.42 -0.82 5000011.6482
10.995 -6.44 -0.82 5000011.325
10.811580000000001 -6.48 -0.82 5000011.0193
10.637759999999998 -6.5 -0.82 5000010.7296
10.637759999999998 -6.52 -0.82 5000010.7296
10.472879999999998 -6.54 -0.82 5000010.4548
10.472879999999998 -6.68 -0.82 5000010.4548
10.637759999999998 -6.7 -0.82 5000010.7296
18.57126 -0.66 -0.84 5000023.9521
124.19999999999999 -2.7 -0.84 5000200.0
124.19999999999999 -2.72 -0.84 5000200.0
15.83916 -3.06 -0.84 5000019.3986
15.83916 -3.08 -0.84 5000019.3986
12.933599999999998 -3.2 -0.84 5000014.556
12.933599999999998 -3.22 -0.84 5000014.556
13.979940000000001 -3.64 -0.84 5000016.2999
13.979940000000001 -3.66 -0.84 5000016.2999
12.63288 -3.76 -0.84 5000014.0548
12.63288 -3.78 -0.84 5000014.0548
11.18892 -5.36 -0.84 5000011.6482
10.995 -5.4 -0.84 5000011.325
10.811580000000001 -5.72 -0.84 5000011.0193
10.811580000000001 -5.74 -0.84 5000011.0193
10.811580000000001 -5.76 -0.84 5000011.0193
14.82888 -6.16 -0.84 5000017.7148
14.386740000000001 -6.18 -0.84 5000016.9779
14.386740000000001 -6.2 -0.84 5000016.9779
13.979940000000001 -6.22 -0.84 5000016.2999
13.6044 -6.24 -0.84 5000015.674
13.25658 -6.26 -0.84 5000015.0943
11.61198 -6.36 -0.84 5000012.3533
11.394240000000002 -6.38 -0.84 5000011.9904
11.18892 -6.4 -0.84 5000011.6482
11.18892 -6.42 -0.84 5000011.6482
10.995 -6.44 -0.84 5000011.325
10.811580000000001 -6.46 -0.84 5000011.0193
10.811580000000001 -6.48 -0.84 5000011.0193
10.637759999999998 -6.5 -0.84 5000010.7296
10.472879999999998 -6.52 -0.84 5000010.4548
10.316220000000001 -6.54 -0.84 5000010.1937
10.16718 -6.58 -0.84 5000009.9453
10.472879999999998 -6.68 -0.84 5000010.4548
10.472879999999998 -6.7 -0.84 5000010.4548
84.7368 -2.74 -0.86 5000134.228
84.7368 -2.76 -0.86 5000134.228
64.806 -2.78 -0.86 5000101.01
16.419959999999996 -2.88 -0.86 5000020.3666
15.83916 -2.9 -0.86 5000019.3986
15.83916 -3.06 -0.86 5000019.3986
15.83916 -3.08 -0.86 5000019.3986
15.83916 -3.14 -0.86 5000019.3986
15.3111 -3.16 -0.86 5000018.5185
15.3111 -3.2 -0.86 5000018.5185
13.979940000000001 -3.64 -0.86 5000016.2999
13.979940000000001 -3.66 -0.86 5000016.2999
12.3522 -3.76 -0.86 5000013.587
12.3522 -3.78 -0.86 5000013.587
12.3522 -3.8 -0.86 5000013.587
11.394240000000002 -5.32 -0.86 5000011.9904
11.394240000000002 -5.34 -0.86 5000011.9904
10.995 -5.4 -0.86 5000011.325
10.995 -5.42 -0.86 5000011.325
10.811580000000001 -5.74 -0.86 5000011.0193
10.811580000000001 -5.76 -0.86 5000011.0193
10.637759999999998 -5.96 -0.86 5000010.7296
11.18892 -6.42 -0.86 5000011.6482
10.811580000000001 -6.48 -0.86 5000011.0193
10.472879999999998 -6.5 -0.86 5000010.4548
10.472879999999998 -6.52 -0.86 5000010.4548
10.316220000000001 -6.54 -0.86 5000010.1937
10.316220000000001 -6.58 -0.86 5000010.1937
9.760704 -6.6 -0.86 5000009.26784
9.637241999999999 -6.62 -0.86 5000009.06207
10.637759999999998 -6.64 -0.86 5000010.7296
10.472879999999998 -6.68 -0.86 5000010.4548
10.472879999999998 -6.7 -0.86 5000010.4548
18.57126 -2.82 -0.88 5000023.9521
16.419959999999996 -2.84 -0.88 5000020.3666
16.419959999999996 -2.86 -0.88 5000020.3666
16.419959999999996 -2.88 -0.88 5000020.3666
15.3111 -3.16 -0.88 5000018.5185
15.3111 -3.18 -0.88 5000018.5185
10.995 -5.38 -0.88 5000011.325
10.637759999999998 -5.94 -0.88 5000010.7296
10.637759999999998 -5.96 -0.88 5000010.7296
10.472879999999998 -6.32 -0.88 5000010.4548
10.316220000000001 -6.54 -0.88 5000010.1937
10.316220000000001 -6.56 -0.88 5000010.1937
10.472879999999998 -6.7 -0.88 5000010.4548
15.83916 -2.92 -0.9 5000019.3986
15.3111 -3.16 -0.9 5000018.5185
15.3111 -3.18 -0.9 5000018.5185
18.57126 -4.02 -0.9 5000023.9521
18.57126 -4.04 -0.9 5000023.9521
13.25658 -4.16 -0.9 5000015.0943
10.16718 -5.52 -0.9 5000009.9453
10.16718 -5.54 -0.9 5000009.9453
10.472879999999998 -6.32 -0.9 5000010.4548
10.316220000000001 -6.54 -0.9 5000010.1937
10.316220000000001 -6.56 -0.9 5000010.1937
22.97934 -0.76 -0.92 5000031.2989
15.3111 -3.16 -0.92 5000018.5185
15.3111 -3.18 -0.92 5000018.5185
13.25658 -3.28 -0.92 5000015.0943
13.25658 -3.3 -0.92 5000015.0943
13.979940000000001 -3.64 -0.92 5000016.2999
13.979940000000001 -3.74 -0.92 5000016.2999
13.979940000000001 -3.76 -0.92 5000016.2999
13.979940000000001 -3.78 -0.92 5000016.2999
13.25658 -4.14 -0.92 5000015.0943
12.933599999999998 -4.16 -0.92 5000014.556
12.933599999999998 -4.18 -0.92 5000014.556
12.63288 -4.2 -0.92 5000014.0548
12.3522 -4.22 -0.92 5000013.587
12.08952 -4.24 -0.92 5000013.1492
12.08952 -4.26 -0.92 5000013.1492
11.61198 -5.28 -0.92 5000012.3533
11.394240000000002 -5.3 -0.92 5000011.9904
10.995 -5.36 -0.92 5000011.325
10.316220000000001 -5.48 -0.92 5000010.1937
10.16718 -5.5 -0.92 5000009.9453
10.811580000000001 -5.96 -0.92 5000011.0193
10.811580000000001 -5.98 -0.92 5000011.0193
10.472879999999998 -6.32 -0.92 5000010.4548
10.472879999999998 -6.34 -0.92 5000010.4548
22.97934 -0.76 -0.94 5000031.2989
22.97934 -0.78 -0.94 5000031.2989
17.06172 -0.84 -0.94 5000021.4362
16.419959999999996 -0.86 -0.94 5000020.3666
16.419959999999996 -0.88 -0.94 5000020.3666
24.53898 -3.0 -0.94 5000033.8983
15.3111 -3.14 -0.94 5000018.5185
15.3111 -3.16 -0.94 5000018.5185
13.25658 -3.26 -0.94 5000015.0943
13.25658 -3.28 -0.94 5000015.0943
13.25658 -3.3 -0.94 5000015.0943
13.979940000000001 -3.64 -0.94 5000016.2999
13.979940000000001 -3.76 -0.94 5000016.2999
13.979940000000001 -3.78 -0.94 5000016.2999
12.933599999999998 -4.16 -0.94 5000014.556
12.933599999999998 -4.18 -0.94 5000014.556
12.63288 -4.2 -0.94 5000014.0548
12.3522 -4.22 -0.94 5000013.587
12.08952 -4.24 -0.94 5000013.1492
12.08952 -4.26 -0.94 5000013.1492
12.08952 -4.28 -0.94 5000013.1492
12.63288 -4.34 -0.94 5000014.0548
12.63288 -4.36 -0.94 5000014.0548
12.3522 -4.38 -0.94 5000013.587
12.3522 -4.4 -0.94 5000013.587
11.61198 -5.28 -0.94 5000012.3533
11.394240000000002 -5.3 -0.94 5000011.9904
11.394240000000002 -5.34 -0.94 5000011.9904
10.472879999999998 -5.46 -0.94 5000010.4548
10.637759999999998 -6.28 -0.94 5000010.7296
10.637759999999998 -6.3 -0.94 5000010.7296
10.637759999999998 -6.32 -0.94 5000010.7296
10.472879999999998 -6.34 -0.94 5000010.4548
10.472879999999998 -6.36 -0.94 5000010.4548
10.472879999999998 -6.38 -0.94 5000010.4548
21.64188 -0.8 -0.96 5000029.0698
16.419959999999996 -0.88 -0.96 5000020.3666
16.419959999999996 -0.9 -0.96 5000020.3666
15.83916 -3.08 -0.96 5000019.3986
15.83916 -3.1 -0.96 5000019.3986
13.25658 -3.3 -0.96 5000015.0943
13.979940000000001 -3.64 -0.96 5000016.2999
13.979940000000001 -3.78 -0.96 5000016.2999
12.933599999999998 -4.18 -0.96 5000014.556
12.08952 -4.24 -0.96 5000013.1492
12.63288 -4.34 -0.96 5000014.0548
12.63288 -4.36 -0.96 5000014.0548
12.3522 -4.38 -0.96 5000013.587
12.3522 -4.4 -0.96 5000013.587
10.811580000000001 -4.42 -0.96 5000011.0193
10.472879999999998 -5.44 -0.96 5000010.4548
15.83916 -0.92 -0.98 5000019.3986
15.83916 -0.94 -0.98 5000019.3986
15.83916 -3.08 -0.98 5000019.3986
15.83916 -3.1 -0.98 5000019.3986
15.83916 -3.12 -0.98 5000019.3986
13.6044 -3.2 -0.98 5000015.674
13.6044 -3.22 -0.98 5000015.674
13.979940000000001 -3.62 -0.98 5000016.2999
13.979940000000001 -3.64 -0.98 5000016.2999
15.83916 -0.96 -1.0 5000019.3986
15.83916 -0.98 -1.0 5000019.3986
13.25658 -3.22 -1.0 5000015.0943
13.979940000000001 -3.62 -1.0 5000016.2999
13.979940000000001 -3.64 -1.0 5000016.2999
13.979940000000001 -3.74 -1.0 5000016.2999
13.979940000000001 -3.76 -1.0 5000016.2999
10.316220000000001 -6.38 -1.0 5000010.1937
15.83916 -1.0 -1.02 5000019.3986
15.3111 -1.02 -1.02 5000018.5185
14.386740000000001 -3.64 -1.02 5000016.9779
13.979940000000001 -3.74 -1.02 5000016.2999
13.979940000000001 -3.76 -1.02 5000016.2999
13.6044 -3.8 -1.02 5000015.674
11.843340000000001 -3.82 -1.02 5000012.7389
10.811580000000001 -5.62 -1.02 5000011.0193
10.811580000000001 -5.64 -1.02 5000011.0193
15.83916 -0.94 -1.04 5000019.3986
15.3111 -1.02 -1.04 5000018.5185
15.3111 -1.04 -1.04 5000018.5185
15.3111 -1.06 -1.04 5000018.5185
14.386740000000001 -3.64 -1.04 5000016.9779
13.979940000000001 -3.74 -1.04 5000016.2999
13.979940000000001 -3.76 -1.04 5000016.2999
13.6044 -3.8 -1.04 5000015.674
11.843340000000001 -3.82 -1.04 5000012.7389
12.63288 -4.42 -1.04 5000014.0548
12.3522 -4.44 -1.04 5000013.587
10.995 -5.54 -1.04 5000011.325
10.811580000000001 -5.64 -1.04 5000011.0193
15.3111 -1.04 -1.06 5000018.5185
15.3111 -1.06 -1.06 5000018.5185
14.82888 -1.08 -1.06 5000017.7148
13.979940000000001 -3.7 -1.06 5000016.2999
13.979940000000001 -3.72 -1.06 5000016.2999
13.979940000000001 -3.74 -1.06 5000016.2999
13.979940000000001 -3.76 -1.06 5000016.2999
12.3522 -4.44 -1.06 5000013.587
11.394240000000002 -4.54 -1.06 5000011.9904
11.394240000000002 -4.56 -1.06 5000011.9904
12.63288 -5.36 -1.06 5000014.0548
11.843340000000001 -5.42 -1.06 5000012.7389
11.843340000000001 -5.44 -1.06 5000012.7389
11.61198 -5.46 -1.06 5000012.3533
11.394240000000002 -5.48 -1.06 5000011.9904
11.18892 -5.5 -1.06 5000011.6482
11.18892 -5.54 -1.06 5000011.6482
10.472879999999998 -6.06 -1.06 5000010.4548
10.472879999999998 -6.08 -1.06 5000010.4548
10.472879999999998 -6.1 -1.06 5000010.4548
13.979940000000001 -3.72 -1.08 5000016.2999
13.979940000000001 -3.74 -1.08 5000016.2999
12.933599999999998 -4.2 -1.08 5000014.556
12.933599999999998 -4.22 -1.08 5000014.556
12.63288 -4.38 -1.08 5000014.0548
11.18892 -5.5 -1.08 5000011.6482
11.18892 -5.54 -1.08 5000011.6482
10.995 -5.6 -1.08 5000011.325
10.811580000000001 -5.64 -1.08 5000011.0193
10.472879999999998 -6.08 -1.08 5000010.4548
10.472879999999998 -6.1 -1.08 5000010.4548
10.637759999999998 -6.3 -1.08 5000010.7296
10.472879999999998 -6.32 -1.08 5000010.4548
10.472879999999998 -6.34 -1.08 5000010.4548
10.472879999999998 -6.36 -1.08 5000010.4548
12.933599999999998 -4.2 -1.1 5000014.556
12.933599999999998 -4.22 -1.1 5000014.556
12.63288 -4.36 -1.1 5000014.0548
12.63288 -4.38 -1.1 5000014.0548
12.3522 -4.46 -1.1 5000013.587
10.995 -5.58 -1.1 5000011.325
10.995 -5.6 -1.1 5000011.325
10.472879999999998 -5.66 -1.1 5000010.4548
10.16718 -5.72 -1.1 5000009.9453
10.637759999999998 -6.3 -1.1 5000010.7296
10.472879999999998 -6.32 -1.1 5000010.4548
10.472879999999998 -6.34 -1.1 5000010.4548
10.316220000000001 -6.36 -1.1 5000010.1937
10.316220000000001 -6.38 -1.1 5000010.1937
13.979940000000001 -3.7 -1.12 5000016.2999
11.18892 -5.4 -1.12 5000011.6482
11.18892 -5.42 -1.12 5000011.6482
10.995 -5.58 -1.12 5000011.325
10.995 -5.6 -1.12 5000011.325
10.472879999999998 -5.66 -1.12 5000010.4548
10.472879999999998 -6.32 -1.12 5000010.4548
10.472879999999998 -6.34 -1.12 5000010.4548
10.316220000000001 -6.36 -1.12 5000010.1937
10.316220000000001 -6.38 -1.12 5000010.1937
10.316220000000001 -6.4 -1.12 5000010.1937
12.63288 -4.3 -1.14 5000014.0548
12.63288 -4.34 -1.14 5000014.0548
11.18892 -5.4 -1.14 5000011.6482
11.18892 -5.42 -1.14 5000011.6482
11.61198 -5.48 -1.14 5000012.3533
11.394240000000002 -5.5 -1.14 5000011.9904
11.394240000000002 -5.52 -1.14 5000011.9904
11.18892 -5.54 -1.14 5000011.6482
10.995 -5.58 -1.14 5000011.325
10.995 -5.6 -1.14 5000011.325
10.472879999999998 -5.66 -1.14 5000010.4548
10.472879999999998 -6.34 -1.14 5000010.4548
