VERSION .7
FIELDS x y z rgb
SIZE 4 4 4 4
TYPE F F F F
COUNT 1 1 1 1
WIDTH 1453
HEIGHT 1
VIEWPOINT 0 0 0 1 0 0 0
POINTS 1453
DATA ascii
38.9826 -3.74 1.48 5000057.971
28.590239999999998 -4.94 1.48 5000040.6504
24.53898 -5.6 1.48 5000033.8983
31.28802 5.12 1.46 5000045.1467
34.65684 3.46 1.46 5000050.7614
64.806 2.88 1.46 5000101.01
44.74056 0.1 1.46 5000067.5676
38.9826 -0.34 1.46 5000057.971
38.9826 -0.36 1.46 5000057.971
12.933599999999998 -0.58 1.46 5000014.556
12.933599999999998 -0.6 1.46 5000014.556
38.9826 -0.76 1.46 5000057.971
38.9826 -0.78 1.46 5000057.971
9.637241999999999 -0.88 1.46 5000009.06207
44.74056 -1.34 1.46 5000067.5676
44.74056 -1.36 1.46 5000067.5676
24.53898 -1.46 1.46 5000033.8983
124.19999999999999 -1.74 1.46 5000200.0
24.53898 -1.94 1.46 5000033.8983
26.38116 -2.16 1.46 5000036.9686
26.38116 -2.18 1.46 5000036.9686
21.64188 -2.84 1.46 5000029.0698
21.64188 -2.86 1.46 5000029.0698
16.419959999999996 -2.98 1.46 5000020.3666
13.25658 -3.12 1.46 5000015.0943
64.806 -3.54 1.46 5000101.01
64.806 -3.56 1.46 5000101.01
24.53898 -5.6 1.46 5000033.8983
31.28802 5.12 1.44 5000045.1467
31.28802 4.76 1.44 5000045.1467
31.28802 4.24 1.44 5000045.1467
64.806 2.88 1.44 5000101.01
38.9826 2.36 1.44 5000057.971
38.9826 2.34 1.44 5000057.971
44.74056 -0.24 1.44 5000067.5676
12.933599999999998 -0.6 1.44 5000014.556
38.9826 -0.78 1.44 5000057.971
9.637241999999999 -0.88 1.44 5000009.06207
44.74056 -1.34 1.44 5000067.5676
124.19999999999999 -1.74 1.44 5000200.0
24.53898 -1.92 1.44 5000033.8983
26.38116 -2.16 1.44 5000036.9686
26.38116 -2.18 1.44 5000036.9686
26.38116 -2.2 1.44 5000036.9686
17.77464 -2.72 1.44 5000022.6244
17.77464 -2.74 1.44 5000022.6244
21.64188 -2.86 1.44 5000029.0698
16.419959999999996 -2.98 1.44 5000020.3666
64.806 -3.54 1.44 5000101.01
64.806 -3.56 1.44 5000101.01
28.590239999999998 -4.76 1.44 5000040.6504
28.590239999999998 -4.78 1.44 5000040.6504
28.590239999999998 -4.8 1.44 5000040.6504
24.53898 -5.36 1.44 5000033.8983
31.28802 4.26 1.42 5000045.1467
31.28802 4.24 1.42 5000045.1467
31.28802 3.54 1.42 5000045.1467
64.806 2.88 1.42 5000101.01
38.9826 2.5 1.42 5000057.971
38.9826 2.34 1.42 5000057.971
52.78302 1.92 1.42 5000080.9717
44.74056 -0.24 1.42 5000067.5676
9.637241999999999 -0.88 1.42 5000009.06207
44.74056 -1.34 1.42 5000067.5676
38.9826 -1.4 1.42 5000057.971
26.38116 -2.2 1.42 5000036.9686
17.77464 -2.7 1.42 5000022.6244
17.77464 -2.72 1.42 5000022.6244
21.64188 -3.46 1.42 5000029.0698
64.806 -3.54 1.42 5000101.01
64.806 -3.56 1.42 5000101.01
64.806 -3.58 1.42 5000101.01
28.590239999999998 -4.76 1.42 5000040.6504
28.590239999999998 -4.78 1.42 5000040.6504
28.590239999999998 -4.8 1.42 5000040.6504
24.53898 -5.36 1.42 5000033.8983
38.9826 2.48 1.4 5000057.971
38.9826 2.34 1.4 5000057.971
52.78302 1.96 1.4 5000080.9717
52.78302 1.94 1.4 5000080.9717
44.74056 -0.24 1.4 5000067.5676
44.74056 -0.26 1.4 5000067.5676
44.74056 -1.0 1.4 5000067.5676
44.74056 -1.32 1.4 5000067.5676
44.74056 -1.34 1.4 5000067.5676
124.19999999999999 -1.74 1.4 5000200.0
24.53898 -1.9 1.4 5000033.8983
26.38116 -2.2 1.4 5000036.9686
28.590239999999998 -2.54 1.4 5000040.6504
18.57126 -2.68 1.4 5000023.9521
17.77464 -2.7 1.4 5000022.6244
21.64188 -3.46 1.4 5000029.0698
84.7368 -3.52 1.4 5000134.228
64.806 -3.54 1.4 5000101.01
64.806 -3.56 1.4 5000101.01
64.806 -3.58 1.4 5000101.01
16.419959999999996 -4.12 1.4 5000020.3666
16.419959999999996 -4.14 1.4 5000020.3666
16.419959999999996 -4.16 1.4 5000020.3666
28.590239999999998 -4.76 1.4 5000040.6504
28.590239999999998 -4.78 1.4 5000040.6504
24.53898 -5.36 1.4 5000033.8983
24.53898 -5.64 1.4 5000033.8983
24.53898 -5.66 1.4 5000033.8983
31.28802 3.54 1.38 5000045.1467
31.28802 3.52 1.38 5000045.1467
64.806 2.92 1.38 5000101.01
38.9826 2.48 1.38 5000057.971
44.74056 2.34 1.38 5000067.5676
52.78302 1.96 1.38 5000080.9717
44.74056 0.04 1.38 5000067.5676
44.74056 0.02 1.38 5000067.5676
44.74056 -0.26 1.38 5000067.5676
44.74056 -0.28 1.38 5000067.5676
28.590239999999998 -0.34 1.38 5000040.6504
21.64188 -0.4 1.38 5000029.0698
44.74056 -1.0 1.38 5000067.5676
52.78302 -1.3 1.38 5000080.9717
44.74056 -1.32 1.38 5000067.5676
124.19999999999999 -1.72 1.38 5000200.0
124.19999999999999 -1.74 1.38 5000200.0
21.64188 -1.96 1.38 5000029.0698
28.590239999999998 -2.54 1.38 5000040.6504
28.590239999999998 -2.56 1.38 5000040.6504
19.467180000000003 -2.66 1.38 5000025.4453
18.57126 -2.68 1.38 5000023.9521
18.57126 -2.9 1.38 5000023.9521
21.64188 -3.44 1.38 5000029.0698
64.806 -3.54 1.38 5000101.01
64.806 -3.56 1.38 5000101.01
64.806 -3.58 1.38 5000101.01
16.419959999999996 -4.18 1.38 5000020.3666
24.53898 -5.36 1.38 5000033.8983
34.65684 4.74 1.36 5000050.7614
31.28802 4.36 1.36 5000045.1467
34.65684 3.54 1.36 5000050.7614
64.806 2.8 1.36 5000101.01
38.9826 2.48 1.36 5000057.971
52.78302 1.96 1.36 5000080.9717
44.74056 0.02 1.36 5000067.5676
44.74056 -0.26 1.36 5000067.5676
44.74056 -0.28 1.36 5000067.5676
28.590239999999998 -0.34 1.36 5000040.6504
21.64188 -0.4 1.36 5000029.0698
44.74056 -0.74 1.36 5000067.5676
44.74056 -0.98 1.36 5000067.5676
52.78302 -1.26 1.36 5000080.9717
124.19999999999999 -1.72 1.36 5000200.0
84.7368 -1.78 1.36 5000134.228
22.97934 -1.94 1.36 5000031.2989
28.590239999999998 -2.52 1.36 5000040.6504
28.590239999999998 -2.54 1.36 5000040.6504
64.806 -2.64 1.36 5000101.01
52.78302 -2.66 1.36 5000080.9717
18.57126 -2.88 1.36 5000023.9521
21.64188 -3.44 1.36 5000029.0698
84.7368 -3.52 1.36 5000134.228
84.7368 -3.54 1.36 5000134.228
84.7368 -3.56 1.36 5000134.228
24.53898 -5.34 1.36 5000033.8983
24.53898 -5.36 1.36 5000033.8983
31.28802 5.18 1.34 5000045.1467
31.28802 5.0 1.34 5000045.1467
31.28802 4.98 1.34 5000045.1467
31.28802 4.38 1.34 5000045.1467
34.65684 3.54 1.34 5000050.7614
34.65684 3.52 1.34 5000050.7614
38.9826 2.5 1.34 5000057.971
38.9826 2.48 1.34 5000057.971
44.74056 2.34 1.34 5000067.5676
52.78302 1.96 1.34 5000080.9717
52.78302 1.88 1.34 5000080.9717
44.74056 0.02 1.34 5000067.5676
44.74056 0.0 1.34 5000067.5676
44.74056 -0.26 1.34 5000067.5676
44.74056 -0.28 1.34 5000067.5676
28.590239999999998 -0.34 1.34 5000040.6504
21.64188 -0.42 1.34 5000029.0698
44.74056 -0.72 1.34 5000067.5676
9.889902000000001 -0.88 1.34 5000009.48317
124.19999999999999 -1.76 1.34 5000200.0
21.64188 -1.98 1.34 5000029.0698
34.65684 -2.1 1.34 5000050.7614
31.28802 -2.12 1.34 5000045.1467
24.53898 -2.16 1.34 5000033.8983
24.53898 -2.18 1.34 5000033.8983
28.590239999999998 -2.52 1.34 5000040.6504
64.806 -2.62 1.34 5000101.01
64.806 -2.64 1.34 5000101.01
21.64188 -3.44 1.34 5000029.0698
17.06172 -4.16 1.34 5000021.4362
34.65684 -4.58 1.34 5000050.7614
34.65684 -4.6 1.34 5000050.7614
31.28802 5.4 1.32 5000045.1467
31.28802 5.18 1.32 5000045.1467
31.28802 5.0 1.32 5000045.1467
31.28802 4.98 1.32 5000045.1467
31.28802 4.72 1.32 5000045.1467
31.28802 4.04 1.32 5000045.1467
34.65684 3.54 1.32 5000050.7614
34.65684 3.52 1.32 5000050.7614
44.74056 2.5 1.32 5000067.5676
44.74056 2.48 1.32 5000067.5676
44.74056 2.36 1.32 5000067.5676
52.78302 1.88 1.32 5000080.9717
52.78302 1.38 1.32 5000080.9717
64.806 1.32 1.32 5000101.01
44.74056 -0.28 1.32 5000067.5676
28.590239999999998 -0.36 1.32 5000040.6504
21.64188 -0.42 1.32 5000029.0698
44.74056 -1.22 1.32 5000067.5676
38.9826 -1.68 1.32 5000057.971
38.9826 -1.7 1.32 5000057.971
84.7368 -1.76 1.32 5000134.228
24.53898 -2.18 1.32 5000033.8983
24.53898 -2.2 1.32 5000033.8983
84.7368 -2.6 1.32 5000134.228
64.806 -2.62 1.32 5000101.01
21.64188 -3.44 1.32 5000029.0698
31.28802 4.98 1.3 5000045.1467
31.28802 4.72 1.3 5000045.1467
34.65684 3.54 1.3 5000050.7614
34.65684 3.52 1.3 5000050.7614
44.74056 2.5 1.3 5000067.5676
44.74056 2.48 1.3 5000067.5676
52.78302 1.88 1.3 5000080.9717
52.78302 1.38 1.3 5000080.9717
64.806 1.32 1.3 5000101.01
52.78302 1.22 1.3 5000080.9717
44.74056 -0.28 1.3 5000067.5676
44.74056 -1.22 1.3 5000067.5676
38.9826 -1.68 1.3 5000057.971
38.9826 -1.7 1.3 5000057.971
26.38116 -2.18 1.3 5000036.9686
26.38116 -2.2 1.3 5000036.9686
124.19999999999999 -2.56 1.3 5000200.0
84.7368 -2.58 1.3 5000134.228
17.06172 -4.04 1.3 5000021.4362
17.06172 -4.06 1.3 5000021.4362
20.4822 -6.74 1.3 5000027.137
31.28802 5.38 1.28 5000045.1467
31.28802 5.18 1.28 5000045.1467
31.28802 4.4 1.28 5000045.1467
31.28802 4.06 1.28 5000045.1467
34.65684 3.56 1.28 5000050.7614
64.806 2.84 1.28 5000101.01
44.74056 2.5 1.28 5000067.5676
44.74056 2.48 1.28 5000067.5676
52.78302 1.88 1.28 5000080.9717
52.78302 1.38 1.28 5000080.9717
52.78302 1.36 1.28 5000080.9717
124.19999999999999 0.06 1.28 5000200.0
44.74056 -0.28 1.28 5000067.5676
44.74056 -0.5 1.28 5000067.5676
9.760704 -0.9 1.28 5000009.26784
84.7368 -1.62 1.28 5000134.228
38.9826 -1.68 1.28 5000057.971
38.9826 -1.7 1.28 5000057.971
38.9826 -1.72 1.28 5000057.971
64.806 -1.94 1.28 5000101.01
124.19999999999999 -2.52 1.28 5000200.0
124.19999999999999 -2.54 1.28 5000200.0
20.4822 -6.74 1.28 5000027.137
31.28802 5.16 1.26 5000045.1467
34.65684 3.56 1.26 5000050.7614
34.65684 3.54 1.26 5000050.7614
64.806 2.86 1.26 5000101.01
64.806 2.8 1.26 5000101.01
44.74056 2.5 1.26 5000067.5676
44.74056 2.48 1.26 5000067.5676
44.74056 2.38 1.26 5000067.5676
44.74056 2.36 1.26 5000067.5676
52.78302 1.94 1.26 5000080.9717
52.78302 1.36 1.26 5000080.9717
124.19999999999999 0.06 1.26 5000200.0
52.78302 -0.28 1.26 5000080.9717
28.590239999999998 -0.36 1.26 5000040.6504
9.760704 -0.9 1.26 5000009.26784
44.74056 -1.08 1.26 5000067.5676
28.590239999999998 -1.16 1.26 5000040.6504
28.590239999999998 -2.16 1.26 5000040.6504
28.590239999999998 -2.18 1.26 5000040.6504
21.64188 -3.0 1.26 5000029.0698
20.4822 -6.74 1.26 5000027.137
31.28802 4.24 1.24 5000045.1467
34.65684 3.56 1.24 5000050.7614
64.806 2.86 1.24 5000101.01
84.7368 2.62 1.24 5000134.228
84.7368 2.6 1.24 5000134.228
44.74056 2.48 1.24 5000067.5676
44.74056 2.36 1.24 5000067.5676
52.78302 1.94 1.24 5000080.9717
52.78302 1.36 1.24 5000080.9717
52.78302 1.18 1.24 5000080.9717
52.78302 -0.28 1.24 5000080.9717
28.590239999999998 -0.36 1.24 5000040.6504
14.386740000000001 -0.58 1.24 5000016.9779
44.74056 -1.08 1.24 5000067.5676
44.74056 -1.1 1.24 5000067.5676
17.06172 -4.24 1.24 5000021.4362
17.06172 -4.26 1.24 5000021.4362
20.4822 -6.74 1.24 5000027.137
31.28802 4.98 1.22 5000045.1467
34.65684 4.18 1.22 5000050.7614
84.7368 2.62 1.22 5000134.228
84.7368 2.6 1.22 5000134.228
38.9826 2.1 1.22 5000057.971
52.78302 1.94 1.22 5000080.9717
52.78302 1.92 1.22 5000080.9717
52.78302 1.36 1.22 5000080.9717
52.78302 1.18 1.22 5000080.9717
52.78302 -0.28 1.22 5000080.9717
52.78302 -0.3 1.22 5000080.9717
17.06172 -0.5 1.22 5000021.4362
14.386740000000001 -0.58 1.22 5000016.9779
44.74056 -1.08 1.22 5000067.5676
124.19999999999999 -1.7 1.22 5000200.0
21.64188 -2.98 1.22 5000029.0698
20.4822 -6.74 1.22 5000027.137
31.28802 5.34 1.2 5000045.1467
31.28802 4.64 1.2 5000045.1467
34.65684 4.18 1.2 5000050.7614
34.65684 3.54 1.2 5000050.7614
52.78302 1.92 1.2 5000080.9717
52.78302 1.2 1.2 5000080.9717
52.78302 1.18 1.2 5000080.9717
44.74056 -0.04 1.2 5000067.5676
52.78302 -0.28 1.2 5000080.9717
52.78302 -0.3 1.2 5000080.9717
17.06172 -0.5 1.2 5000021.4362
14.386740000000001 -0.58 1.2 5000016.9779
9.889902000000001 -0.9 1.2 5000009.48317
44.74056 -1.08 1.2 5000067.5676
44.74056 -1.36 1.2 5000067.5676
38.9826 -2.1 1.2 5000057.971
20.4822 -6.6 1.2 5000027.137
20.4822 -6.74 1.2 5000027.137
31.28802 5.34 1.18 5000045.1467
31.28802 5.24 1.18 5000045.1467
31.28802 5.12 1.18 5000045.1467
34.65684 3.56 1.18 5000050.7614
44.74056 2.32 1.18 5000067.5676
52.78302 1.92 1.18 5000080.9717
52.78302 1.9 1.18 5000080.9717
52.78302 1.2 1.18 5000080.9717
52.78302 1.18 1.18 5000080.9717
44.74056 -0.04 1.18 5000067.5676
44.74056 -0.06 1.18 5000067.5676
38.9826 -0.1 1.18 5000057.971
124.19999999999999 -0.24 1.18 5000200.0
44.74056 -0.3 1.18 5000067.5676
9.889902000000001 -0.9 1.18 5000009.48317
44.74056 -1.32 1.18 5000067.5676
20.4822 -1.96 1.18 5000027.137
20.4822 -2.0 1.18 5000027.137
16.419959999999996 -4.52 1.18 5000020.3666
21.64188 -6.36 1.18 5000029.0698
21.64188 -6.38 1.18 5000029.0698
20.4822 -6.58 1.18 5000027.137
20.4822 -6.6 1.18 5000027.137
20.4822 -6.74 1.18 5000027.137
31.28802 5.12 1.16 5000045.1467
34.65684 3.56 1.16 5000050.7614
64.806 2.52 1.16 5000101.01
44.74056 2.32 1.16 5000067.5676
52.78302 1.92 1.16 5000080.9717
52.78302 1.9 1.16 5000080.9717
52.78302 1.4 1.16 5000080.9717
38.9826 -0.06 1.16 5000057.971
26.38116 -0.38 1.16 5000036.9686
26.38116 -0.4 1.16 5000036.9686
9.889902000000001 -0.9 1.16 5000009.48317
44.74056 -1.3 1.16 5000067.5676
44.74056 -1.32 1.16 5000067.5676
22.97934 -2.26 1.16 5000031.2989
21.64188 -3.16 1.16 5000029.0698
16.419959999999996 -4.52 1.16 5000020.3666
21.64188 -6.36 1.16 5000029.0698
21.64188 -6.38 1.16 5000029.0698
20.4822 -6.58 1.16 5000027.137
20.4822 -6.6 1.16 5000027.137
22.97934 -6.68 1.16 5000031.2989
20.4822 -6.74 1.16 5000027.137
31.28802 4.44 1.14 5000045.1467
34.65684 3.54 1.14 5000050.7614
84.7368 2.82 1.14 5000134.228
84.7368 2.56 1.14 5000134.228
84.7368 2.52 1.14 5000134.228
52.78302 2.5 1.14 5000080.9717
44.74056 2.32 1.14 5000067.5676
52.78302 1.92 1.14 5000080.9717
52.78302 1.9 1.14 5000080.9717
44.74056 1.66 1.14 5000067.5676
52.78302 1.4 1.14 5000080.9717
52.78302 1.18 1.14 5000080.9717
38.9826 -0.08 1.14 5000057.971
44.74056 -0.18 1.14 5000067.5676
124.19999999999999 -0.24 1.14 5000200.0
52.78302 -0.3 1.14 5000080.9717
44.74056 -0.32 1.14 5000067.5676
26.38116 -0.38 1.14 5000036.9686
26.38116 -0.4 1.14 5000036.9686
19.467180000000003 -0.5 1.14 5000025.4453
34.65684 -1.04 1.14 5000050.7614
44.74056 -1.3 1.14 5000067.5676
38.9826 -1.7 1.14 5000057.971
20.4822 -1.96 1.14 5000027.137
20.4822 -1.98 1.14 5000027.137
28.590239999999998 -2.18 1.14 5000040.6504
28.590239999999998 -2.2 1.14 5000040.6504
22.97934 -2.26 1.14 5000031.2989
16.419959999999996 -4.52 1.14 5000020.3666
28.590239999999998 -4.84 1.14 5000040.6504
21.64188 -6.36 1.14 5000029.0698
21.64188 -6.38 1.14 5000029.0698
34.65684 4.22 1.12 5000050.7614
84.7368 3.6 1.12 5000134.228
34.65684 3.54 1.12 5000050.7614
34.65684 3.52 1.12 5000050.7614
84.7368 2.82 1.12 5000134.228
64.806 2.74 1.12 5000101.01
84.7368 2.56 1.12 5000134.228
38.9826 2.06 1.12 5000057.971
52.78302 1.92 1.12 5000080.9717
52.78302 1.9 1.12 5000080.9717
44.74056 1.66 1.12 5000067.5676
52.78302 1.4 1.12 5000080.9717
52.78302 1.38 1.12 5000080.9717
52.78302 1.18 1.12 5000080.9717
44.74056 -0.08 1.12 5000067.5676
44.74056 -0.1 1.12 5000067.5676
124.19999999999999 -0.24 1.12 5000200.0
52.78302 -0.3 1.12 5000080.9717
44.74056 -0.32 1.12 5000067.5676
26.38116 -0.4 1.12 5000036.9686
19.467180000000003 -0.48 1.12 5000025.4453
52.78302 -0.54 1.12 5000080.9717
34.65684 -1.0 1.12 5000050.7614
14.386740000000001 -1.2 1.12 5000016.9779
124.19999999999999 -1.6 1.12 5000200.0
38.9826 -1.7 1.12 5000057.971
64.806 -1.96 1.12 5000101.01
31.28802 -2.18 1.12 5000045.1467
31.28802 -2.2 1.12 5000045.1467
21.64188 -6.26 1.12 5000029.0698
21.64188 -6.38 1.12 5000029.0698
34.65684 4.22 1.1 5000050.7614
84.7368 3.6 1.1 5000134.228
64.806 2.74 1.1 5000101.01
84.7368 2.56 1.1 5000134.228
38.9826 2.06 1.1 5000057.971
52.78302 1.9 1.1 5000080.9717
44.74056 1.66 1.1 5000067.5676
52.78302 1.4 1.1 5000080.9717
52.78302 1.38 1.1 5000080.9717
38.9826 -0.08 1.1 5000057.971
124.19999999999999 -0.2 1.1 5000200.0
124.19999999999999 -0.26 1.1 5000200.0
52.78302 -0.3 1.1 5000080.9717
44.74056 -0.32 1.1 5000067.5676
19.467180000000003 -0.48 1.1 5000025.4453
34.65684 -1.0 1.1 5000050.7614
14.386740000000001 -1.2 1.1 5000016.9779
44.74056 -1.4 1.1 5000067.5676
38.9826 -1.68 1.1 5000057.971
38.9826 -1.7 1.1 5000057.971
84.7368 -1.92 1.1 5000134.228
64.806 -1.94 1.1 5000101.01
31.28802 -2.18 1.1 5000045.1467
31.28802 -2.2 1.1 5000045.1467
31.28802 -2.22 1.1 5000045.1467
16.419959999999996 -4.52 1.1 5000020.3666
21.64188 -6.26 1.1 5000029.0698
21.64188 -6.5 1.1 5000029.0698
31.28802 4.84 1.08 5000045.1467
64.806 2.74 1.08 5000101.01
84.7368 2.58 1.08 5000134.228
52.78302 1.9 1.08 5000080.9717
44.74056 -0.08 1.08 5000067.5676
44.74056 -0.32 1.08 5000067.5676
26.38116 -0.4 1.08 5000036.9686
52.78302 -0.88 1.08 5000080.9717
14.386740000000001 -1.2 1.08 5000016.9779
38.9826 -1.68 1.08 5000057.971
38.9826 -1.7 1.08 5000057.971
84.7368 -1.92 1.08 5000134.228
31.28802 -2.18 1.08 5000045.1467
21.64188 -3.02 1.08 5000029.0698
21.64188 -3.04 1.08 5000029.0698
22.97934 -6.04 1.08 5000031.2989
22.97934 -6.06 1.08 5000031.2989
21.64188 -6.26 1.08 5000029.0698
21.64188 -6.38 1.08 5000029.0698
21.64188 -6.4 1.08 5000029.0698
21.64188 -6.42 1.08 5000029.0698
31.28802 4.84 1.06 5000045.1467
34.65684 4.38 1.06 5000050.7614
84.7368 3.58 1.06 5000134.228
64.806 2.76 1.06 5000101.01
44.74056 2.54 1.06 5000067.5676
52.78302 1.9 1.06 5000080.9717
44.74056 -0.1 1.06 5000067.5676
44.74056 -0.32 1.06 5000067.5676
44.74056 -0.34 1.06 5000067.5676
26.38116 -0.4 1.06 5000036.9686
44.74056 -1.68 1.06 5000067.5676
44.74056 -1.7 1.06 5000067.5676
84.7368 -1.9 1.06 5000134.228
34.65684 -2.16 1.06 5000050.7614
34.65684 -2.18 1.06 5000050.7614
21.64188 -6.04 1.06 5000029.0698
21.64188 -6.06 1.06 5000029.0698
21.64188 -6.24 1.06 5000029.0698
21.64188 -6.26 1.06 5000029.0698
21.64188 -6.36 1.06 5000029.0698
21.64188 -6.38 1.06 5000029.0698
21.64188 -6.4 1.06 5000029.0698
124.19999999999999 -6.74 1.06 5000200.0
31.28802 5.3 1.04 5000045.1467
31.28802 4.86 1.04 5000045.1467
34.65684 4.38 1.04 5000050.7614
34.65684 3.92 1.04 5000050.7614
64.806 2.76 1.04 5000101.01
44.74056 2.52 1.04 5000067.5676
52.78302 1.9 1.04 5000080.9717
52.78302 1.34 1.04 5000080.9717
64.806 1.18 1.04 5000101.01
44.74056 -0.1 1.04 5000067.5676
38.9826 -0.14 1.04 5000057.971
44.74056 -0.32 1.04 5000067.5676
44.74056 -0.34 1.04 5000067.5676
26.38116 -0.42 1.04 5000036.9686
52.78302 -0.54 1.04 5000080.9717
9.760704 -0.72 1.04 5000009.26784
9.093966 -1.06 1.04 5000008.15661
52.78302 -1.18 1.04 5000080.9717
44.74056 -1.68 1.04 5000067.5676
44.74056 -1.7 1.04 5000067.5676
21.64188 -6.04 1.04 5000029.0698
21.64188 -6.06 1.04 5000029.0698
31.28802 4.16 1.02 5000045.1467
34.65684 3.92 1.02 5000050.7614
84.7368 3.6 1.02 5000134.228
84.7368 3.58 1.02 5000134.228
64.806 2.76 1.02 5000101.01
84.7368 2.62 1.02 5000134.228
44.74056 2.52 1.02 5000067.5676
52.78302 1.9 1.02 5000080.9717
52.78302 1.88 1.02 5000080.9717
64.806 1.2 1.02 5000101.01
64.806 1.18 1.02 5000101.01
21.64188 -0.24 1.02 5000029.0698
44.74056 -0.34 1.02 5000067.5676
28.590239999999998 -0.42 1.02 5000040.6504
44.74056 -0.9 1.02 5000067.5676
26.38116 -0.98 1.02 5000036.9686
52.78302 -1.18 1.02 5000080.9717
44.74056 -1.68 1.02 5000067.5676
44.74056 -1.7 1.02 5000067.5676
64.806 -1.96 1.02 5000101.01
52.78302 -2.1 1.02 5000080.9717
28.590239999999998 -2.68 1.02 5000040.6504
22.97934 -3.0 1.02 5000031.2989
22.97934 -3.02 1.02 5000031.2989
22.97934 -5.94 1.02 5000031.2989
21.64188 -6.06 1.02 5000029.0698
31.28802 4.86 1.0 5000045.1467
31.28802 4.44 1.0 5000045.1467
31.28802 4.18 1.0 5000045.1467
31.28802 4.16 1.0 5000045.1467
34.65684 3.96 1.0 5000050.7614
64.806 3.66 1.0 5000101.01
84.7368 3.58 1.0 5000134.228
124.19999999999999 2.64 1.0 5000200.0
38.9826 2.08 1.0 5000057.971
52.78302 1.9 1.0 5000080.9717
52.78302 1.38 1.0 5000080.9717
64.806 1.2 1.0 5000101.01
44.74056 -0.34 1.0 5000067.5676
44.74056 -0.36 1.0 5000067.5676
28.590239999999998 -0.42 1.0 5000040.6504
44.74056 -0.88 1.0 5000067.5676
44.74056 -0.9 1.0 5000067.5676
52.78302 -1.16 1.0 5000080.9717
52.78302 -1.18 1.0 5000080.9717
44.74056 -1.68 1.0 5000067.5676
44.74056 -1.72 1.0 5000067.5676
64.806 -2.08 1.0 5000101.01
16.419959999999996 -4.54 1.0 5000020.3666
22.97934 -5.76 1.0 5000031.2989
22.97934 -5.94 1.0 5000031.2989
22.97934 -5.96 1.0 5000031.2989
31.28802 4.92 0.98 5000045.1467
31.28802 4.44 0.98 5000045.1467
34.65684 3.96 0.98 5000050.7614
64.806 3.66 0.98 5000101.01
64.806 3.64 0.98 5000101.01
124.19999999999999 2.64 0.98 5000200.0
84.7368 2.54 0.98 5000134.228
38.9826 2.08 0.98 5000057.971
52.78302 1.9 0.98 5000080.9717
52.78302 1.38 0.98 5000080.9717
64.806 1.2 0.98 5000101.01
52.78302 0.3 0.98 5000080.9717
44.74056 -0.34 0.98 5000067.5676
44.74056 -0.36 0.98 5000067.5676
28.590239999999998 -0.42 0.98 5000040.6504
19.467180000000003 -0.52 0.98 5000025.4453
15.83916 -0.62 0.98 5000019.3986
44.74056 -0.86 0.98 5000067.5676
38.9826 -0.92 0.98 5000057.971
52.78302 -1.12 0.98 5000080.9717
52.78302 -1.14 0.98 5000080.9717
44.74056 -1.68 0.98 5000067.5676
44.74056 -1.7 0.98 5000067.5676
44.74056 -1.72 0.98 5000067.5676
84.7368 -2.04 0.98 5000134.228
84.7368 -2.06 0.98 5000134.228
16.419959999999996 -4.54 0.98 5000020.3666
22.97934 -5.76 0.98 5000031.2989
22.97934 -5.94 0.98 5000031.2989
22.97934 -5.96 0.98 5000031.2989
22.97934 -6.04 0.98 5000031.2989
22.97934 -6.06 0.98 5000031.2989
20.4822 -6.6 0.98 5000027.137
20.4822 -6.62 0.98 5000027.137
20.4822 -6.64 0.98 5000027.137
34.65684 3.96 0.96 5000050.7614
84.7368 2.7 0.96 5000134.228
84.7368 2.64 0.96 5000134.228
38.9826 2.08 0.96 5000057.971
52.78302 1.9 0.96 5000080.9717
64.806 1.38 0.96 5000101.01
52.78302 0.32 0.96 5000080.9717
44.74056 -0.14 0.96 5000067.5676
44.74056 -0.36 0.96 5000067.5676
31.28802 -0.42 0.96 5000045.1467
17.06172 -0.58 0.96 5000021.4362
17.06172 -0.62 0.96 5000021.4362
12.933599999999998 -0.72 0.96 5000014.556
52.78302 -0.82 0.96 5000080.9717
52.78302 -0.84 0.96 5000080.9717
38.9826 -0.92 0.96 5000057.971
21.64188 -1.04 0.96 5000029.0698
52.78302 -1.12 0.96 5000080.9717
84.7368 -2.02 0.96 5000134.228
84.7368 -2.04 0.96 5000134.228
17.06172 -4.54 0.96 5000021.4362
22.97934 -5.76 0.96 5000031.2989
22.97934 -5.94 0.96 5000031.2989
22.97934 -6.02 0.96 5000031.2989
22.97934 -6.04 0.96 5000031.2989
22.97934 -6.06 0.96 5000031.2989
20.4822 -6.6 0.96 5000027.137
20.4822 -6.62 0.96 5000027.137
20.4822 -6.64 0.96 5000027.137
31.28802 4.54 0.94 5000045.1467
31.28802 4.22 0.94 5000045.1467
34.65684 3.98 0.94 5000050.7614
34.65684 3.96 0.94 5000050.7614
84.7368 3.58 0.94 5000134.228
84.7368 2.7 0.94 5000134.228
52.78302 1.88 0.94 5000080.9717
52.78302 1.2 0.94 5000080.9717
52.78302 0.54 0.94 5000080.9717
44.74056 0.22 0.94 5000067.5676
44.74056 -0.16 0.94 5000067.5676
44.74056 -0.36 0.94 5000067.5676
44.74056 -0.38 0.94 5000067.5676
17.06172 -0.58 0.94 5000021.4362
17.06172 -0.62 0.94 5000021.4362
52.78302 -0.82 0.94 5000080.9717
52.78302 -0.84 0.94 5000080.9717
10.316220000000001 -0.92 0.94 5000010.1937
21.64188 -1.04 0.94 5000029.0698
124.19999999999999 -1.6 0.94 5000200.0
84.7368 -2.02 0.94 5000134.228
34.65684 -2.12 0.94 5000050.7614
52.78302 -3.8 0.94 5000080.9717
22.97934 -5.76 0.94 5000031.2989
31.28802 4.56 0.92 5000045.1467
34.65684 3.98 0.92 5000050.7614
64.806 3.58 0.92 5000101.01
38.9826 2.18 0.92 5000057.971
52.78302 1.88 0.92 5000080.9717
64.806 1.4 0.92 5000101.01
64.806 1.38 0.92 5000101.01
44.74056 -0.16 0.92 5000067.5676
44.74056 -0.36 0.92 5000067.5676
44.74056 -0.38 0.92 5000067.5676
22.97934 -0.5 0.92 5000031.2989
17.06172 -0.58 0.92 5000021.4362
52.78302 -0.8 0.92 5000080.9717
44.74056 -0.9 0.92 5000067.5676
22.97934 -1.04 0.92 5000031.2989
52.78302 -1.66 0.92 5000080.9717
28.590239999999998 -3.06 0.92 5000040.6504
22.97934 -3.18 0.92 5000031.2989
16.419959999999996 -4.58 0.92 5000020.3666
16.419959999999996 -4.6 0.92 5000020.3666
24.53898 -5.5 0.92 5000033.8983
24.53898 -5.66 0.92 5000033.8983
24.53898 -5.68 0.92 5000033.8983
22.97934 -5.76 0.92 5000031.2989
21.64188 -6.32 0.92 5000029.0698
21.64188 -6.42 0.92 5000029.0698
21.64188 -6.5 0.92 5000029.0698
21.64188 -6.52 0.92 5000029.0698
31.28802 4.56 0.9 5000045.1467
31.28802 4.42 0.9 5000045.1467
34.65684 4.0 0.9 5000050.7614
38.9826 2.18 0.9 5000057.971
52.78302 1.88 0.9 5000080.9717
52.78302 1.86 0.9 5000080.9717
52.78302 1.62 0.9 5000080.9717
64.806 1.4 0.9 5000101.01
64.806 1.38 0.9 5000101.01
52.78302 1.2 0.9 5000080.9717
124.19999999999999 0.7 0.9 5000200.0
44.74056 0.08 0.9 5000067.5676
44.74056 0.06 0.9 5000067.5676
52.78302 -0.38 0.9 5000080.9717
52.78302 -0.9 0.9 5000080.9717
44.74056 -1.02 0.9 5000067.5676
44.74056 -1.04 0.9 5000067.5676
16.419959999999996 -1.14 0.9 5000020.3666
14.82888 -1.2 0.9 5000017.7148
14.82888 -1.22 0.9 5000017.7148
52.78302 -1.66 0.9 5000080.9717
38.9826 -1.7 0.9 5000057.971
22.97934 -3.16 0.9 5000031.2989
16.419959999999996 -4.58 0.9 5000020.3666
16.419959999999996 -4.6 0.9 5000020.3666
16.419959999999996 -4.62 0.9 5000020.3666
24.53898 -5.48 0.9 5000033.8983
24.53898 -5.5 0.9 5000033.8983
24.53898 -5.52 0.9 5000033.8983
24.53898 -5.66 0.9 5000033.8983
24.53898 -5.68 0.9 5000033.8983
22.97934 -5.76 0.9 5000031.2989
21.64188 -6.48 0.9 5000029.0698
21.64188 -6.5 0.9 5000029.0698
21.64188 -6.52 0.9 5000029.0698
64.806 3.64 0.88 5000101.01
64.806 3.62 0.88 5000101.01
84.7368 3.52 0.88 5000134.228
84.7368 2.52 0.88 5000134.228
52.78302 1.86 0.88 5000080.9717
52.78302 1.32 0.88 5000080.9717
64.806 1.2 0.88 5000101.01
124.19999999999999 0.7 0.88 5000200.0
44.74056 0.06 0.88 5000067.5676
44.74056 -0.38 0.88 5000067.5676
44.74056 -0.4 0.88 5000067.5676
17.77464 -0.6 0.88 5000022.6244
52.78302 -0.9 0.88 5000080.9717
44.74056 -1.02 0.88 5000067.5676
44.74056 -1.04 0.88 5000067.5676
14.82888 -1.2 0.88 5000017.7148
64.806 -1.64 0.88 5000101.01
38.9826 -1.7 0.88 5000057.971
34.65684 -1.72 0.88 5000050.7614
31.28802 -1.78 0.88 5000045.1467
44.74056 -2.7 0.88 5000067.5676
16.419959999999996 -4.6 0.88 5000020.3666
16.419959999999996 -4.62 0.88 5000020.3666
24.53898 -5.5 0.88 5000033.8983
24.53898 -5.52 0.88 5000033.8983
22.97934 -5.72 0.88 5000031.2989
22.97934 -5.74 0.88 5000031.2989
22.97934 -5.76 0.88 5000031.2989
22.97934 -6.22 0.88 5000031.2989
21.64188 -6.24 0.88 5000029.0698
21.64188 -6.26 0.88 5000029.0698
21.64188 -6.28 0.88 5000029.0698
21.64188 -6.3 0.88 5000029.0698
21.64188 -6.52 0.88 5000029.0698
31.28802 4.82 0.86 5000045.1467
31.28802 4.7 0.86 5000045.1467
31.28802 4.24 0.86 5000045.1467
64.806 3.62 0.86 5000101.01
84.7368 3.52 0.86 5000134.228
84.7368 3.5 0.86 5000134.228
52.78302 1.86 0.86 5000080.9717
64.806 1.38 0.86 5000101.01
52.78302 1.32 0.86 5000080.9717
52.78302 -0.2 0.86 5000080.9717
44.74056 -0.38 0.86 5000067.5676
28.590239999999998 -0.46 0.86 5000040.6504
52.78302 -0.72 0.86 5000080.9717
52.78302 -0.74 0.86 5000080.9717
44.74056 -1.0 0.86 5000067.5676
44.74056 -1.02 0.86 5000067.5676
124.19999999999999 -1.62 0.86 5000200.0
38.9826 -1.7 0.86 5000057.971
38.9826 -1.72 0.86 5000057.971
28.590239999999998 -2.54 0.86 5000040.6504
21.64188 -2.62 0.86 5000029.0698
21.64188 -2.64 0.86 5000029.0698
38.9826 -3.06 0.86 5000057.971
17.06172 -3.3 0.86 5000021.4362
16.419959999999996 -4.6 0.86 5000020.3666
28.590239999999998 -5.04 0.86 5000040.6504
24.53898 -5.42 0.86 5000033.8983
24.53898 -5.5 0.86 5000033.8983
21.64188 -6.26 0.86 5000029.0698
21.64188 -6.52 0.86 5000029.0698
31.28802 4.7 0.84 5000045.1467
31.28802 4.42 0.84 5000045.1467
38.9826 4.0 0.84 5000057.971
64.806 3.62 0.84 5000101.01
64.806 3.6 0.84 5000101.01
84.7368 3.52 0.84 5000134.228
52.78302 1.86 0.84 5000080.9717
84.7368 0.98 0.84 5000134.228
52.78302 -0.16 0.84 5000080.9717
52.78302 -0.18 0.84 5000080.9717
44.74056 -0.4 0.84 5000067.5676
28.590239999999998 -0.46 0.84 5000040.6504
52.78302 -0.7 0.84 5000080.9717
52.78302 -0.72 0.84 5000080.9717
124.19999999999999 -1.62 0.84 5000200.0
34.65684 -1.72 0.84 5000050.7614
34.65684 -1.74 0.84 5000050.7614
14.386740000000001 -2.12 0.84 5000016.9779
28.590239999999998 -2.52 0.84 5000040.6504
28.590239999999998 -2.54 0.84 5000040.6504
38.9826 -3.04 0.84 5000057.971
38.9826 -3.06 0.84 5000057.971
17.06172 -3.3 0.84 5000021.4362
16.419959999999996 -4.6 0.84 5000020.3666
26.38116 -5.26 0.84 5000036.9686
26.38116 -5.28 0.84 5000036.9686
24.53898 -5.42 0.84 5000033.8983
21.64188 -6.02 0.84 5000029.0698
22.97934 -6.08 0.84 5000031.2989
21.64188 -6.52 0.84 5000029.0698
28.590239999999998 5.26 0.82 5000040.6504
31.28802 4.86 0.82 5000045.1467
31.28802 4.7 0.82 5000045.1467
38.9826 4.0 0.82 5000057.971
64.806 3.62 0.82 5000101.01
64.806 3.6 0.82 5000101.01
52.78302 1.86 0.82 5000080.9717
44.74056 1.58 0.82 5000067.5676
84.7368 0.98 0.82 5000134.228
84.7368 0.96 0.82 5000134.228
44.74056 -0.4 0.82 5000067.5676
28.590239999999998 -0.46 0.82 5000040.6504
52.78302 -0.68 0.82 5000080.9717
52.78302 -0.7 0.82 5000080.9717
52.78302 -0.92 0.82 5000080.9717
28.590239999999998 -1.02 0.82 5000040.6504
20.4822 -1.08 0.82 5000027.137
64.806 -1.18 0.82 5000101.01
34.65684 -1.72 0.82 5000050.7614
14.386740000000001 -2.1 0.82 5000016.9779
38.9826 -3.02 0.82 5000057.971
38.9826 -3.04 0.82 5000057.971
38.9826 -3.06 0.82 5000057.971
84.7368 -4.12 0.82 5000134.228
16.419959999999996 -4.6 0.82 5000020.3666
26.38116 -5.26 0.82 5000036.9686
26.38116 -5.28 0.82 5000036.9686
24.53898 -5.42 0.82 5000033.8983
24.53898 -5.5 0.82 5000033.8983
22.97934 -6.18 0.82 5000031.2989
21.64188 -6.52 0.82 5000029.0698
34.65684 4.06 0.8 5000050.7614
52.78302 1.88 0.8 5000080.9717
52.78302 1.86 0.8 5000080.9717
44.74056 1.58 0.8 5000067.5676
52.78302 1.4 0.8 5000080.9717
84.7368 0.98 0.8 5000134.228
52.78302 -0.06 0.8 5000080.9717
52.78302 -0.08 0.8 5000080.9717
52.78302 -0.1 0.8 5000080.9717
64.806 -0.28 0.8 5000101.01
44.74056 -0.38 0.8 5000067.5676
44.74056 -0.4 0.8 5000067.5676
28.590239999999998 -0.46 0.8 5000040.6504
17.77464 -0.6 0.8 5000022.6244
52.78302 -0.88 0.8 5000080.9717
52.78302 -0.92 0.8 5000080.9717
64.806 -1.16 0.8 5000101.01
124.19999999999999 -1.66 0.8 5000200.0
124.19999999999999 -4.04 0.8 5000200.0
16.419959999999996 -4.58 0.8 5000020.3666
16.419959999999996 -4.6 0.8 5000020.3666
26.38116 -5.26 0.8 5000036.9686
26.38116 -5.28 0.8 5000036.9686
24.53898 -5.5 0.8 5000033.8983
22.97934 -5.92 0.8 5000031.2989
22.97934 -5.94 0.8 5000031.2989
22.97934 -5.96 0.8 5000031.2989
22.97934 -5.98 0.8 5000031.2989
22.97934 -6.18 0.8 5000031.2989
22.97934 -6.2 0.8 5000031.2989
21.64188 -6.52 0.8 5000029.0698
31.28802 4.86 0.78 5000045.1467
34.65684 4.46 0.78 5000050.7614
34.65684 4.06 0.78 5000050.7614
64.806 3.64 0.78 5000101.01
38.9826 2.06 0.78 5000057.971
52.78302 1.88 0.78 5000080.9717
52.78302 1.86 0.78 5000080.9717
52.78302 1.4 0.78 5000080.9717
64.806 1.16 0.78 5000101.01
84.7368 0.98 0.78 5000134.228
84.7368 0.88 0.78 5000134.228
52.78302 -0.08 0.78 5000080.9717
52.78302 -0.1 0.78 5000080.9717
44.74056 -0.2 0.78 5000067.5676
44.74056 -0.38 0.78 5000067.5676
44.74056 -0.4 0.78 5000067.5676
28.590239999999998 -0.46 0.78 5000040.6504
44.74056 -0.58 0.78 5000067.5676
52.78302 -0.88 0.78 5000080.9717
52.78302 -0.92 0.78 5000080.9717
28.590239999999998 -1.0 0.78 5000040.6504
20.4822 -1.08 0.78 5000027.137
24.53898 -2.18 0.78 5000033.8983
28.590239999999998 -2.3 0.78 5000040.6504
16.419959999999996 -4.58 0.78 5000020.3666
26.38116 -5.06 0.78 5000036.9686
26.38116 -5.08 0.78 5000036.9686
26.38116 -5.18 0.78 5000036.9686
26.38116 -5.26 0.78 5000036.9686
26.38116 -5.28 0.78 5000036.9686
24.53898 -5.9 0.78 5000033.8983
22.97934 -5.92 0.78 5000031.2989
22.97934 -5.94 0.78 5000031.2989
22.97934 -5.96 0.78 5000031.2989
22.97934 -6.18 0.78 5000031.2989
22.97934 -6.2 0.78 5000031.2989
21.64188 -6.52 0.78 5000029.0698
21.64188 -6.54 0.78 5000029.0698
20.4822 -6.74 0.78 5000027.137
31.28802 5.1 0.76 5000045.1467
64.806 3.66 0.76 5000101.01
64.806 3.64 0.76 5000101.01
38.9826 2.06 0.76 5000057.971
52.78302 1.88 0.76 5000080.9717
52.78302 1.86 0.76 5000080.9717
52.78302 1.4 0.76 5000080.9717
84.7368 0.98 0.76 5000134.228
84.7368 0.36 0.76 5000134.228
84.7368 0.34 0.76 5000134.228
28.590239999999998 0.24 0.76 5000040.6504
28.590239999999998 0.22 0.76 5000040.6504
44.74056 -0.26 0.76 5000067.5676
52.78302 -0.38 0.76 5000080.9717
52.78302 -0.4 0.76 5000080.9717
28.590239999999998 -0.46 0.76 5000040.6504
44.74056 -0.62 0.76 5000067.5676
24.53898 -2.16 0.76 5000033.8983
24.53898 -2.18 0.76 5000033.8983
52.78302 -3.52 0.76 5000080.9717
26.38116 -5.06 0.76 5000036.9686
26.38116 -5.08 0.76 5000036.9686
26.38116 -5.18 0.76 5000036.9686
22.97934 -6.18 0.76 5000031.2989
22.97934 -6.2 0.76 5000031.2989
21.64188 -6.52 0.76 5000029.0698
21.64188 -6.54 0.76 5000029.0698
31.28802 5.12 0.74 5000045.1467
31.28802 5.1 0.74 5000045.1467
31.28802 4.94 0.74 5000045.1467
31.28802 4.74 0.74 5000045.1467
34.65684 4.48 0.74 5000050.7614
34.65684 4.22 0.74 5000050.7614
64.806 3.66 0.74 5000101.01
52.78302 1.88 0.74 5000080.9717
52.78302 1.86 0.74 5000080.9717
52.78302 1.38 0.74 5000080.9717
84.7368 0.98 0.74 5000134.228
84.7368 0.34 0.74 5000134.228
52.78302 -0.38 0.74 5000080.9717
52.78302 -0.4 0.74 5000080.9717
44.74056 -0.6 0.74 5000067.5676
44.74056 -0.62 0.74 5000067.5676
52.78302 -0.88 0.74 5000080.9717
64.806 -1.56 0.74 5000101.01
64.806 -2.02 0.74 5000101.01
38.9826 -2.72 0.74 5000057.971
38.9826 -2.74 0.74 5000057.971
64.806 -2.92 0.74 5000101.01
64.806 -2.94 0.74 5000101.01
16.419959999999996 -4.6 0.74 5000020.3666
26.38116 -5.06 0.74 5000036.9686
26.38116 -5.08 0.74 5000036.9686
24.53898 -5.88 0.74 5000033.8983
24.53898 -5.9 0.74 5000033.8983
22.97934 -6.18 0.74 5000031.2989
22.97934 -6.2 0.74 5000031.2989
21.64188 -6.52 0.74 5000029.0698
20.4822 -6.74 0.74 5000027.137
31.28802 4.74 0.72 5000045.1467
38.9826 4.64 0.72 5000057.971
34.65684 4.48 0.72 5000050.7614
34.65684 4.22 0.72 5000050.7614
38.9826 3.84 0.72 5000057.971
38.9826 3.82 0.72 5000057.971
64.806 3.72 0.72 5000101.01
52.78302 1.88 0.72 5000080.9717
64.806 1.54 0.72 5000101.01
84.7368 0.98 0.72 5000134.228
84.7368 0.34 0.72 5000134.228
64.806 -0.3 0.72 5000101.01
52.78302 -0.38 0.72 5000080.9717
44.74056 -0.6 0.72 5000067.5676
64.806 -2.0 0.72 5000101.01
64.806 -2.02 0.72 5000101.01
26.38116 -2.28 0.72 5000036.9686
38.9826 -2.72 0.72 5000057.971
34.65684 -3.0 0.72 5000050.7614
34.65684 -3.02 0.72 5000050.7614
28.590239999999998 -4.86 0.72 5000040.6504
28.590239999999998 -4.88 0.72 5000040.6504
26.38116 -5.06 0.72 5000036.9686
24.53898 -5.64 0.72 5000033.8983
24.53898 -5.66 0.72 5000033.8983
24.53898 -5.68 0.72 5000033.8983
24.53898 -5.88 0.72 5000033.8983
24.53898 -5.9 0.72 5000033.8983
22.97934 -6.18 0.72 5000031.2989
22.97934 -6.2 0.72 5000031.2989
20.4822 -6.74 0.72 5000027.137
34.65684 4.48 0.7 5000050.7614
38.9826 3.84 0.7 5000057.971
38.9826 3.82 0.7 5000057.971
52.78302 1.88 0.7 5000080.9717
64.806 1.54 0.7 5000101.01
84.7368 0.34 0.7 5000134.228
124.19999999999999 -0.02 0.7 5000200.0
52.78302 -0.2 0.7 5000080.9717
52.78302 -0.22 0.7 5000080.9717
52.78302 -0.38 0.7 5000080.9717
52.78302 -0.58 0.7 5000080.9717
22.97934 -1.04 0.7 5000031.2989
31.28802 -2.38 0.7 5000045.1467
16.419959999999996 -4.62 0.7 5000020.3666
28.590239999999998 -4.86 0.7 5000040.6504
28.590239999999998 -4.88 0.7 5000040.6504
26.38116 -5.06 0.7 5000036.9686
24.53898 -5.88 0.7 5000033.8983
24.53898 -5.9 0.7 5000033.8983
22.97934 -6.18 0.7 5000031.2989
22.97934 -6.2 0.7 5000031.2989
20.4822 -6.74 0.7 5000027.137
34.65684 4.36 0.68 5000050.7614
84.7368 3.66 0.68 5000134.228
64.806 1.16 0.68 5000101.01
84.7368 0.36 0.68 5000134.228
84.7368 0.34 0.68 5000134.228
124.19999999999999 -0.02 0.68 5000200.0
124.19999999999999 -0.32 0.68 5000200.0
31.28802 -0.98 0.68 5000045.1467
24.53898 -1.04 0.68 5000033.8983
34.65684 -1.72 0.68 5000050.7614
31.28802 -2.38 0.68 5000045.1467
34.65684 -3.04 0.68 5000050.7614
34.65684 -3.06 0.68 5000050.7614
16.419959999999996 -4.6 0.68 5000020.3666
16.419959999999996 -4.62 0.68 5000020.3666
26.38116 -5.04 0.68 5000036.9686
26.38116 -5.06 0.68 5000036.9686
24.53898 -5.62 0.68 5000033.8983
24.53898 -5.88 0.68 5000033.8983
24.53898 -5.9 0.68 5000033.8983
22.97934 -6.18 0.68 5000031.2989
22.97934 -6.2 0.68 5000031.2989
21.64188 -6.52 0.68 5000029.0698
21.64188 -6.54 0.68 5000029.0698
52.78302 1.86 0.66 5000080.9717
64.806 1.54 0.66 5000101.01
64.806 1.42 0.66 5000101.01
84.7368 0.36 0.66 5000134.228
84.7368 0.34 0.66 5000134.228
124.19999999999999 -0.02 0.66 5000200.0
124.19999999999999 -0.14 0.66 5000200.0
124.19999999999999 -0.46 0.66 5000200.0
124.19999999999999 -0.86 0.66 5000200.0
52.78302 -0.92 0.66 5000080.9717
31.28802 -0.98 0.66 5000045.1467
24.53898 -1.04 0.66 5000033.8983
64.806 -2.28 0.66 5000101.01
31.28802 -2.38 0.66 5000045.1467
31.28802 -2.4 0.66 5000045.1467
20.4822 -2.5 0.66 5000027.137
34.65684 -3.04 0.66 5000050.7614
44.74056 -4.28 0.66 5000067.5676
16.419959999999996 -4.62 0.66 5000020.3666
28.590239999999998 -4.7 0.66 5000040.6504
26.38116 -5.4 0.66 5000036.9686
26.38116 -5.42 0.66 5000036.9686
26.38116 -5.44 0.66 5000036.9686
24.53898 -5.62 0.66 5000033.8983
24.53898 -5.64 0.66 5000033.8983
24.53898 -5.88 0.66 5000033.8983
24.53898 -5.9 0.66 5000033.8983
21.64188 -6.52 0.66 5000029.0698
21.64188 -6.54 0.66 5000029.0698
20.4822 -6.62 0.66 5000027.137
20.4822 -6.74 0.66 5000027.137
28.590239999999998 5.24 0.64 5000040.6504
64.806 3.64 0.64 5000101.01
52.78302 1.86 0.64 5000080.9717
64.806 1.42 0.64 5000101.01
124.19999999999999 0.1 0.64 5000200.0
124.19999999999999 -0.02 0.64 5000200.0
124.19999999999999 -0.46 0.64 5000200.0
124.19999999999999 -0.48 0.64 5000200.0
44.74056 -0.54 0.64 5000067.5676
52.78302 -0.7 0.64 5000080.9717
26.38116 -0.8 0.64 5000036.9686
26.38116 -0.82 0.64 5000036.9686
52.78302 -0.92 0.64 5000080.9717
34.65684 -1.04 0.64 5000050.7614
64.806 -2.28 0.64 5000101.01
31.28802 -2.38 0.64 5000045.1467
20.4822 -2.5 0.64 5000027.137
28.590239999999998 -4.7 0.64 5000040.6504
28.590239999999998 -4.88 0.64 5000040.6504
26.38116 -5.4 0.64 5000036.9686
26.38116 -5.42 0.64 5000036.9686
24.53898 -5.88 0.64 5000033.8983
24.53898 -5.9 0.64 5000033.8983
21.64188 -6.52 0.64 5000029.0698
21.64188 -6.54 0.64 5000029.0698
31.28802 4.82 0.62 5000045.1467
31.28802 4.5 0.62 5000045.1467
34.65684 4.04 0.62 5000050.7614
64.806 3.64 0.62 5000101.01
64.806 3.62 0.62 5000101.01
52.78302 1.88 0.62 5000080.9717
52.78302 1.86 0.62 5000080.9717
44.74056 1.6 0.62 5000067.5676
52.78302 1.4 0.62 5000080.9717
124.19999999999999 0.1 0.62 5000200.0
124.19999999999999 -0.02 0.62 5000200.0
124.19999999999999 -0.46 0.62 5000200.0
52.78302 -0.7 0.62 5000080.9717
52.78302 -0.72 0.62 5000080.9717
52.78302 -0.92 0.62 5000080.9717
31.28802 -1.02 0.62 5000045.1467
34.65684 -1.04 0.62 5000050.7614
34.65684 -1.08 0.62 5000050.7614
64.806 -2.28 0.62 5000101.01
28.590239999999998 -2.42 0.62 5000040.6504
28.590239999999998 -4.7 0.62 5000040.6504
28.590239999999998 -4.86 0.62 5000040.6504
24.53898 -5.62 0.62 5000033.8983
24.53898 -5.88 0.62 5000033.8983
24.53898 -5.9 0.62 5000033.8983
21.64188 -6.52 0.62 5000029.0698
21.64188 -6.54 0.62 5000029.0698
34.65684 4.34 0.6 5000050.7614
44.74056 3.8 0.6 5000067.5676
64.806 3.62 0.6 5000101.01
64.806 3.6 0.6 5000101.01
52.78302 1.86 0.6 5000080.9717
44.74056 1.6 0.6 5000067.5676
52.78302 1.4 0.6 5000080.9717
52.78302 1.38 0.6 5000080.9717
124.19999999999999 0.1 0.6 5000200.0
124.19999999999999 -0.02 0.6 5000200.0
52.78302 -0.68 0.6 5000080.9717
52.78302 -0.7 0.6 5000080.9717
52.78302 -0.92 0.6 5000080.9717
44.74056 -1.7 0.6 5000067.5676
44.74056 -1.72 0.6 5000067.5676
28.590239999999998 -2.42 0.6 5000040.6504
17.06172 -4.48 0.6 5000021.4362
26.38116 -5.18 0.6 5000036.9686
26.38116 -5.2 0.6 5000036.9686
26.38116 -5.22 0.6 5000036.9686
26.38116 -5.38 0.6 5000036.9686
24.53898 -5.62 0.6 5000033.8983
22.97934 -6.18 0.6 5000031.2989
22.97934 -6.2 0.6 5000031.2989
21.64188 -6.52 0.6 5000029.0698
21.64188 -6.54 0.6 5000029.0698
20.4822 -6.62 0.6 5000027.137
31.28802 4.56 0.58 5000045.1467
44.74056 3.8 0.58 5000067.5676
64.806 3.62 0.58 5000101.01
64.806 3.6 0.58 5000101.01
52.78302 1.86 0.58 5000080.9717
52.78302 1.38 0.58 5000080.9717
52.78302 1.36 0.58 5000080.9717
84.7368 1.02 0.58 5000134.228
124.19999999999999 0.12 0.58 5000200.0
124.19999999999999 0.1 0.58 5000200.0
124.19999999999999 -0.04 0.58 5000200.0
52.78302 -0.66 0.58 5000080.9717
52.78302 -0.68 0.58 5000080.9717
52.78302 -0.92 0.58 5000080.9717
52.78302 -0.94 0.58 5000080.9717
44.74056 -1.7 0.58 5000067.5676
28.590239999999998 -2.4 0.58 5000040.6504
28.590239999999998 -2.42 0.58 5000040.6504
28.590239999999998 -2.44 0.58 5000040.6504
26.38116 -2.48 0.58 5000036.9686
22.97934 -2.5 0.58 5000031.2989
44.74056 -4.12 0.58 5000067.5676
44.74056 -4.16 0.58 5000067.5676
17.06172 -4.48 0.58 5000021.4362
17.06172 -4.5 0.58 5000021.4362
28.590239999999998 -4.7 0.58 5000040.6504
26.38116 -5.38 0.58 5000036.9686
24.53898 -5.62 0.58 5000033.8983
22.97934 -6.18 0.58 5000031.2989
22.97934 -6.2 0.58 5000031.2989
21.64188 -6.52 0.58 5000029.0698
21.64188 -6.54 0.58 5000029.0698
20.4822 -6.62 0.58 5000027.137
31.28802 4.56 0.56 5000045.1467
34.65684 4.12 0.56 5000050.7614
44.74056 3.8 0.56 5000067.5676
52.78302 1.86 0.56 5000080.9717
52.78302 1.38 0.56 5000080.9717
52.78302 1.36 0.56 5000080.9717
84.7368 1.02 0.56 5000134.228
84.7368 0.94 0.56 5000134.228
64.806 0.68 0.56 5000101.01
124.19999999999999 0.12 0.56 5000200.0
64.806 -0.62 0.56 5000101.01
52.78302 -0.64 0.56 5000080.9717
44.74056 -1.7 0.56 5000067.5676
28.590239999999998 -2.4 0.56 5000040.6504
28.590239999999998 -2.42 0.56 5000040.6504
28.590239999999998 -2.44 0.56 5000040.6504
64.806 -3.9 0.56 5000101.01
64.806 -3.92 0.56 5000101.01
17.06172 -4.48 0.56 5000021.4362
17.06172 -4.5 0.56 5000021.4362
16.419959999999996 -4.6 0.56 5000020.3666
26.38116 -5.0 0.56 5000036.9686
26.38116 -5.02 0.56 5000036.9686
28.590239999999998 -5.16 0.56 5000040.6504
26.38116 -5.18 0.56 5000036.9686
26.38116 -5.38 0.56 5000036.9686
24.53898 -5.62 0.56 5000033.8983
24.53898 -5.64 0.56 5000033.8983
22.97934 -6.18 0.56 5000031.2989
22.97934 -6.2 0.56 5000031.2989
21.64188 -6.38 0.56 5000029.0698
21.64188 -6.52 0.56 5000029.0698
21.64188 -6.54 0.56 5000029.0698
20.4822 -6.62 0.56 5000027.137
31.28802 4.58 0.54 5000045.1467
44.74056 3.82 0.54 5000067.5676
52.78302 1.86 0.54 5000080.9717
52.78302 1.36 0.54 5000080.9717
84.7368 1.02 0.54 5000134.228
84.7368 0.94 0.54 5000134.228
64.806 0.68 0.54 5000101.01
124.19999999999999 0.62 0.54 5000200.0
84.7368 0.6 0.54 5000134.228
52.78302 -1.02 0.54 5000080.9717
12.933599999999998 -1.32 0.54 5000014.556
124.19999999999999 -1.62 0.54 5000200.0
34.65684 -4.18 0.54 5000050.7614
16.419959999999996 -4.5 0.54 5000020.3666
26.38116 -4.98 0.54 5000036.9686
26.38116 -5.0 0.54 5000036.9686
26.38116 -5.02 0.54 5000036.9686
22.97934 -5.9 0.54 5000031.2989
22.97934 -6.18 0.54 5000031.2989
22.97934 -6.2 0.54 5000031.2989
21.64188 -6.52 0.54 5000029.0698
21.64188 -6.54 0.54 5000029.0698
31.28802 4.58 0.52 5000045.1467
44.74056 3.8 0.52 5000067.5676
52.78302 1.92 0.52 5000080.9717
124.19999999999999 1.46 0.52 5000200.0
84.7368 1.08 0.52 5000134.228
84.7368 1.02 0.52 5000134.228
84.7368 0.94 0.52 5000134.228
84.7368 0.68 0.52 5000134.228
124.19999999999999 0.62 0.52 5000200.0
84.7368 0.6 0.52 5000134.228
84.7368 0.56 0.52 5000134.228
84.7368 0.38 0.52 5000134.228
52.78302 -0.36 0.52 5000080.9717
52.78302 -0.74 0.52 5000080.9717
38.9826 -3.04 0.52 5000057.971
38.9826 -4.08 0.52 5000057.971
38.9826 -4.12 0.52 5000057.971
44.74056 -4.18 0.52 5000067.5676
24.53898 -5.4 0.52 5000033.8983
22.97934 -5.88 0.52 5000031.2989
22.97934 -5.9 0.52 5000031.2989
21.64188 -6.18 0.52 5000029.0698
21.64188 -6.2 0.52 5000029.0698
21.64188 -6.52 0.52 5000029.0698
21.64188 -6.54 0.52 5000029.0698
20.4822 -6.62 0.52 5000027.137
34.65684 4.42 0.5 5000050.7614
34.65684 4.4 0.5 5000050.7614
34.65684 4.38 0.5 5000050.7614
34.65684 4.16 0.5 5000050.7614
44.74056 3.78 0.5 5000067.5676
124.19999999999999 1.46 0.5 5000200.0
84.7368 1.02 0.5 5000134.228
84.7368 0.94 0.5 5000134.228
84.7368 0.68 0.5 5000134.228
124.19999999999999 0.62 0.5 5000200.0
84.7368 0.6 0.5 5000134.228
84.7368 0.56 0.5 5000134.228
84.7368 0.38 0.5 5000134.228
52.78302 -0.36 0.5 5000080.9717
44.74056 -1.72 0.5 5000067.5676
26.38116 -2.42 0.5 5000036.9686
21.64188 -2.5 0.5 5000029.0698
52.78302 -2.66 0.5 5000080.9717
124.19999999999999 -4.0 0.5 5000200.0
38.9826 -4.08 0.5 5000057.971
38.9826 -4.12 0.5 5000057.971
17.77464 -4.44 0.5 5000022.6244
16.419959999999996 -4.48 0.5 5000020.3666
28.590239999999998 -4.78 0.5 5000040.6504
28.590239999999998 -4.8 0.5 5000040.6504
28.590239999999998 -4.82 0.5 5000040.6504
28.590239999999998 -4.96 0.5 5000040.6504
24.53898 -5.4 0.5 5000033.8983
22.97934 -5.9 0.5 5000031.2989
21.64188 -6.18 0.5 5000029.0698
21.64188 -6.2 0.5 5000029.0698
21.64188 -6.52 0.5 5000029.0698
21.64188 -6.54 0.5 5000029.0698
28.590239999999998 5.0 0.48 5000040.6504
31.28802 4.64 0.48 5000045.1467
44.74056 3.8 0.48 5000067.5676
124.19999999999999 1.46 0.48 5000200.0
84.7368 1.02 0.48 5000134.228
84.7368 0.94 0.48 5000134.228
84.7368 0.7 0.48 5000134.228
84.7368 0.68 0.48 5000134.228
124.19999999999999 0.62 0.48 5000200.0
84.7368 0.6 0.48 5000134.228
84.7368 0.56 0.48 5000134.228
84.7368 0.38 0.48 5000134.228
84.7368 0.28 0.48 5000134.228
84.7368 0.24 0.48 5000134.228
52.78302 -0.38 0.48 5000080.9717
26.38116 -0.46 0.48 5000036.9686
44.74056 -0.56 0.48 5000067.5676
124.19999999999999 -1.3 0.48 5000200.0
52.78302 -2.62 0.48 5000080.9717
34.65684 -4.24 0.48 5000050.7614
19.467180000000003 -4.4 0.48 5000025.4453
28.590239999999998 -4.78 0.48 5000040.6504
28.590239999999998 -4.8 0.48 5000040.6504
26.38116 -5.16 0.48 5000036.9686
24.53898 -5.62 0.48 5000033.8983
22.97934 -5.9 0.48 5000031.2989
21.64188 -6.2 0.48 5000029.0698
52.78302 5.52 0.46 5000080.9717
34.65684 4.72 0.46 5000050.7614
31.28802 4.64 0.46 5000045.1467
52.78302 3.76 0.46 5000080.9717
84.7368 1.94 0.46 5000134.228
84.7368 1.9 0.46 5000134.228
124.19999999999999 1.46 0.46 5000200.0
84.7368 1.02 0.46 5000134.228
84.7368 0.94 0.46 5000134.228
124.19999999999999 0.62 0.46 5000200.0
84.7368 0.6 0.46 5000134.228
84.7368 0.56 0.46 5000134.228
84.7368 0.38 0.46 5000134.228
84.7368 0.08 0.46 5000134.228
84.7368 0.04 0.46 5000134.228
124.19999999999999 -0.22 0.46 5000200.0
52.78302 -0.38 0.46 5000080.9717
52.78302 -0.46 0.46 5000080.9717
11.61198 -0.96 0.46 5000012.3533
26.38116 -2.4 0.46 5000036.9686
26.38116 -2.42 0.46 5000036.9686
31.28802 -3.04 0.46 5000045.1467
28.590239999999998 -4.64 0.46 5000040.6504
28.590239999999998 -4.66 0.46 5000040.6504
26.38116 -5.16 0.46 5000036.9686
24.53898 -5.62 0.46 5000033.8983
24.53898 -5.64 0.46 5000033.8983
22.97934 -5.9 0.46 5000031.2989
21.64188 -6.18 0.46 5000029.0698
21.64188 -6.2 0.46 5000029.0698
20.4822 -6.64 0.46 5000027.137
52.78302 5.52 0.44 5000080.9717
64.806 3.76 0.44 5000101.01
84.7368 3.72 0.44 5000134.228
84.7368 1.94 0.44 5000134.228
124.19999999999999 1.46 0.44 5000200.0
64.806 1.08 0.44 5000101.01
44.74056 0.54 0.44 5000067.5676
84.7368 0.38 0.44 5000134.228
84.7368 0.08 0.44 5000134.228
84.7368 0.04 0.44 5000134.228
124.19999999999999 -0.22 0.44 5000200.0
52.78302 -0.36 0.44 5000080.9717
52.78302 -0.38 0.44 5000080.9717
84.7368 -0.46 0.44 5000134.228
44.74056 -0.52 0.44 5000067.5676
52.78302 -0.96 0.44 5000080.9717
28.590239999999998 -2.4 0.44 5000040.6504
28.590239999999998 -2.42 0.44 5000040.6504
31.28802 -3.06 0.44 5000045.1467
31.28802 -3.08 0.44 5000045.1467
31.28802 -4.28 0.44 5000045.1467
31.28802 -4.6 0.44 5000045.1467
28.590239999999998 -4.62 0.44 5000040.6504
28.590239999999998 -4.64 0.44 5000040.6504
24.53898 -5.62 0.44 5000033.8983
22.97934 -5.9 0.44 5000031.2989
21.64188 -6.18 0.44 5000029.0698
21.64188 -6.2 0.44 5000029.0698
21.64188 -6.38 0.44 5000029.0698
34.65684 4.96 0.42 5000050.7614
34.65684 4.74 0.42 5000050.7614
52.78302 3.78 0.42 5000080.9717
64.806 3.76 0.42 5000101.01
64.806 3.74 0.42 5000101.01
84.7368 3.72 0.42 5000134.228
124.19999999999999 1.46 0.42 5000200.0
64.806 1.1 0.42 5000101.01
64.806 1.08 0.42 5000101.01
84.7368 0.38 0.42 5000134.228
84.7368 0.28 0.42 5000134.228
84.7368 0.08 0.42 5000134.228
124.19999999999999 -0.22 0.42 5000200.0
52.78302 -0.38 0.42 5000080.9717
84.7368 -0.46 0.42 5000134.228
52.78302 -0.5 0.42 5000080.9717
44.74056 -0.52 0.42 5000067.5676
44.74056 -0.56 0.42 5000067.5676
12.63288 -0.76 0.42 5000014.0548
52.78302 -0.94 0.42 5000080.9717
38.9826 -2.34 0.42 5000057.971
38.9826 -3.02 0.42 5000057.971
31.28802 -3.04 0.42 5000045.1467
38.9826 -4.08 0.42 5000057.971
34.65684 -4.1 0.42 5000050.7614
31.28802 -4.16 0.42 5000045.1467
31.28802 -4.2 0.42 5000045.1467
34.65684 -4.22 0.42 5000050.7614
31.28802 -4.24 0.42 5000045.1467
24.53898 -5.4 0.42 5000033.8983
24.53898 -5.62 0.42 5000033.8983
22.97934 -5.9 0.42 5000031.2989
21.64188 -6.38 0.42 5000029.0698
34.65684 4.98 0.4 5000050.7614
