VERSION .7
FIELDS x y z rgb
SIZE 4 4 4 4
TYPE F F F F
COUNT 1 1 1 1
WIDTH 1352
HEIGHT 1
VIEWPOINT 0 0 0 1 0 0 0
POINTS 1352
DATA ascii
124.19999999999999 0.54 0.18 5000200.0
124.19999999999999 0.52 0.18 5000200.0
84.7368 0.4 0.18 5000134.228
84.7368 0.34 0.18 5000134.228
84.7368 0.16 0.18 5000134.228
84.7368 -0.18 0.18 5000134.228
84.7368 -0.22 0.18 5000134.228
21.64188 -0.36 0.18 5000029.0698
44.74056 -0.52 0.18 5000067.5676
21.64188 -0.76 0.18 5000029.0698
44.74056 -0.84 0.18 5000067.5676
124.19999999999999 -0.92 0.18 5000200.0
124.19999999999999 -0.94 0.18 5000200.0
52.78302 -1.12 0.18 5000080.9717
34.65684 -1.18 0.18 5000050.7614
124.19999999999999 -1.3 0.18 5000200.0
124.19999999999999 -1.32 0.18 5000200.0
124.19999999999999 -1.48 0.18 5000200.0
84.7368 -1.74 0.18 5000134.228
84.7368 -1.76 0.18 5000134.228
15.83916 -4.84 0.18 5000019.3986
15.83916 -4.86 0.18 5000019.3986
31.28802 4.76 0.16 5000045.1467
31.28802 4.74 0.16 5000045.1467
52.78302 3.74 0.16 5000080.9717
52.78302 3.7 0.16 5000080.9717
44.74056 1.96 0.16 5000067.5676
84.7368 1.28 0.16 5000134.228
124.19999999999999 0.16 0.16 5000200.0
84.7368 -0.18 0.16 5000134.228
21.64188 -0.36 0.16 5000029.0698
44.74056 -0.52 0.16 5000067.5676
24.53898 -0.62 0.16 5000033.8983
21.64188 -0.76 0.16 5000029.0698
17.06172 -0.84 0.16 5000021.4362
124.19999999999999 -0.9 0.16 5000200.0
124.19999999999999 -0.92 0.16 5000200.0
34.65684 -1.18 0.16 5000050.7614
124.19999999999999 -1.46 0.16 5000200.0
84.7368 -1.74 0.16 5000134.228
84.7368 -1.76 0.16 5000134.228
24.53898 -2.36 0.16 5000033.8983
24.53898 -4.14 0.16 5000033.8983
24.53898 -4.16 0.16 5000033.8983
24.53898 -4.18 0.16 5000033.8983
15.83916 -4.84 0.16 5000019.3986
15.83916 -4.86 0.16 5000019.3986
26.38116 -5.58 0.16 5000036.9686
52.78302 4.22 0.14 5000080.9717
64.806 4.12 0.14 5000101.01
52.78302 3.7 0.14 5000080.9717
44.74056 1.96 0.14 5000067.5676
84.7368 1.58 0.14 5000134.228
84.7368 1.54 0.14 5000134.228
52.78302 1.18 0.14 5000080.9717
124.19999999999999 0.16 0.14 5000200.0
84.7368 -0.18 0.14 5000134.228
21.64188 -0.36 0.14 5000029.0698
44.74056 -0.52 0.14 5000067.5676
24.53898 -0.62 0.14 5000033.8983
24.53898 -0.64 0.14 5000033.8983
21.64188 -0.78 0.14 5000029.0698
124.19999999999999 -0.9 0.14 5000200.0
124.19999999999999 -1.46 0.14 5000200.0
124.19999999999999 -1.5 0.14 5000200.0
84.7368 -1.74 0.14 5000134.228
84.7368 -1.76 0.14 5000134.228
52.78302 -2.32 0.14 5000080.9717
52.78302 -2.34 0.14 5000080.9717
24.53898 -2.36 0.14 5000033.8983
22.97934 -2.38 0.14 5000031.2989
22.97934 -2.4 0.14 5000031.2989
15.83916 -4.86 0.14 5000019.3986
17.77464 -6.52 0.14 5000022.6244
17.77464 -6.54 0.14 5000022.6244
52.78302 3.7 0.12 5000080.9717
44.74056 1.96 0.12 5000067.5676
64.806 1.18 0.12 5000101.01
124.19999999999999 -0.04 0.12 5000200.0
124.19999999999999 -0.18 0.12 5000200.0
124.19999999999999 -0.2 0.12 5000200.0
44.74056 -0.36 0.12 5000067.5676
44.74056 -0.52 0.12 5000067.5676
24.53898 -0.62 0.12 5000033.8983
24.53898 -0.64 0.12 5000033.8983
15.3111 -0.78 0.12 5000018.5185
124.19999999999999 -0.98 0.12 5000200.0
124.19999999999999 -1.46 0.12 5000200.0
52.78302 -2.0 0.12 5000080.9717
124.19999999999999 -2.1 0.12 5000200.0
52.78302 -2.16 0.12 5000080.9717
52.78302 -2.18 0.12 5000080.9717
52.78302 -2.22 0.12 5000080.9717
52.78302 -2.32 0.12 5000080.9717
28.590239999999998 -3.94 0.12 5000040.6504
52.78302 4.22 0.1 5000080.9717
52.78302 4.1 0.1 5000080.9717
44.74056 3.82 0.1 5000067.5676
64.806 1.18 0.1 5000101.01
52.78302 1.12 0.1 5000080.9717
124.19999999999999 -0.18 0.1 5000200.0
44.74056 -0.36 0.1 5000067.5676
44.74056 -0.38 0.1 5000067.5676
44.74056 -0.5 0.1 5000067.5676
44.74056 -0.52 0.1 5000067.5676
38.9826 -0.62 0.1 5000057.971
124.19999999999999 -0.96 0.1 5000200.0
84.7368 -1.62 0.1 5000134.228
52.78302 -2.0 0.1 5000080.9717
84.7368 -2.14 0.1 5000134.228
52.78302 -2.16 0.1 5000080.9717
52.78302 -2.18 0.1 5000080.9717
52.78302 -2.2 0.1 5000080.9717
15.83916 -4.86 0.1 5000019.3986
15.83916 -4.88 0.1 5000019.3986
64.806 4.1 0.08 5000101.01
38.9826 2.04 0.08 5000057.971
52.78302 1.2 0.08 5000080.9717
52.78302 -0.38 0.08 5000080.9717
124.19999999999999 -0.44 0.08 5000200.0
44.74056 -0.5 0.08 5000067.5676
44.74056 -0.52 0.08 5000067.5676
44.74056 -0.62 0.08 5000067.5676
124.19999999999999 -0.96 0.08 5000200.0
84.7368 -1.62 0.08 5000134.228
52.78302 -2.16 0.08 5000080.9717
52.78302 -2.18 0.08 5000080.9717
52.78302 -2.2 0.08 5000080.9717
15.83916 -4.84 0.08 5000019.3986
15.83916 -4.86 0.08 5000019.3986
31.28802 4.4 0.06 5000045.1467
52.78302 1.2 0.06 5000080.9717
52.78302 1.1 0.06 5000080.9717
84.7368 0.26 0.06 5000134.228
84.7368 -0.26 0.06 5000134.228
52.78302 -0.38 0.06 5000080.9717
124.19999999999999 -0.44 0.06 5000200.0
52.78302 -0.5 0.06 5000080.9717
52.78302 -0.52 0.06 5000080.9717
44.74056 -0.62 0.06 5000067.5676
19.467180000000003 -0.78 0.06 5000025.4453
124.19999999999999 -0.96 0.06 5000200.0
124.19999999999999 -0.98 0.06 5000200.0
124.19999999999999 -1.0 0.06 5000200.0
84.7368 -1.04 0.06 5000134.228
24.53898 -1.28 0.06 5000033.8983
21.64188 -3.44 0.06 5000029.0698
31.28802 4.4 0.04 5000045.1467
52.78302 1.18 0.04 5000080.9717
84.7368 0.6 0.04 5000134.228
84.7368 0.58 0.04 5000134.228
84.7368 0.26 0.04 5000134.228
64.806 -0.38 0.04 5000101.01
44.74056 -0.62 0.04 5000067.5676
26.38116 -0.7 0.04 5000036.9686
19.467180000000003 -0.78 0.04 5000025.4453
6.672695999999999 -1.14 0.04 5000004.12116
44.74056 -2.06 0.04 5000067.5676
21.64188 -3.44 0.04 5000029.0698
64.806 1.88 0.02 5000101.01
52.78302 1.18 0.02 5000080.9717
64.806 0.84 0.02 5000101.01
64.806 0.82 0.02 5000101.01
64.806 0.8 0.02 5000101.01
84.7368 0.6 0.02 5000134.228
84.7368 0.58 0.02 5000134.228
84.7368 0.54 0.02 5000134.228
84.7368 0.52 0.02 5000134.228
20.4822 0.4 0.02 5000027.137
20.4822 0.38 0.02 5000027.137
84.7368 0.26 0.02 5000134.228
84.7368 0.24 0.02 5000134.228
64.806 -0.36 0.02 5000101.01
64.806 -0.38 0.02 5000101.01
44.74056 -0.62 0.02 5000067.5676
26.38116 -0.7 0.02 5000036.9686
19.467180000000003 -0.76 0.02 5000025.4453
19.467180000000003 -0.78 0.02 5000025.4453
14.82888 -1.34 0.02 5000017.7148
26.38116 -1.46 0.02 5000036.9686
15.83916 -4.92 0.02 5000019.3986
84.7368 1.98 0.0 5000134.228
64.806 1.9 0.0 5000101.01
52.78302 1.18 0.0 5000080.9717
84.7368 1.06 0.0 5000134.228
64.806 0.84 0.0 5000101.01
64.806 0.82 0.0 5000101.01
84.7368 0.6 0.0 5000134.228
84.7368 0.58 0.0 5000134.228
84.7368 0.54 0.0 5000134.228
84.7368 0.52 0.0 5000134.228
84.7368 0.26 0.0 5000134.228
84.7368 0.24 0.0 5000134.228
28.590239999999998 0.14 0.0 5000040.6504
64.806 -0.38 0.0 5000101.01
44.74056 -0.62 0.0 5000067.5676
26.38116 -0.7 0.0 5000036.9686
19.467180000000003 -0.78 0.0 5000025.4453
52.78302 -1.04 0.0 5000080.9717
124.19999999999999 -1.26 0.0 5000200.0
26.38116 -1.42 0.0 5000036.9686
22.97934 -2.72 0.0 5000031.2989
22.97934 -2.74 0.0 5000031.2989
28.590239999999998 4.86 -0.02 5000040.6504
31.28802 4.38 -0.02 5000045.1467
52.78302 2.74 -0.02 5000080.9717
64.806 1.9 -0.02 5000101.01
52.78302 1.18 -0.02 5000080.9717
84.7368 1.06 -0.02 5000134.228
64.806 0.82 -0.02 5000101.01
84.7368 0.58 -0.02 5000134.228
84.7368 0.52 -0.02 5000134.228
84.7368 0.26 -0.02 5000134.228
84.7368 0.24 -0.02 5000134.228
28.590239999999998 0.14 -0.02 5000040.6504
84.7368 -0.04 -0.02 5000134.228
34.65684 -0.12 -0.02 5000050.7614
84.7368 -0.24 -0.02 5000134.228
84.7368 -0.26 -0.02 5000134.228
84.7368 -0.28 -0.02 5000134.228
84.7368 -0.38 -0.02 5000134.228
52.78302 -0.5 -0.02 5000080.9717
44.74056 -0.62 -0.02 5000067.5676
26.38116 -0.7 -0.02 5000036.9686
19.467180000000003 -0.78 -0.02 5000025.4453
64.806 -1.04 -0.02 5000101.01
124.19999999999999 -1.26 -0.02 5000200.0
124.19999999999999 -1.28 -0.02 5000200.0
26.38116 -1.4 -0.02 5000036.9686
26.38116 -1.42 -0.02 5000036.9686
7.8529680000000015 -2.1 -0.02 5000006.08828
22.97934 -2.7 -0.02 5000031.2989
22.97934 -2.72 -0.02 5000031.2989
22.97934 -2.74 -0.02 5000031.2989
15.83916 -4.84 -0.02 5000019.3986
15.83916 -4.86 -0.02 5000019.3986
15.83916 -4.88 -0.02 5000019.3986
31.28802 4.38 -0.04 5000045.1467
31.28802 3.14 -0.04 5000045.1467
64.806 1.96 -0.04 5000101.01
64.806 1.9 -0.04 5000101.01
124.19999999999999 1.8 -0.04 5000200.0
84.7368 1.56 -0.04 5000134.228
84.7368 1.3 -0.04 5000134.228
52.78302 1.18 -0.04 5000080.9717
84.7368 1.06 -0.04 5000134.228
84.7368 0.84 -0.04 5000134.228
84.7368 0.82 -0.04 5000134.228
84.7368 0.58 -0.04 5000134.228
84.7368 0.54 -0.04 5000134.228
84.7368 0.52 -0.04 5000134.228
84.7368 0.44 -0.04 5000134.228
124.19999999999999 0.26 -0.04 5000200.0
124.19999999999999 0.24 -0.04 5000200.0
84.7368 -0.04 -0.04 5000134.228
34.65684 -0.12 -0.04 5000050.7614
84.7368 -0.28 -0.04 5000134.228
52.78302 -0.5 -0.04 5000080.9717
44.74056 -0.62 -0.04 5000067.5676
16.419959999999996 -0.84 -0.04 5000020.3666
16.419959999999996 -0.86 -0.04 5000020.3666
64.806 -1.0 -0.04 5000101.01
64.806 -1.02 -0.04 5000101.01
64.806 -1.04 -0.04 5000101.01
17.06172 -1.26 -0.04 5000021.4362
17.06172 -1.28 -0.04 5000021.4362
52.78302 -1.92 -0.04 5000080.9717
28.590239999999998 -2.02 -0.04 5000040.6504
22.97934 -2.74 -0.04 5000031.2989
22.97934 -2.76 -0.04 5000031.2989
15.83916 -4.84 -0.04 5000019.3986
15.83916 -4.86 -0.04 5000019.3986
64.806 1.92 -0.06 5000101.01
64.806 1.9 -0.06 5000101.01
124.19999999999999 1.8 -0.06 5000200.0
84.7368 1.56 -0.06 5000134.228
84.7368 1.3 -0.06 5000134.228
52.78302 1.18 -0.06 5000080.9717
84.7368 1.06 -0.06 5000134.228
84.7368 0.84 -0.06 5000134.228
84.7368 0.82 -0.06 5000134.228
84.7368 0.6 -0.06 5000134.228
84.7368 0.58 -0.06 5000134.228
84.7368 0.54 -0.06 5000134.228
84.7368 0.52 -0.06 5000134.228
64.806 0.42 -0.06 5000101.01
124.19999999999999 0.26 -0.06 5000200.0
124.19999999999999 0.24 -0.06 5000200.0
28.590239999999998 0.14 -0.06 5000040.6504
84.7368 -0.04 -0.06 5000134.228
84.7368 -0.18 -0.06 5000134.228
52.78302 -0.5 -0.06 5000080.9717
44.74056 -0.62 -0.06 5000067.5676
16.419959999999996 -0.84 -0.06 5000020.3666
64.806 -1.0 -0.06 5000101.01
64.806 -1.02 -0.06 5000101.01
64.806 -1.04 -0.06 5000101.01
12.08952 -1.48 -0.06 5000013.1492
52.78302 -1.92 -0.06 5000080.9717
22.97934 -2.26 -0.06 5000031.2989
22.97934 -2.28 -0.06 5000031.2989
15.3111 -2.44 -0.06 5000018.5185
24.53898 -2.54 -0.06 5000033.8983
22.97934 -2.74 -0.06 5000031.2989
64.806 1.92 -0.08 5000101.01
84.7368 1.08 -0.08 5000134.228
84.7368 1.06 -0.08 5000134.228
84.7368 0.84 -0.08 5000134.228
84.7368 0.58 -0.08 5000134.228
84.7368 0.52 -0.08 5000134.228
124.19999999999999 0.26 -0.08 5000200.0
124.19999999999999 0.24 -0.08 5000200.0
84.7368 -0.04 -0.08 5000134.228
84.7368 -0.18 -0.08 5000134.228
84.7368 -0.24 -0.08 5000134.228
84.7368 -0.26 -0.08 5000134.228
52.78302 -0.5 -0.08 5000080.9717
44.74056 -0.62 -0.08 5000067.5676
64.806 -1.0 -0.08 5000101.01
64.806 -1.02 -0.08 5000101.01
64.806 -1.04 -0.08 5000101.01
17.06172 -1.28 -0.08 5000021.4362
17.06172 -1.3 -0.08 5000021.4362
124.19999999999999 -1.4 -0.08 5000200.0
84.7368 -1.42 -0.08 5000134.228
12.3522 -1.46 -0.08 5000013.587
12.08952 -1.48 -0.08 5000013.1492
28.590239999999998 -1.54 -0.08 5000040.6504
10.025244 -2.12 -0.08 5000009.70874
22.97934 -2.24 -0.08 5000031.2989
22.97934 -2.26 -0.08 5000031.2989
22.97934 -2.28 -0.08 5000031.2989
24.53898 -2.52 -0.08 5000033.8983
24.53898 -2.54 -0.08 5000033.8983
24.53898 -2.56 -0.08 5000033.8983
22.97934 -2.76 -0.08 5000031.2989
84.7368 1.06 -0.1 5000134.228
64.806 0.42 -0.1 5000101.01
84.7368 0.26 -0.1 5000134.228
84.7368 0.24 -0.1 5000134.228
84.7368 -0.04 -0.1 5000134.228
84.7368 -0.24 -0.1 5000134.228
84.7368 -0.26 -0.1 5000134.228
44.74056 -0.5 -0.1 5000067.5676
44.74056 -0.62 -0.1 5000067.5676
64.806 -1.04 -0.1 5000101.01
17.06172 -1.28 -0.1 5000021.4362
124.19999999999999 -1.4 -0.1 5000200.0
84.7368 -1.42 -0.1 5000134.228
28.590239999999998 -1.54 -0.1 5000040.6504
22.97934 -1.6 -0.1 5000031.2989
28.590239999999998 -1.98 -0.1 5000040.6504
28.590239999999998 -2.0 -0.1 5000040.6504
28.590239999999998 -2.02 -0.1 5000040.6504
22.97934 -2.26 -0.1 5000031.2989
24.53898 -2.78 -0.1 5000033.8983
21.64188 -3.44 -0.1 5000029.0698
16.419959999999996 -4.82 -0.1 5000020.3666
16.419959999999996 -4.84 -0.1 5000020.3666
64.806 0.42 -0.12 5000101.01
84.7368 0.26 -0.12 5000134.228
84.7368 0.24 -0.12 5000134.228
28.590239999999998 0.14 -0.12 5000040.6504
84.7368 -0.24 -0.12 5000134.228
52.78302 -1.04 -0.12 5000080.9717
17.06172 -1.28 -0.12 5000021.4362
8.731722000000001 -1.88 -0.12 5000007.55287
8.731722000000001 -1.9 -0.12 5000007.55287
22.97934 -2.24 -0.12 5000031.2989
22.97934 -2.26 -0.12 5000031.2989
24.53898 -2.4 -0.12 5000033.8983
22.97934 -2.76 -0.12 5000031.2989
52.78302 1.64 -0.14 5000080.9717
52.78302 1.18 -0.14 5000080.9717
84.7368 0.26 -0.14 5000134.228
84.7368 0.04 -0.14 5000134.228
64.806 -1.0 -0.14 5000101.01
52.78302 -1.04 -0.14 5000080.9717
17.77464 -1.26 -0.14 5000022.6244
17.77464 -1.28 -0.14 5000022.6244
34.65684 -1.72 -0.14 5000050.7614
34.65684 -1.74 -0.14 5000050.7614
22.97934 -2.24 -0.14 5000031.2989
22.97934 -2.26 -0.14 5000031.2989
24.53898 -2.4 -0.14 5000033.8983
20.4822 -2.76 -0.14 5000027.137
20.4822 -2.78 -0.14 5000027.137
34.65684 3.96 -0.16 5000050.7614
52.78302 1.9 -0.16 5000080.9717
52.78302 1.64 -0.16 5000080.9717
64.806 1.28 -0.16 5000101.01
52.78302 1.18 -0.16 5000080.9717
84.7368 0.66 -0.16 5000134.228
84.7368 0.26 -0.16 5000134.228
44.74056 -0.48 -0.16 5000067.5676
44.74056 -0.7 -0.16 5000067.5676
22.97934 -0.82 -0.16 5000031.2989
84.7368 -0.98 -0.16 5000134.228
84.7368 -1.0 -0.16 5000134.228
64.806 -1.04 -0.16 5000101.01
17.77464 -1.24 -0.16 5000022.6244
17.77464 -1.26 -0.16 5000022.6244
124.19999999999999 -1.6 -0.16 5000200.0
124.19999999999999 -1.62 -0.16 5000200.0
34.65684 -1.72 -0.16 5000050.7614
34.65684 -1.74 -0.16 5000050.7614
13.979940000000001 -2.04 -0.16 5000016.2999
13.979940000000001 -2.06 -0.16 5000016.2999
24.53898 -2.24 -0.16 5000033.8983
24.53898 -2.26 -0.16 5000033.8983
24.53898 -2.38 -0.16 5000033.8983
24.53898 -2.4 -0.16 5000033.8983
20.4822 -2.78 -0.16 5000027.137
26.38116 5.22 -0.18 5000036.9686
31.28802 4.04 -0.18 5000045.1467
52.78302 2.7 -0.18 5000080.9717
52.78302 2.1 -0.18 5000080.9717
64.806 1.28 -0.18 5000101.01
52.78302 1.18 -0.18 5000080.9717
84.7368 0.68 -0.18 5000134.228
84.7368 0.66 -0.18 5000134.228
44.74056 -0.48 -0.18 5000067.5676
124.19999999999999 -0.64 -0.18 5000200.0
84.7368 -0.66 -0.18 5000134.228
64.806 -0.7 -0.18 5000101.01
22.97934 -0.82 -0.18 5000031.2989
22.97934 -0.86 -0.18 5000031.2989
84.7368 -0.98 -0.18 5000134.228
84.7368 -1.0 -0.18 5000134.228
84.7368 -1.02 -0.18 5000134.228
64.806 -1.04 -0.18 5000101.01
34.65684 -1.72 -0.18 5000050.7614
34.65684 -1.74 -0.18 5000050.7614
26.38116 -2.0 -0.18 5000036.9686
124.19999999999999 -2.18 -0.18 5000200.0
24.53898 -2.24 -0.18 5000033.8983
24.53898 -2.26 -0.18 5000033.8983
24.53898 -2.38 -0.18 5000033.8983
24.53898 -2.4 -0.18 5000033.8983
24.53898 -2.44 -0.18 5000033.8983
20.4822 -2.78 -0.18 5000027.137
20.4822 -2.8 -0.18 5000027.137
52.78302 1.18 -0.2 5000080.9717
84.7368 0.68 -0.2 5000134.228
84.7368 0.66 -0.2 5000134.228
44.74056 -0.48 -0.2 5000067.5676
124.19999999999999 -0.64 -0.2 5000200.0
84.7368 -0.66 -0.2 5000134.228
64.806 -0.7 -0.2 5000101.01
22.97934 -0.8 -0.2 5000031.2989
22.97934 -0.82 -0.2 5000031.2989
22.97934 -0.86 -0.2 5000031.2989
19.467180000000003 -0.88 -0.2 5000025.4453
124.19999999999999 -0.94 -0.2 5000200.0
84.7368 -0.98 -0.2 5000134.228
84.7368 -1.0 -0.2 5000134.228
84.7368 -1.02 -0.2 5000134.228
64.806 -1.04 -0.2 5000101.01
34.65684 -1.72 -0.2 5000050.7614
31.28802 -1.74 -0.2 5000045.1467
16.419959999999996 -1.94 -0.2 5000020.3666
24.53898 -2.24 -0.2 5000033.8983
24.53898 -2.26 -0.2 5000033.8983
20.4822 -2.78 -0.2 5000027.137
52.78302 1.18 -0.22 5000080.9717
84.7368 0.68 -0.22 5000134.228
84.7368 0.66 -0.22 5000134.228
38.9826 -0.48 -0.22 5000057.971
64.806 -0.7 -0.22 5000101.01
64.806 -0.84 -0.22 5000101.01
22.97934 -0.86 -0.22 5000031.2989
84.7368 -0.98 -0.22 5000134.228
64.806 -1.02 -0.22 5000101.01
64.806 -1.04 -0.22 5000101.01
52.78302 -1.14 -0.22 5000080.9717
52.78302 -1.16 -0.22 5000080.9717
84.7368 -1.22 -0.22 5000134.228
84.7368 -1.26 -0.22 5000134.228
84.7368 -1.28 -0.22 5000134.228
34.65684 -1.38 -0.22 5000050.7614
26.38116 -1.42 -0.22 5000036.9686
22.97934 -1.44 -0.22 5000031.2989
28.590239999999998 -1.5 -0.22 5000040.6504
22.97934 -1.56 -0.22 5000031.2989
31.28802 4.8 -0.24 5000045.1467
64.806 2.58 -0.24 5000101.01
52.78302 1.18 -0.24 5000080.9717
84.7368 1.02 -0.24 5000134.228
84.7368 0.7 -0.24 5000134.228
84.7368 0.68 -0.24 5000134.228
84.7368 0.66 -0.24 5000134.228
38.9826 -0.48 -0.24 5000057.971
84.7368 -1.22 -0.24 5000134.228
84.7368 -1.24 -0.24 5000134.228
84.7368 -1.26 -0.24 5000134.228
84.7368 -1.34 -0.24 5000134.228
84.7368 -1.36 -0.24 5000134.228
34.65684 -1.38 -0.24 5000050.7614
31.28802 -1.4 -0.24 5000045.1467
28.590239999999998 -1.5 -0.24 5000040.6504
31.28802 -1.78 -0.24 5000045.1467
12.933599999999998 -1.84 -0.24 5000014.556
12.3522 -1.86 -0.24 5000013.587
12.08952 -1.9 -0.24 5000013.1492
21.64188 -2.64 -0.24 5000029.0698
21.64188 -2.66 -0.24 5000029.0698
14.386740000000001 -4.62 -0.24 5000016.9779
15.83916 -4.96 -0.24 5000019.3986
14.82888 -5.0 -0.24 5000017.7148
14.82888 -5.02 -0.24 5000017.7148
31.28802 4.8 -0.26 5000045.1467
84.7368 1.46 -0.26 5000134.228
52.78302 1.18 -0.26 5000080.9717
84.7368 1.02 -0.26 5000134.228
84.7368 1.0 -0.26 5000134.228
84.7368 0.7 -0.26 5000134.228
124.19999999999999 -0.4 -0.26 5000200.0
38.9826 -0.48 -0.26 5000057.971
19.467180000000003 -0.62 -0.26 5000025.4453
19.467180000000003 -0.64 -0.26 5000025.4453
124.19999999999999 -0.78 -0.26 5000200.0
124.19999999999999 -0.8 -0.26 5000200.0
124.19999999999999 -0.82 -0.26 5000200.0
84.7368 -1.24 -0.26 5000134.228
84.7368 -1.26 -0.26 5000134.228
84.7368 -1.36 -0.26 5000134.228
34.65684 -1.38 -0.26 5000050.7614
31.28802 -1.4 -0.26 5000045.1467
26.38116 -1.42 -0.26 5000036.9686
22.97934 -1.58 -0.26 5000031.2989
31.28802 -1.78 -0.26 5000045.1467
28.590239999999998 -1.8 -0.26 5000040.6504
12.933599999999998 -1.84 -0.26 5000014.556
12.3522 -1.86 -0.26 5000013.587
12.08952 -1.9 -0.26 5000013.1492
18.57126 -2.94 -0.26 5000023.9521
18.57126 -3.6 -0.26 5000023.9521
18.57126 -3.62 -0.26 5000023.9521
17.77464 -3.64 -0.26 5000022.6244
14.386740000000001 -4.62 -0.26 5000016.9779
15.83916 -4.94 -0.26 5000019.3986
31.28802 4.8 -0.28 5000045.1467
44.74056 2.04 -0.28 5000067.5676
84.7368 1.46 -0.28 5000134.228
124.19999999999999 1.34 -0.28 5000200.0
84.7368 1.02 -0.28 5000134.228
84.7368 1.0 -0.28 5000134.228
84.7368 0.7 -0.28 5000134.228
84.7368 0.36 -0.28 5000134.228
38.9826 -0.48 -0.28 5000057.971
19.467180000000003 -0.62 -0.28 5000025.4453
19.467180000000003 -0.64 -0.28 5000025.4453
22.97934 -1.56 -0.28 5000031.2989
31.28802 -1.78 -0.28 5000045.1467
28.590239999999998 -1.8 -0.28 5000040.6504
21.64188 -2.56 -0.28 5000029.0698
21.64188 -2.58 -0.28 5000029.0698
18.57126 -3.62 -0.28 5000023.9521
17.77464 -3.64 -0.28 5000022.6244
17.77464 -3.66 -0.28 5000022.6244
14.386740000000001 -4.62 -0.28 5000016.9779
52.78302 2.68 -0.3 5000080.9717
44.74056 2.04 -0.3 5000067.5676
84.7368 1.46 -0.3 5000134.228
124.19999999999999 1.34 -0.3 5000200.0
52.78302 1.18 -0.3 5000080.9717
84.7368 0.72 -0.3 5000134.228
84.7368 0.7 -0.3 5000134.228
84.7368 0.68 -0.3 5000134.228
84.7368 0.36 -0.3 5000134.228
64.806 -0.04 -0.3 5000101.01
22.97934 -2.18 -0.3 5000031.2989
21.64188 -2.56 -0.3 5000029.0698
21.64188 -2.58 -0.3 5000029.0698
17.77464 -3.16 -0.3 5000022.6244
17.06172 -3.68 -0.3 5000021.4362
16.419959999999996 -3.7 -0.3 5000020.3666
15.3111 -4.5 -0.3 5000018.5185
14.82888 -4.52 -0.3 5000017.7148
15.3111 -4.54 -0.3 5000018.5185
14.82888 -4.56 -0.3 5000017.7148
14.386740000000001 -4.62 -0.3 5000016.9779
52.78302 2.68 -0.32 5000080.9717
64.806 2.6 -0.32 5000101.01
52.78302 1.56 -0.32 5000080.9717
84.7368 1.46 -0.32 5000134.228
124.19999999999999 1.34 -0.32 5000200.0
52.78302 1.18 -0.32 5000080.9717
84.7368 1.02 -0.32 5000134.228
84.7368 0.68 -0.32 5000134.228
84.7368 0.36 -0.32 5000134.228
34.65684 0.3 -0.32 5000050.7614
22.97934 -2.18 -0.32 5000031.2989
22.97934 -2.2 -0.32 5000031.2989
17.77464 -2.64 -0.32 5000022.6244
17.77464 -3.14 -0.32 5000022.6244
17.77464 -3.16 -0.32 5000022.6244
18.57126 -3.58 -0.32 5000023.9521
18.57126 -3.6 -0.32 5000023.9521
18.57126 -3.62 -0.32 5000023.9521
15.3111 -4.48 -0.32 5000018.5185
31.28802 4.44 -0.34 5000045.1467
52.78302 2.68 -0.34 5000080.9717
64.806 2.6 -0.34 5000101.01
52.78302 1.56 -0.34 5000080.9717
84.7368 1.46 -0.34 5000134.228
124.19999999999999 1.34 -0.34 5000200.0
52.78302 1.18 -0.34 5000080.9717
84.7368 1.02 -0.34 5000134.228
84.7368 1.0 -0.34 5000134.228
84.7368 0.8 -0.34 5000134.228
21.64188 -2.54 -0.34 5000029.0698
21.64188 -2.56 -0.34 5000029.0698
17.77464 -3.14 -0.34 5000022.6244
17.77464 -3.16 -0.34 5000022.6244
18.57126 -3.6 -0.34 5000023.9521
18.57126 -3.62 -0.34 5000023.9521
15.83916 -3.72 -0.34 5000019.3986
14.82888 -4.34 -0.34 5000017.7148
14.82888 -4.36 -0.34 5000017.7148
14.82888 -4.38 -0.34 5000017.7148
14.386740000000001 -4.4 -0.34 5000016.9779
12.3522 -5.16 -0.34 5000013.587
12.3522 -5.18 -0.34 5000013.587
64.806 2.6 -0.36 5000101.01
52.78302 1.62 -0.36 5000080.9717
84.7368 1.46 -0.36 5000134.228
124.19999999999999 1.34 -0.36 5000200.0
84.7368 1.02 -0.36 5000134.228
84.7368 0.82 -0.36 5000134.228
84.7368 0.8 -0.36 5000134.228
84.7368 -1.62 -0.36 5000134.228
84.7368 -1.64 -0.36 5000134.228
31.28802 -1.74 -0.36 5000045.1467
31.28802 -1.76 -0.36 5000045.1467
19.467180000000003 -1.86 -0.36 5000025.4453
22.97934 -2.18 -0.36 5000031.2989
21.64188 -2.54 -0.36 5000029.0698
17.77464 -3.14 -0.36 5000022.6244
17.77464 -3.16 -0.36 5000022.6244
18.57126 -3.62 -0.36 5000023.9521
18.57126 -3.64 -0.36 5000023.9521
14.386740000000001 -4.22 -0.36 5000016.9779
14.386740000000001 -4.24 -0.36 5000016.9779
14.82888 -4.34 -0.36 5000017.7148
14.82888 -4.36 -0.36 5000017.7148
14.82888 -4.52 -0.36 5000017.7148
15.3111 -4.74 -0.36 5000018.5185
15.3111 -4.76 -0.36 5000018.5185
15.3111 -4.78 -0.36 5000018.5185
15.3111 -4.8 -0.36 5000018.5185
13.6044 -5.02 -0.36 5000015.674
13.6044 -5.04 -0.36 5000015.674
13.25658 -5.06 -0.36 5000015.0943
12.933599999999998 -5.08 -0.36 5000014.556
12.933599999999998 -5.1 -0.36 5000014.556
12.63288 -5.12 -0.36 5000014.0548
12.3522 -5.14 -0.36 5000013.587
11.843340000000001 -5.9 -0.36 5000012.7389
11.843340000000001 -5.92 -0.36 5000012.7389
11.843340000000001 -5.94 -0.36 5000012.7389
31.28802 4.74 -0.38 5000045.1467
52.78302 2.68 -0.38 5000080.9717
64.806 2.6 -0.38 5000101.01
84.7368 1.46 -0.38 5000134.228
31.28802 -1.74 -0.38 5000045.1467
31.28802 -1.76 -0.38 5000045.1467
17.77464 -3.14 -0.38 5000022.6244
17.77464 -3.16 -0.38 5000022.6244
17.77464 -3.18 -0.38 5000022.6244
18.57126 -3.62 -0.38 5000023.9521
18.57126 -3.64 -0.38 5000023.9521
14.386740000000001 -4.2 -0.38 5000016.9779
14.386740000000001 -4.22 -0.38 5000016.9779
14.386740000000001 -4.24 -0.38 5000016.9779
15.83916 -4.72 -0.38 5000019.3986
15.3111 -4.78 -0.38 5000018.5185
31.28802 4.74 -0.4 5000045.1467
52.78302 2.68 -0.4 5000080.9717
64.806 2.6 -0.4 5000101.01
31.28802 -1.74 -0.4 5000045.1467
31.28802 -1.76 -0.4 5000045.1467
24.53898 -2.18 -0.4 5000033.8983
16.419959999999996 -2.34 -0.4 5000020.3666
19.467180000000003 -2.68 -0.4 5000025.4453
19.467180000000003 -2.7 -0.4 5000025.4453
19.467180000000003 -2.86 -0.4 5000025.4453
19.467180000000003 -2.88 -0.4 5000025.4453
17.77464 -3.14 -0.4 5000022.6244
17.77464 -3.16 -0.4 5000022.6244
17.77464 -3.18 -0.4 5000022.6244
18.57126 -3.62 -0.4 5000023.9521
18.57126 -3.64 -0.4 5000023.9521
15.83916 -3.72 -0.4 5000019.3986
15.83916 -3.76 -0.4 5000019.3986
15.3111 -4.7 -0.4 5000018.5185
15.3111 -4.72 -0.4 5000018.5185
15.3111 -4.74 -0.4 5000018.5185
11.61198 -5.38 -0.4 5000012.3533
11.843340000000001 -5.8 -0.4 5000012.7389
11.843340000000001 -5.82 -0.4 5000012.7389
11.843340000000001 -5.84 -0.4 5000012.7389
11.61198 -5.86 -0.4 5000012.3533
52.78302 3.36 -0.42 5000080.9717
52.78302 2.68 -0.42 5000080.9717
64.806 2.6 -0.42 5000101.01
24.53898 -1.96 -0.42 5000033.8983
24.53898 -2.18 -0.42 5000033.8983
24.53898 -2.2 -0.42 5000033.8983
19.467180000000003 -2.26 -0.42 5000025.4453
16.419959999999996 -2.32 -0.42 5000020.3666
16.419959999999996 -2.34 -0.42 5000020.3666
20.4822 -2.58 -0.42 5000027.137
20.4822 -2.6 -0.42 5000027.137
17.77464 -3.16 -0.42 5000022.6244
17.77464 -3.18 -0.42 5000022.6244
11.843340000000001 -5.56 -0.42 5000012.7389
11.843340000000001 -5.58 -0.42 5000012.7389
11.843340000000001 -5.8 -0.42 5000012.7389
11.843340000000001 -5.82 -0.42 5000012.7389
12.63288 -5.96 -0.42 5000014.0548
12.63288 -5.98 -0.42 5000014.0548
12.3522 -6.0 -0.42 5000013.587
12.3522 -6.02 -0.42 5000013.587
31.28802 3.22 -0.44 5000045.1467
34.65684 -1.54 -0.44 5000050.7614
34.65684 -1.56 -0.44 5000050.7614
34.65684 -1.58 -0.44 5000050.7614
24.53898 -1.66 -0.44 5000033.8983
31.28802 -1.68 -0.44 5000045.1467
24.53898 -1.98 -0.44 5000033.8983
24.53898 -2.08 -0.44 5000033.8983
24.53898 -2.1 -0.44 5000033.8983
22.97934 -2.18 -0.44 5000031.2989
22.97934 -2.2 -0.44 5000031.2989
20.4822 -2.58 -0.44 5000027.137
20.4822 -2.6 -0.44 5000027.137
15.3111 -4.66 -0.44 5000018.5185
15.3111 -4.68 -0.44 5000018.5185
15.3111 -4.7 -0.44 5000018.5185
11.61198 -5.36 -0.44 5000012.3533
12.3522 -6.0 -0.44 5000013.587
12.3522 -6.02 -0.44 5000013.587
12.3522 -6.04 -0.44 5000013.587
12.3522 -6.06 -0.44 5000013.587
12.3522 -6.56 -0.44 5000013.587
12.3522 -6.58 -0.44 5000013.587
38.9826 2.24 -0.46 5000057.971
34.65684 -1.54 -0.46 5000050.7614
34.65684 -1.56 -0.46 5000050.7614
34.65684 -1.58 -0.46 5000050.7614
31.28802 -1.62 -0.46 5000045.1467
24.53898 -1.66 -0.46 5000033.8983
31.28802 -1.68 -0.46 5000045.1467
31.28802 -1.7 -0.46 5000045.1467
21.64188 -1.76 -0.46 5000029.0698
21.64188 -1.78 -0.46 5000029.0698
24.53898 -1.98 -0.46 5000033.8983
24.53898 -2.1 -0.46 5000033.8983
24.53898 -2.12 -0.46 5000033.8983
22.97934 -2.18 -0.46 5000031.2989
22.97934 -2.2 -0.46 5000031.2989
22.97934 -2.22 -0.46 5000031.2989
19.467180000000003 -2.26 -0.46 5000025.4453
20.4822 -2.6 -0.46 5000027.137
20.4822 -2.62 -0.46 5000027.137
16.419959999999996 -2.72 -0.46 5000020.3666
15.83916 -3.66 -0.46 5000019.3986
15.3111 -3.68 -0.46 5000018.5185
15.3111 -3.7 -0.46 5000018.5185
15.3111 -3.72 -0.46 5000018.5185
14.82888 -3.82 -0.46 5000017.7148
15.3111 -4.7 -0.46 5000018.5185
12.3522 -6.06 -0.46 5000013.587
12.08952 -6.08 -0.46 5000013.1492
34.65684 0.34 -0.48 5000050.7614
34.65684 0.32 -0.48 5000050.7614
24.53898 -1.66 -0.48 5000033.8983
24.53898 -2.1 -0.48 5000033.8983
24.53898 -2.12 -0.48 5000033.8983
22.97934 -2.2 -0.48 5000031.2989
19.467180000000003 -2.22 -0.48 5000025.4453
20.4822 -2.6 -0.48 5000027.137
20.4822 -2.62 -0.48 5000027.137
17.77464 -2.66 -0.48 5000022.6244
17.06172 -2.68 -0.48 5000021.4362
17.06172 -2.7 -0.48 5000021.4362
15.83916 -3.62 -0.48 5000019.3986
15.83916 -3.64 -0.48 5000019.3986
15.83916 -3.66 -0.48 5000019.3986
15.3111 -3.68 -0.48 5000018.5185
15.3111 -4.52 -0.48 5000018.5185
15.3111 -4.54 -0.48 5000018.5185
14.82888 -4.56 -0.48 5000017.7148
14.82888 -4.58 -0.48 5000017.7148
14.386740000000001 -4.6 -0.48 5000016.9779
12.3522 -6.58 -0.48 5000013.587
31.28802 3.26 -0.5 5000045.1467
28.590239999999998 -1.88 -0.5 5000040.6504
24.53898 -2.1 -0.5 5000033.8983
24.53898 -2.12 -0.5 5000033.8983
17.77464 -3.06 -0.5 5000022.6244
15.83916 -3.66 -0.5 5000019.3986
15.3111 -3.68 -0.5 5000018.5185
14.386740000000001 -3.76 -0.5 5000016.9779
14.386740000000001 -4.78 -0.5 5000016.9779
14.386740000000001 -4.8 -0.5 5000016.9779
12.933599999999998 -4.9 -0.5 5000014.556
12.63288 -4.98 -0.5 5000014.0548
11.843340000000001 -6.14 -0.5 5000012.7389
31.28802 3.26 -0.52 5000045.1467
64.806 -1.76 -0.52 5000101.01
28.590239999999998 -1.86 -0.52 5000040.6504
28.590239999999998 -1.88 -0.52 5000040.6504
28.590239999999998 -1.9 -0.52 5000040.6504
18.57126 -2.0 -0.52 5000023.9521
24.53898 -2.1 -0.52 5000033.8983
16.419959999999996 -2.26 -0.52 5000020.3666
16.419959999999996 -2.28 -0.52 5000020.3666
17.77464 -3.06 -0.52 5000022.6244
15.83916 -3.74 -0.52 5000019.3986
13.979940000000001 -3.82 -0.52 5000016.2999
13.979940000000001 -3.84 -0.52 5000016.2999
14.386740000000001 -4.78 -0.52 5000016.9779
28.590239999999998 -1.86 -0.54 5000040.6504
28.590239999999998 -1.88 -0.54 5000040.6504
16.419959999999996 -2.26 -0.54 5000020.3666
19.467180000000003 -2.62 -0.54 5000025.4453
17.77464 -3.3 -0.54 5000022.6244
17.77464 -3.32 -0.54 5000022.6244
17.77464 -3.34 -0.54 5000022.6244
13.6044 -3.92 -0.54 5000015.674
12.63288 -4.96 -0.54 5000014.0548
12.63288 -5.2 -0.54 5000014.0548
12.3522 -5.22 -0.54 5000013.587
11.61198 -5.76 -0.54 5000012.3533
12.933599999999998 -5.88 -0.54 5000014.556
12.933599999999998 -5.9 -0.54 5000014.556
12.63288 -5.92 -0.54 5000014.0548
12.3522 -5.94 -0.54 5000013.587
12.08952 -5.96 -0.54 5000013.1492
12.08952 -5.98 -0.54 5000013.1492
38.9826 -0.94 -0.56 5000057.971
31.28802 -0.98 -0.56 5000045.1467
28.590239999999998 -1.0 -0.56 5000040.6504
21.64188 -2.44 -0.56 5000029.0698
19.467180000000003 -2.64 -0.56 5000025.4453
19.467180000000003 -2.7 -0.56 5000025.4453
17.77464 -3.32 -0.56 5000022.6244
17.77464 -3.34 -0.56 5000022.6244
15.3111 -3.4 -0.56 5000018.5185
12.08952 -5.26 -0.56 5000013.1492
11.843340000000001 -5.28 -0.56 5000012.7389
12.08952 -5.96 -0.56 5000013.1492
12.08952 -5.98 -0.56 5000013.1492
12.08952 -6.0 -0.56 5000013.1492
31.28802 3.24 -0.58 5000045.1467
38.9826 -0.92 -0.58 5000057.971
31.28802 -0.98 -0.58 5000045.1467
28.590239999999998 -1.0 -0.58 5000040.6504
26.38116 -1.96 -0.58 5000036.9686
26.38116 -1.98 -0.58 5000036.9686
24.53898 -2.02 -0.58 5000033.8983
20.4822 -2.04 -0.58 5000027.137
24.53898 -2.14 -0.58 5000033.8983
24.53898 -2.16 -0.58 5000033.8983
19.467180000000003 -2.64 -0.58 5000025.4453
17.77464 -3.34 -0.58 5000022.6244
12.63288 -4.82 -0.58 5000014.0548
13.979940000000001 -5.06 -0.58 5000016.2999
13.979940000000001 -5.08 -0.58 5000016.2999
12.08952 -5.26 -0.58 5000013.1492
12.08952 -5.98 -0.58 5000013.1492
12.08952 -6.0 -0.58 5000013.1492
11.843340000000001 -6.02 -0.58 5000012.7389
11.61198 -6.04 -0.58 5000012.3533
26.38116 5.92 -0.6 5000036.9686
31.28802 3.24 -0.6 5000045.1467
38.9826 -0.92 -0.6 5000057.971
31.28802 -0.98 -0.6 5000045.1467
26.38116 -1.94 -0.6 5000036.9686
26.38116 -1.96 -0.6 5000036.9686
26.38116 -1.98 -0.6 5000036.9686
20.4822 -2.04 -0.6 5000027.137
24.53898 -2.14 -0.6 5000033.8983
24.53898 -2.16 -0.6 5000033.8983
24.53898 -2.18 -0.6 5000033.8983
22.97934 -2.2 -0.6 5000031.2989
14.82888 -2.22 -0.6 5000017.7148
17.06172 -2.28 -0.6 5000021.4362
19.467180000000003 -2.66 -0.6 5000025.4453
14.386740000000001 -4.36 -0.6 5000016.9779
14.386740000000001 -4.38 -0.6 5000016.9779
14.386740000000001 -4.5 -0.6 5000016.9779
14.386740000000001 -4.52 -0.6 5000016.9779
13.979940000000001 -4.64 -0.6 5000016.2999
13.979940000000001 -4.66 -0.6 5000016.2999
13.979940000000001 -4.68 -0.6 5000016.2999
12.63288 -4.9 -0.6 5000014.0548
12.63288 -4.92 -0.6 5000014.0548
11.843340000000001 -6.0 -0.6 5000012.7389
11.843340000000001 -6.02 -0.6 5000012.7389
11.61198 -6.04 -0.6 5000012.3533
11.61198 -6.06 -0.6 5000012.3533
31.28802 3.24 -0.62 5000045.1467
24.53898 -2.16 -0.62 5000033.8983
19.467180000000003 -2.66 -0.62 5000025.4453
14.386740000000001 -4.38 -0.62 5000016.9779
13.979940000000001 -4.4 -0.62 5000016.2999
13.979940000000001 -4.66 -0.62 5000016.2999
13.979940000000001 -4.68 -0.62 5000016.2999
12.63288 -4.9 -0.62 5000014.0548
12.63288 -4.92 -0.62 5000014.0548
12.63288 -4.98 -0.62 5000014.0548
11.61198 -6.06 -0.62 5000012.3533
11.394240000000002 -6.08 -0.62 5000011.9904
24.53898 -2.14 -0.64 5000033.8983
24.53898 -2.16 -0.64 5000033.8983
20.4822 -2.5 -0.64 5000027.137
19.467180000000003 -2.66 -0.64 5000025.4453
18.57126 -2.92 -0.64 5000023.9521
17.77464 -2.94 -0.64 5000022.6244
16.419959999999996 -2.98 -0.64 5000020.3666
15.83916 -3.0 -0.64 5000019.3986
14.386740000000001 -4.28 -0.64 5000016.9779
14.386740000000001 -4.3 -0.64 5000016.9779
13.979940000000001 -4.4 -0.64 5000016.2999
13.979940000000001 -4.42 -0.64 5000016.2999
13.6044 -4.7 -0.64 5000015.674
13.6044 -4.72 -0.64 5000015.674
13.25658 -4.74 -0.64 5000015.0943
13.25658 -4.76 -0.64 5000015.0943
13.25658 -4.78 -0.64 5000015.0943
12.63288 -4.98 -0.64 5000014.0548
11.394240000000002 -5.86 -0.64 5000011.9904
11.394240000000002 -6.12 -0.64 5000011.9904
31.28802 3.52 -0.66 5000045.1467
31.28802 3.5 -0.66 5000045.1467
34.65684 -0.92 -0.66 5000050.7614
24.53898 -2.12 -0.66 5000033.8983
24.53898 -2.14 -0.66 5000033.8983
20.4822 -2.5 -0.66 5000027.137
19.467180000000003 -2.66 -0.66 5000025.4453
18.57126 -2.92 -0.66 5000023.9521
18.57126 -2.94 -0.66 5000023.9521
15.83916 -2.98 -0.66 5000019.3986
15.83916 -3.0 -0.66 5000019.3986
16.419959999999996 -3.62 -0.66 5000020.3666
14.386740000000001 -3.7 -0.66 5000016.9779
14.386740000000001 -3.72 -0.66 5000016.9779
14.386740000000001 -4.28 -0.66 5000016.9779
14.386740000000001 -4.3 -0.66 5000016.9779
13.979940000000001 -4.44 -0.66 5000016.2999
13.25658 -4.74 -0.66 5000015.0943
13.25658 -4.76 -0.66 5000015.0943
12.933599999999998 -4.78 -0.66 5000014.556
12.933599999999998 -4.8 -0.66 5000014.556
34.65684 -0.92 -0.68 5000050.7614
26.38116 -0.98 -0.68 5000036.9686
26.38116 -1.0 -0.68 5000036.9686
124.19999999999999 -2.2 -0.68 5000200.0
124.19999999999999 -2.22 -0.68 5000200.0
20.4822 -2.5 -0.68 5000027.137
18.57126 -2.92 -0.68 5000023.9521
15.83916 -3.0 -0.68 5000019.3986
15.83916 -3.02 -0.68 5000019.3986
16.419959999999996 -3.62 -0.68 5000020.3666
16.419959999999996 -3.64 -0.68 5000020.3666
14.386740000000001 -4.26 -0.68 5000016.9779
13.979940000000001 -4.44 -0.68 5000016.2999
13.25658 -4.74 -0.68 5000015.0943
13.25658 -4.76 -0.68 5000015.0943
12.933599999999998 -4.78 -0.68 5000014.556
12.933599999999998 -4.8 -0.68 5000014.556
12.63288 -4.82 -0.68 5000014.0548
34.65684 -0.92 -0.7 5000050.7614
26.38116 -0.98 -0.7 5000036.9686
26.38116 -1.0 -0.7 5000036.9686
124.19999999999999 -2.22 -0.7 5000200.0
22.97934 -2.26 -0.7 5000031.2989
22.97934 -2.28 -0.7 5000031.2989
18.57126 -2.34 -0.7 5000023.9521
20.4822 -2.48 -0.7 5000027.137
20.4822 -2.5 -0.7 5000027.137
20.4822 -2.52 -0.7 5000027.137
18.57126 -2.92 -0.7 5000023.9521
15.83916 -3.0 -0.7 5000019.3986
15.83916 -3.02 -0.7 5000019.3986
15.83916 -3.66 -0.7 5000019.3986
14.386740000000001 -4.26 -0.7 5000016.9779
13.979940000000001 -4.42 -0.7 5000016.2999
13.979940000000001 -4.44 -0.7 5000016.2999
13.979940000000001 -4.46 -0.7 5000016.2999
12.63288 -4.82 -0.7 5000014.0548
12.3522 -4.84 -0.7 5000013.587
11.61198 -5.94 -0.7 5000012.3533
11.61198 -5.96 -0.7 5000012.3533
11.61198 -5.98 -0.7 5000012.3533
26.38116 -0.98 -0.72 5000036.9686
26.38116 -1.0 -0.72 5000036.9686
22.97934 -2.26 -0.72 5000031.2989
22.97934 -2.28 -0.72 5000031.2989
18.57126 -2.34 -0.72 5000023.9521
20.4822 -2.48 -0.72 5000027.137
20.4822 -2.5 -0.72 5000027.137
12.933599999999998 -2.56 -0.72 5000014.556
12.933599999999998 -2.58 -0.72 5000014.556
13.979940000000001 -2.68 -0.72 5000016.2999
13.979940000000001 -2.72 -0.72 5000016.2999
18.57126 -2.92 -0.72 5000023.9521
15.3111 -3.02 -0.72 5000018.5185
13.979940000000001 -4.44 -0.72 5000016.2999
13.979940000000001 -4.46 -0.72 5000016.2999
13.979940000000001 -4.48 -0.72 5000016.2999
11.61198 -5.96 -0.72 5000012.3533
10.472879999999998 -6.6 -0.72 5000010.4548
10.472879999999998 -6.62 -0.72 5000010.4548
10.316220000000001 -6.64 -0.72 5000010.1937
10.316220000000001 -6.66 -0.72 5000010.1937
10.16718 -6.68 -0.72 5000009.9453
10.025244 -6.7 -0.72 5000009.70874
20.4822 -2.48 -0.74 5000027.137
20.4822 -2.5 -0.74 5000027.137
13.979940000000001 -2.72 -0.74 5000016.2999
13.979940000000001 -2.74 -0.74 5000016.2999
18.57126 -2.9 -0.74 5000023.9521
18.57126 -2.92 -0.74 5000023.9521
18.57126 -2.94 -0.74 5000023.9521
15.3111 -3.04 -0.74 5000018.5185
17.06172 -3.52 -0.74 5000021.4362
16.419959999999996 -3.54 -0.74 5000020.3666
16.419959999999996 -3.56 -0.74 5000020.3666
15.83916 -3.58 -0.74 5000019.3986
15.3111 -3.6 -0.74 5000018.5185
13.979940000000001 -4.46 -0.74 5000016.2999
13.979940000000001 -4.48 -0.74 5000016.2999
11.394240000000002 -5.8 -0.74 5000011.9904
11.394240000000002 -5.82 -0.74 5000011.9904
10.472879999999998 -6.58 -0.74 5000010.4548
10.472879999999998 -6.6 -0.74 5000010.4548
10.472879999999998 -6.62 -0.74 5000010.4548
21.64188 -2.48 -0.76 5000029.0698
21.64188 -2.5 -0.76 5000029.0698
18.57126 -2.9 -0.76 5000023.9521
18.57126 -2.92 -0.76 5000023.9521
18.57126 -2.94 -0.76 5000023.9521
14.82888 -3.04 -0.76 5000017.7148
17.77464 -3.5 -0.76 5000022.6244
17.06172 -3.52 -0.76 5000021.4362
16.419959999999996 -3.54 -0.76 5000020.3666
16.419959999999996 -3.56 -0.76 5000020.3666
15.83916 -3.58 -0.76 5000019.3986
14.82888 -3.62 -0.76 5000017.7148
14.82888 -3.64 -0.76 5000017.7148
14.386740000000001 -3.66 -0.76 5000016.9779
11.394240000000002 -5.82 -0.76 5000011.9904
10.472879999999998 -6.58 -0.76 5000010.4548
18.57126 -2.92 -0.78 5000023.9521
18.57126 -2.94 -0.78 5000023.9521
12.933599999999998 -4.72 -0.78 5000014.556
12.933599999999998 -4.74 -0.78 5000014.556
12.933599999999998 -4.76 -0.78 5000014.556
12.08952 -5.1 -0.78 5000013.1492
11.394240000000002 -5.82 -0.78 5000011.9904
10.995 -5.88 -0.78 5000011.325
28.590239999999998 -1.0 -0.8 5000040.6504
22.97934 -1.06 -0.8 5000031.2989
21.64188 -1.08 -0.8 5000029.0698
17.77464 -3.16 -0.8 5000022.6244
17.77464 -3.18 -0.8 5000022.6244
17.06172 -3.2 -0.8 5000021.4362
14.386740000000001 -4.1 -0.8 5000016.9779
14.386740000000001 -4.12 -0.8 5000016.9779
12.933599999999998 -4.2 -0.8 5000014.556
12.933599999999998 -4.72 -0.8 5000014.556
12.933599999999998 -4.74 -0.8 5000014.556
12.933599999999998 -4.76 -0.8 5000014.556
11.394240000000002 -5.82 -0.8 5000011.9904
11.394240000000002 -5.98 -0.8 5000011.9904
11.394240000000002 -6.0 -0.8 5000011.9904
11.394240000000002 -6.02 -0.8 5000011.9904
10.472879999999998 -6.5 -0.8 5000010.4548
10.472879999999998 -6.52 -0.8 5000010.4548
28.590239999999998 -1.02 -0.82 5000040.6504
21.64188 -1.1 -0.82 5000029.0698
20.4822 -2.58 -0.82 5000027.137
20.4822 -2.6 -0.82 5000027.137
20.4822 -2.62 -0.82 5000027.137
19.467180000000003 -2.8 -0.82 5000025.4453
17.77464 -3.0 -0.82 5000022.6244
18.57126 -3.12 -0.82 5000023.9521
17.77464 -3.14 -0.82 5000022.6244
17.77464 -3.16 -0.82 5000022.6244
17.77464 -3.18 -0.82 5000022.6244
14.386740000000001 -4.1 -0.82 5000016.9779
14.386740000000001 -4.12 -0.82 5000016.9779
13.25658 -4.2 -0.82 5000015.0943
12.933599999999998 -4.22 -0.82 5000014.556
13.979940000000001 -4.6 -0.82 5000016.2999
13.6044 -4.62 -0.82 5000015.674
13.25658 -4.64 -0.82 5000015.0943
13.25658 -4.66 -0.82 5000015.0943
13.25658 -4.68 -0.82 5000015.0943
10.472879999999998 -6.48 -0.82 5000010.4548
10.472879999999998 -6.5 -0.82 5000010.4548
10.472879999999998 -6.52 -0.82 5000010.4548
10.637759999999998 -6.74 -0.82 5000010.7296
28.590239999999998 -1.04 -0.84 5000040.6504
20.4822 -1.12 -0.84 5000027.137
20.4822 -2.6 -0.84 5000027.137
20.4822 -2.62 -0.84 5000027.137
19.467180000000003 -2.64 -0.84 5000025.4453
15.3111 -2.74 -0.84 5000018.5185
17.77464 -2.98 -0.84 5000022.6244
17.77464 -3.0 -0.84 5000022.6244
14.386740000000001 -4.08 -0.84 5000016.9779
14.386740000000001 -4.1 -0.84 5000016.9779
14.386740000000001 -4.12 -0.84 5000016.9779
13.25658 -4.2 -0.84 5000015.0943
12.933599999999998 -4.22 -0.84 5000014.556
12.933599999999998 -4.24 -0.84 5000014.556
12.933599999999998 -4.26 -0.84 5000014.556
13.25658 -4.66 -0.84 5000015.0943
13.25658 -4.68 -0.84 5000015.0943
12.933599999999998 -4.7 -0.84 5000014.556
11.61198 -6.0 -0.84 5000012.3533
11.394240000000002 -6.02 -0.84 5000011.9904
11.394240000000002 -6.04 -0.84 5000011.9904
10.472879999999998 -6.46 -0.84 5000010.4548
10.472879999999998 -6.48 -0.84 5000010.4548
10.472879999999998 -6.5 -0.84 5000010.4548
10.637759999999998 -6.72 -0.84 5000010.7296
10.637759999999998 -6.74 -0.84 5000010.7296
20.4822 -1.12 -0.86 5000027.137
20.4822 -1.14 -0.86 5000027.137
17.77464 -2.98 -0.86 5000022.6244
17.77464 -3.0 -0.86 5000022.6244
15.83916 -3.66 -0.86 5000019.3986
14.386740000000001 -4.08 -0.86 5000016.9779
14.386740000000001 -4.1 -0.86 5000016.9779
13.6044 -4.16 -0.86 5000015.674
13.25658 -4.18 -0.86 5000015.0943
13.979940000000001 -4.3 -0.86 5000016.2999
12.933599999999998 -4.7 -0.86 5000014.556
12.933599999999998 -5.9 -0.86 5000014.556
12.933599999999998 -5.92 -0.86 5000014.556
12.63288 -5.94 -0.86 5000014.0548
12.08952 -5.96 -0.86 5000013.1492
11.843340000000001 -5.98 -0.86 5000012.7389
11.61198 -6.0 -0.86 5000012.3533
11.61198 -6.02 -0.86 5000012.3533
11.394240000000002 -6.04 -0.86 5000011.9904
11.18892 -6.06 -0.86 5000011.6482
11.18892 -6.08 -0.86 5000011.6482
10.472879999999998 -6.46 -0.86 5000010.4548
20.4822 -1.12 -0.88 5000027.137
20.4822 -1.14 -0.88 5000027.137
17.77464 -3.0 -0.88 5000022.6244
17.77464 -3.02 -0.88 5000022.6244
14.82888 -4.08 -0.88 5000017.7148
14.82888 -4.1 -0.88 5000017.7148
13.979940000000001 -4.28 -0.88 5000016.2999
13.979940000000001 -4.3 -0.88 5000016.2999
13.25658 -4.54 -0.88 5000015.0943
13.25658 -4.56 -0.88 5000015.0943
13.25658 -4.58 -0.88 5000015.0943
11.61198 -6.0 -0.88 5000012.3533
11.61198 -6.02 -0.88 5000012.3533
11.394240000000002 -6.04 -0.88 5000011.9904
11.18892 -6.06 -0.88 5000011.6482
11.18892 -6.08 -0.88 5000011.6482
10.995 -6.1 -0.88 5000011.325
10.995 -6.12 -0.88 5000011.325
10.472879999999998 -6.44 -0.88 5000010.4548
10.472879999999998 -6.46 -0.88 5000010.4548
17.77464 -2.98 -0.9 5000022.6244
17.77464 -3.0 -0.9 5000022.6244
17.77464 -3.02 -0.9 5000022.6244
14.82888 -4.08 -0.9 5000017.7148
14.82888 -4.1 -0.9 5000017.7148
13.25658 -4.54 -0.9 5000015.0943
13.25658 -4.56 -0.9 5000015.0943
12.63288 -4.66 -0.9 5000014.0548
10.472879999999998 -6.44 -0.9 5000010.4548
10.472879999999998 -6.46 -0.9 5000010.4548
14.82888 -4.08 -0.92 5000017.7148
11.843340000000001 -5.48 -0.92 5000012.7389
10.472879999999998 -6.44 -0.92 5000010.4548
10.316220000000001 -6.58 -0.92 5000010.1937
10.316220000000001 -6.6 -0.92 5000010.1937
11.843340000000001 -5.46 -0.94 5000012.7389
11.843340000000001 -5.48 -0.94 5000012.7389
11.394240000000002 -6.08 -0.94 5000011.9904
11.394240000000002 -6.1 -0.94 5000011.9904
11.394240000000002 -6.12 -0.94 5000011.9904
10.316220000000001 -6.52 -0.94 5000010.1937
10.316220000000001 -6.54 -0.94 5000010.1937
10.316220000000001 -6.56 -0.94 5000010.1937
10.472879999999998 -6.4 -0.96 5000010.4548
10.472879999999998 -6.42 -0.96 5000010.4548
10.472879999999998 -6.5 -0.96 5000010.4548
10.316220000000001 -6.52 -0.96 5000010.1937
26.38116 -1.2 -0.98 5000036.9686
16.419959999999996 -3.52 -0.98 5000020.3666
16.419959999999996 -3.54 -0.98 5000020.3666
16.419959999999996 -3.56 -0.98 5000020.3666
13.25658 -4.56 -0.98 5000015.0943
13.25658 -4.58 -0.98 5000015.0943
12.933599999999998 -4.62 -0.98 5000014.556
12.63288 -4.64 -0.98 5000014.0548
11.61198 -5.66 -0.98 5000012.3533
11.61198 -5.68 -0.98 5000012.3533
11.18892 -6.12 -0.98 5000011.6482
11.18892 -6.14 -0.98 5000011.6482
11.18892 -6.16 -0.98 5000011.6482
17.77464 -1.3 -1.0 5000022.6244
17.77464 -1.32 -1.0 5000022.6244
17.77464 -1.34 -1.0 5000022.6244
16.419959999999996 -3.52 -1.0 5000020.3666
15.83916 -3.54 -1.0 5000019.3986
15.83916 -3.56 -1.0 5000019.3986
13.25658 -4.56 -1.0 5000015.0943
11.394240000000002 -5.66 -1.0 5000011.9904
11.394240000000002 -5.68 -1.0 5000011.9904
11.843340000000001 -6.02 -1.0 5000012.7389
11.843340000000001 -6.04 -1.0 5000012.7389
11.18892 -6.12 -1.0 5000011.6482
11.18892 -6.14 -1.0 5000011.6482
11.18892 -6.16 -1.0 5000011.6482
10.472879999999998 -6.4 -1.0 5000010.4548
17.77464 -1.34 -1.02 5000022.6244
17.06172 -1.36 -1.02 5000021.4362
15.83916 -3.54 -1.02 5000019.3986
15.83916 -3.56 -1.02 5000019.3986
15.83916 -3.74 -1.02 5000019.3986
15.83916 -3.76 -1.02 5000019.3986
15.83916 -3.78 -1.02 5000019.3986
15.83916 -3.8 -1.02 5000019.3986
12.933599999999998 -4.66 -1.02 5000014.556
11.843340000000001 -5.42 -1.02 5000012.7389
11.843340000000001 -5.44 -1.02 5000012.7389
11.843340000000001 -5.46 -1.02 5000012.7389
11.61198 -5.48 -1.02 5000012.3533
11.61198 -5.58 -1.02 5000012.3533
11.394240000000002 -5.68 -1.02 5000011.9904
11.394240000000002 -5.7 -1.02 5000011.9904
11.843340000000001 -6.02 -1.02 5000012.7389
11.843340000000001 -6.04 -1.02 5000012.7389
11.843340000000001 -6.06 -1.02 5000012.7389
10.995 -6.18 -1.02 5000011.325
10.16718 -6.54 -1.02 5000009.9453
17.06172 -1.38 -1.04 5000021.4362
15.83916 -3.54 -1.04 5000019.3986
15.83916 -3.56 -1.04 5000019.3986
15.83916 -3.58 -1.04 5000019.3986
15.83916 -3.76 -1.04 5000019.3986
15.83916 -3.78 -1.04 5000019.3986
16.419959999999996 -3.94 -1.04 5000020.3666
16.419959999999996 -3.96 -1.04 5000020.3666
13.25658 -4.52 -1.04 5000015.0943
13.25658 -4.54 -1.04 5000015.0943
13.25658 -4.66 -1.04 5000015.0943
12.933599999999998 -4.68 -1.04 5000014.556
11.843340000000001 -5.42 -1.04 5000012.7389
11.843340000000001 -5.44 -1.04 5000012.7389
11.394240000000002 -5.7 -1.04 5000011.9904
10.316220000000001 -6.5 -1.04 5000010.1937
10.316220000000001 -6.52 -1.04 5000010.1937
21.64188 -1.3 -1.06 5000029.0698
15.83916 -3.56 -1.06 5000019.3986
15.83916 -3.58 -1.06 5000019.3986
15.83916 -3.6 -1.06 5000019.3986
13.979940000000001 -3.86 -1.06 5000016.2999
13.979940000000001 -3.88 -1.06 5000016.2999
13.25658 -4.52 -1.06 5000015.0943
13.25658 -4.54 -1.06 5000015.0943
13.6044 -4.6 -1.06 5000015.674
13.25658 -4.62 -1.06 5000015.0943
13.25658 -4.64 -1.06 5000015.0943
13.25658 -4.66 -1.06 5000015.0943
11.843340000000001 -5.4 -1.06 5000012.7389
11.843340000000001 -5.42 -1.06 5000012.7389
11.843340000000001 -5.44 -1.06 5000012.7389
11.18892 -5.5 -1.06 5000011.6482
11.18892 -5.52 -1.06 5000011.6482
11.18892 -5.54 -1.06 5000011.6482
11.394240000000002 -5.72 -1.06 5000011.9904
10.472879999999998 -6.44 -1.06 5000010.4548
10.472879999999998 -6.46 -1.06 5000010.4548
10.472879999999998 -6.48 -1.06 5000010.4548
22.97934 -1.32 -1.08 5000031.2989
13.25658 -4.5 -1.08 5000015.0943
13.25658 -4.52 -1.08 5000015.0943
13.25658 -4.54 -1.08 5000015.0943
13.25658 -4.62 -1.08 5000015.0943
13.25658 -4.64 -1.08 5000015.0943
11.843340000000001 -5.4 -1.08 5000012.7389
11.18892 -5.5 -1.08 5000011.6482
11.394240000000002 -5.72 -1.08 5000011.9904
10.472879999999998 -6.46 -1.08 5000010.4548
10.472879999999998 -6.48 -1.08 5000010.4548
16.419959999999996 -1.42 -1.1 5000020.3666
16.419959999999996 -1.44 -1.1 5000020.3666
16.419959999999996 -1.46 -1.1 5000020.3666
14.386740000000001 -4.1 -1.1 5000016.9779
11.843340000000001 -5.4 -1.1 5000012.7389
11.394240000000002 -5.46 -1.1 5000011.9904
11.18892 -5.48 -1.1 5000011.6482
11.61198 -6.02 -1.1 5000012.3533
11.61198 -6.04 -1.1 5000012.3533
10.995 -6.14 -1.1 5000011.325
10.472879999999998 -6.46 -1.1 5000010.4548
10.316220000000001 -6.62 -1.1 5000010.1937
10.316220000000001 -6.64 -1.1 5000010.1937
16.419959999999996 -1.46 -1.12 5000020.3666
13.25658 -4.66 -1.12 5000015.0943
13.25658 -4.68 -1.12 5000015.0943
11.394240000000002 -5.76 -1.12 5000011.9904
11.61198 -6.04 -1.12 5000012.3533
11.61198 -6.06 -1.12 5000012.3533
10.472879999999998 -6.44 -1.12 5000010.4548
10.472879999999998 -6.46 -1.12 5000010.4548
10.316220000000001 -6.6 -1.12 5000010.1937
15.83916 0.88 -1.14 5000019.3986
13.25658 -4.5 -1.14 5000015.0943
13.25658 -4.52 -1.14 5000015.0943
13.25658 -4.66 -1.14 5000015.0943
13.25658 -4.68 -1.14 5000015.0943
12.933599999999998 -4.7 -1.14 5000014.556
11.61198 -5.48 -1.14 5000012.3533
11.843340000000001 -5.54 -1.14 5000012.7389
11.61198 -5.56 -1.14 5000012.3533
11.61198 -5.58 -1.14 5000012.3533
11.61198 -5.6 -1.14 5000012.3533
11.394240000000002 -5.62 -1.14 5000011.9904
11.394240000000002 -5.76 -1.14 5000011.9904
11.394240000000002 -5.78 -1.14 5000011.9904
10.472879999999998 -6.42 -1.14 5000010.4548
10.472879999999998 -6.44 -1.14 5000010.4548
10.472879999999998 -6.46 -1.14 5000010.4548
10.316220000000001 -6.56 -1.14 5000010.1937
13.25658 -4.5 -1.16 5000015.0943
13.25658 -4.52 -1.16 5000015.0943
13.25658 -4.54 -1.16 5000015.0943
11.61198 -5.46 -1.16 5000012.3533
11.394240000000002 -5.76 -1.16 5000011.9904
10.472879999999998 -6.42 -1.16 5000010.4548
10.472879999999998 -6.44 -1.16 5000010.4548
13.25658 -4.52 -1.18 5000015.0943
13.25658 -4.62 -1.18 5000015.0943
13.25658 -4.64 -1.18 5000015.0943
11.843340000000001 -5.42 -1.18 5000012.7389
