VERSION .7
FIELDS x y z rgb
SIZE 4 4 4 4
TYPE F F F F
COUNT 1 1 1 1
WIDTH 943
HEIGHT 1
VIEWPOINT 0 0 0 1 0 0 0
POINTS 943
DATA ascii
7.221906000000001 3.92 -3.76 5000005.03651
6.9504 5.92 -3.78 5000004.584
6.9504 5.94 -3.8 5000004.584
7.114037999999999 4.12 -3.8 5000004.85673
7.378806 2.96 -3.8 5000005.29801
6.9504 5.94 -3.82 5000004.584
7.378806 2.98 -3.82 5000005.29801
7.338077999999999 2.96 -3.82 5000005.23013
7.079772 2.86 -3.82 5000004.79962
7.114037999999999 -1.98 -3.82 5000004.85673
6.88998 4.96 -3.84 5000004.4833
7.338077999999999 2.98 -3.84 5000005.23013
7.114037999999999 -2.0 -3.84 5000004.85673
7.079772 2.92 -3.86 5000004.79962
7.079772 2.9 -3.86 5000004.79962
7.079772 2.88 -3.86 5000004.79962
7.046298 -5.0 -3.86 5000004.74383
7.046298 -5.02 -3.86 5000004.74383
7.046298 -5.04 -3.86 5000004.74383
7.079772 3.02 -3.88 5000004.79962
7.079772 3.0 -3.88 5000004.79962
7.079772 2.9 -3.88 5000004.79962
7.185072 -2.02 -3.88 5000004.97512
7.013598 -2.08 -3.88 5000004.68933
7.046298 -5.02 -3.88 5000004.74383
7.046298 -5.04 -3.88 5000004.74383
6.832158 4.96 -3.9 5000004.38693
7.013598 -2.1 -3.9 5000004.68933
7.013598 -2.12 -3.9 5000004.68933
6.832158 5.06 -3.92 5000004.38693
6.832158 4.96 -3.92 5000004.38693
6.832158 4.94 -3.92 5000004.38693
6.860754 4.62 -3.92 5000004.43459
6.832158 5.04 -3.94 5000004.38693
6.832158 4.94 -3.94 5000004.38693
6.9504 -2.14 -3.96 5000004.584
6.88998 -1.9 -4.06 5000004.4833
6.88998 -1.92 -4.06 5000004.4833
6.88998 -1.94 -4.06 5000004.4833
6.919854 -0.04 -4.08 5000004.53309
6.88998 -1.94 -4.08 5000004.4833
6.919854 -0.06 -4.1 5000004.53309
6.860754 -3.3 -4.1 5000004.43459
6.7499340000000005 4.86 -4.12 5000004.24989
6.832158 -1.9 -4.12 5000004.38693
6.69792 5.08 -4.14 5000004.1632
6.69792 5.06 -4.14 5000004.1632
6.7499340000000005 4.84 -4.14 5000004.24989
6.832158 -1.94 -4.14 5000004.38693
6.69792 5.28 -4.16 5000004.1632
6.69792 5.08 -4.16 5000004.1632
6.69792 5.06 -4.16 5000004.1632
6.672695999999999 5.04 -4.16 5000004.12116
6.672695999999999 5.02 -4.16 5000004.12116
6.832158 -1.98 -4.16 5000004.38693
6.672695999999999 5.06 -4.18 5000004.12116
6.672695999999999 5.04 -4.18 5000004.12116
6.672695999999999 5.02 -4.18 5000004.12116
6.672695999999999 5.0 -4.18 5000004.12116
6.623754 5.16 -4.2 5000004.03959
6.623754 5.14 -4.2 5000004.03959
6.672695999999999 5.12 -4.2 5000004.12116
6.672695999999999 5.02 -4.2 5000004.12116
6.672695999999999 5.0 -4.2 5000004.12116
6.832158 -2.06 -4.2 5000004.38693
6.647982 5.44 -4.22 5000004.07997
6.647982 5.42 -4.22 5000004.07997
6.647982 5.4 -4.22 5000004.07997
6.647982 5.36 -4.22 5000004.07997
6.647982 5.34 -4.22 5000004.07997
6.647982 5.32 -4.22 5000004.07997
6.647982 5.3 -4.22 5000004.07997
6.623754 5.24 -4.22 5000004.03959
6.623754 5.18 -4.22 5000004.03959
6.623754 5.16 -4.22 5000004.03959
6.623754 5.14 -4.22 5000004.03959
6.623754 5.12 -4.22 5000004.03959
6.623754 5.1 -4.22 5000004.03959
6.832158 -2.08 -4.22 5000004.38693
6.672695999999999 5.02 -4.28 5000004.12116
6.7499340000000005 0.0 -4.28 5000004.24989
6.7499340000000005 -2.08 -4.3 5000004.24989
6.7499340000000005 -2.1 -4.3 5000004.24989
6.7499340000000005 -2.1 -4.32 5000004.24989
6.7499340000000005 -2.12 -4.32 5000004.24989
6.623754 5.22 -4.34 5000004.03959
6.647982 5.0 -4.36 5000004.07997
6.69792 -1.94 -4.36 5000004.1632
6.69792 -1.96 -4.36 5000004.1632
6.672695999999999 -1.98 -4.36 5000004.12116
6.69792 -1.96 -4.38 5000004.1632
6.672695999999999 -2.02 -4.38 5000004.12116
6.647982 4.98 -4.4 5000004.07997
6.647982 4.98 -4.42 5000004.07997
6.672695999999999 -4.76 -4.42 5000004.12116
6.672695999999999 -4.78 -4.42 5000004.12116
6.672695999999999 -4.8 -4.42 5000004.12116
6.647982 4.98 -4.44 5000004.07997
6.647982 4.98 -4.46 5000004.07997
6.623754 -1.94 -4.46 5000004.03959
6.623754 -1.96 -4.46 5000004.03959
6.623754 -6.5 -4.46 5000004.03959
6.647982 4.98 -4.48 5000004.07997
6.623754 0.18 -4.48 5000004.03959
6.647982 0.06 -4.48 5000004.07997
6.647982 0.04 -4.48 5000004.07997
6.623754 -0.06 -4.48 5000004.03959
6.623754 -0.08 -4.48 5000004.03959
6.647982 -1.86 -4.48 5000004.07997
6.623754 -1.88 -4.48 5000004.03959
6.647982 -1.9 -4.48 5000004.07997
6.623754 -1.92 -4.48 5000004.03959
6.623754 -2.0 -4.48 5000004.03959
6.647982 -1.32 -4.5 5000004.07997
6.647982 -1.34 -4.5 5000004.07997
6.623754 -1.88 -4.5 5000004.03959
6.623754 -2.08 -4.5 5000004.03959
6.623754 -2.1 -4.5 5000004.03959
6.623754 -1.52 -4.52 5000004.03959
6.623754 -2.08 -4.52 5000004.03959
6.623754 -2.1 -4.52 5000004.03959
6.623754 -3.2 -4.52 5000004.03959
6.623754 0.62 -4.54 5000004.03959
6.623754 -3.2 -4.54 5000004.03959
6.672695999999999 5.08 -4.56 5000004.12116
6.623754 0.62 -4.56 5000004.03959
6.623754 0.6 -4.56 5000004.03959
6.623754 0.58 -4.56 5000004.03959
6.647982 5.08 -4.58 5000004.07997
6.647982 5.12 -4.6 5000004.07997
6.647982 5.08 -4.6 5000004.07997
6.672695999999999 -1.9 -4.6 5000004.12116
6.647982 5.12 -4.62 5000004.07997
6.672695999999999 -1.92 -4.62 5000004.12116
-4.18 5000004.12116
7.648464000000001 5.02 -4.18 5000004.12116
7.648464000000001 5.0 -4.18 5000004.12116
7.615836 5.16 -4.2 5000004.03959
7.615836 5.14 -4.2 5000004.03959
7.648464000000001 5.12 -4.2 5000004.12116
7.648464000000001 5.02 -4.2 5000004.12116
7.648464000000001 5.0 -4.2 5000004.12116
7.754772 -2.06 -4.2 5000004.38693
7.631988 5.44 -4.22 5000004.07997
7.631988 5.42 -4.22 5000004.07997
7.631988 5.4 -4.22 5000004.07997
7.631988 5.36 -4.22 5000004.07997
7.631988 5.34 -4.22 5000004.07997
7.631988 5.32 -4.22 5000004.07997
7.631988 5.3 -4.22 5000004.07997
7.615836 5.24 -4.22 5000004.03959
7.615836 5.18 -4.22 5000004.03959
7.615836 5.16 -4.22 5000004.03959
7.615836 5.14 -4.22 5000004.03959
7.615836 5.12 -4.22 5000004.03959
7.615836 5.1 -4.22 5000004.03959
7.754772 -2.08 -4.22 5000004.38693
7.648464000000001 5.02 -4.28 5000004.12116
7.699956 0.0 -4.28 5000004.24989
7.699956 -2.08 -4.3 5000004.24989
7.699956 -2.1 -4.3 5000004.24989
7.699956 -2.1 -4.32 5000004.24989
7.699956 -2.12 -4.32 5000004.24989
7.615836 5.22 -4.34 5000004.03959
7.631988 5.0 -4.36 5000004.07997
7.66528 -1.94 -4.36 5000004.1632
7.66528 -1.96 -4.36 5000004.1632
7.648464000000001 -1.98 -4.36 5000004.12116
7.66528 -1.96 -4.38 5000004.1632
7.648464000000001 -2.02 -4.38 5000004.12116
7.631988 4.98 -4.4 5000004.07997
7.631988 4.98 -4.42 5000004.07997
7.648464000000001 -4.76 -4.42 5000004.12116
7.648464000000001 -4.78 -4.42 5000004.12116
7.648464000000001 -4.8 -4.42 5000004.12116
7.631988 4.98 -4.44 5000004.07997
7.631988 4.98 -4.46 5000004.07997
7.615836 -1.94 -4.46 5000004.03959
7.615836 -1.96 -4.46 5000004.03959
7.615836 -6.5 -4.46 5000004.03959
7.631988 4.98 -4.48 5000004.07997
7.615836 0.18 -4.48 5000004.03959
7.631988 0.06 -4.48 5000004.07997
7.631988 0.04 -4.48 5000004.07997
7.615836 -0.06 -4.48 5000004.03959
7.615836 -0.08 -4.48 5000004.03959
7.631988 -1.86 -4.48 5000004.07997
7.615836 -1.88 -4.48 5000004.03959
7.631988 -1.9 -4.48 5000004.07997
7.615836 -1.92 -4.48 5000004.03959
7.615836 -2.0 -4.48 5000004.03959
7.631988 -1.32 -4.5 5000004.07997
7.631988 -1.34 -4.5 5000004.07997
7.615836 -1.88 -4.5 5000004.03959
7.615836 -2.08 -4.5 5000004.03959
7.615836 -2.1 -4.5 5000004.03959
7.615836 -1.52 -4.52 5000004.03959
7.615836 -2.08 -4.52 5000004.03959
7.615836 -2.1 -4.52 5000004.03959
7.615836 -3.2 -4.52 5000004.03959
7.615836 0.62 -4.54 5000004.03959
7.615836 -3.2 -4.54 5000004.03959
7.648464000000001 5.08 -4.56 5000004.12116
7.615836 0.62 -4.56 5000004.03959
7.615836 0.6 -4.56 5000004.03959
7.615836 0.58 -4.56 5000004.03959
7.631988 5.08 -4.58 5000004.07997
7.631988 5.12 -4.6 5000004.07997
7.631988 5.08 -4.6 5000004.07997
7.648464000000001 -1.9 -4.6 5000004.12116
7.631988 5.12 -4.62 5000004.07997
7.648464000000001 -1.92 -4.62 5000004.12116
648464 -4.78 -4.42 5000004.12116
9.648464 -4.8 -4.42 5000004.12116
9.631988 4.98 -4.44 5000004.07997
9.631988 4.98 -4.46 5000004.07997
9.615836 -1.94 -4.46 5000004.03959
9.615836 -1.96 -4.46 5000004.03959
9.615836 -6.5 -4.46 5000004.03959
9.631988 4.98 -4.48 5000004.07997
9.615836 0.18 -4.48 5000004.03959
9.631988 0.06 -4.48 5000004.07997
9.631988 0.04 -4.48 5000004.07997
9.615836 -0.06 -4.48 5000004.03959
9.615836 -0.08 -4.48 5000004.03959
9.631988 -1.86 -4.48 5000004.07997
9.615836 -1.88 -4.48 5000004.03959
9.631988 -1.9 -4.48 5000004.07997
9.615836 -1.92 -4.48 5000004.03959
9.615836 -2.0 -4.48 5000004.03959
9.631988 -1.32 -4.5 5000004.07997
9.631988 -1.34 -4.5 5000004.07997
9.615836 -1.88 -4.5 5000004.03959
9.615836 -2.08 -4.5 5000004.03959
9.615836 -2.1 -4.5 5000004.03959
9.615836 -1.52 -4.52 5000004.03959
9.615836 -2.08 -4.52 5000004.03959
9.615836 -2.1 -4.52 5000004.03959
9.615836 -3.2 -4.52 5000004.03959
9.615836 0.62 -4.54 5000004.03959
9.615836 -3.2 -4.54 5000004.03959
9.648464 5.08 -4.56 5000004.12116
9.615836 0.62 -4.56 5000004.03959
9.615836 0.6 -4.56 5000004.03959
9.615836 0.58 -4.56 5000004.03959
9.631988 5.08 -4.58 5000004.07997
9.631988 5.12 -4.6 5000004.07997
9.631988 5.08 -4.6 5000004.07997
9.648464 -1.9 -4.6 5000004.12116
9.631988 5.12 -4.62 5000004.07997
9.648464 -1.92 -4.62 5000004.12116
99997 -2.9 -4.6 5000004.12116
1.631988 4.12 -4.62 5000004.07997
1.6484639999999997 -2.92 -4.62 5000004.12116
1.631988 -5.34 -4.5 5000004.07997
1.6158359999999998 -5.88 -4.5 5000004.03959
1.6158359999999998 -6.08 -4.5 5000004.03959
1.6158359999999998 -6.1 -4.5 5000004.03959
1.6158359999999998 -5.52 -4.52 5000004.03959
1.6158359999999998 -6.08 -4.52 5000004.03959
1.6158359999999998 -6.1 -4.52 5000004.03959
1.6158359999999998 -7.2 -4.52 5000004.03959
1.6158359999999998 -3.38 -4.54 5000004.03959
1.6158359999999998 -7.2 -4.54 5000004.03959
1.6484639999999997 1.08 -4.56 5000004.12116
1.6158359999999998 -3.38 -4.56 5000004.03959
1.6158359999999998 -3.4 -4.56 5000004.03959
1.6158359999999998 -3.42 -4.56 5000004.03959
1.631988 1.08 -4.58 5000004.07997
1.631988 1.12 -4.6 5000004.07997
1.631988 1.08 -4.6 5000004.07997
1.6484639999999997 -5.9 -4.6 5000004.12116
1.631988 1.12 -4.62 5000004.07997
1.6484639999999997 -5.92 -4.62 5000004.12116
.1 5000029.0698
10.968993333333334 -11.866666666666667 3.1 5000029.0698
10.968993333333334 -11.9 3.1 5000029.0698
14.474266666666667 -4.233333333333333 3.066666666666667 5000134.228
14.474266666666667 -6.566666666666666 3.066666666666667 5000134.228
14.474266666666667 -6.6 3.066666666666667 5000134.228
12.252253333333334 -8.766666666666667 3.066666666666667 5000067.5676
12.252253333333334 -8.8 3.066666666666667 5000067.5676
11.043296666666667 -10.966666666666667 3.066666666666667 5000031.2989
11.043296666666667 -11.0 3.066666666666667 5000031.2989
11.043296666666667 -11.233333333333333 3.066666666666667 5000031.2989
10.968993333333334 -11.9 3.066666666666667 5000029.0698
10.56593 -15.933333333333334 3.066666666666667 5000016.9779
13.367 -4.833333333333333 3.033333333333333 5000101.01
12.252253333333334 -8.8 3.033333333333333 5000067.5676
16.666666666666668 -9.733333333333333 3.033333333333333 5000200.0
11.355013333333334 -10.0 3.033333333333333 5000040.6504
11.355013333333334 -10.033333333333333 3.033333333333333 5000040.6504
11.355013333333334 -10.066666666666666 3.033333333333333 5000040.6504
11.043296666666667 -10.966666666666667 3.033333333333333 5000031.2989
11.043296666666667 -11.0 3.033333333333333 5000031.2989
11.043296666666667 -11.233333333333333 3.033333333333333 5000031.2989
11.043296666666667 -11.933333333333334 3.033333333333333 5000031.2989
13.367 -4.833333333333333 3.0 5000101.01
14.474266666666667 -5.9 3.0 5000134.228
16.666666666666668 -8.666666666666666 3.0 5000200.0
12.252253333333334 -8.766666666666667 3.0 5000067.5676
12.252253333333334 -8.8 3.0 5000067.5676
10.754146666666667 -9.133333333333333 3.0 5000022.6244
11.355013333333334 -10.0 3.0 5000040.6504
11.355013333333334 -10.033333333333333 3.0 5000040.6504
11.043296666666667 -10.966666666666667 3.0 5000031.2989
11.043296666666667 -11.233333333333333 3.0 5000031.2989
10.968993333333334 -11.9 3.0 5000029.0698
10.848176666666667 -13.366666666666667 3.0 5000025.4453
12.699056666666667 -5.0 2.966666666666667 5000080.9717
14.474266666666667 -5.866666666666666 2.966666666666667 5000134.228
14.474266666666667 -5.9 2.966666666666667 5000134.228
12.252253333333334 -7.8 2.966666666666667 5000067.5676
12.252253333333334 -7.833333333333333 2.966666666666667 5000067.5676
16.666666666666668 -8.1 2.966666666666667 5000200.0
13.367 -8.133333333333333 2.966666666666667 5000101.01
12.252253333333334 -8.2 2.966666666666667 5000067.5676
11.043296666666667 -8.4 2.966666666666667 5000031.2989
16.666666666666668 -8.666666666666666 2.966666666666667 5000200.0
12.252253333333334 -8.766666666666667 2.966666666666667 5000067.5676
12.252253333333334 -8.8 2.966666666666667 5000067.5676
11.355013333333334 -10.0 2.966666666666667 5000040.6504
11.355013333333334 -10.033333333333333 2.966666666666667 5000040.6504
11.129943333333333 -10.5 2.966666666666667 5000033.8983
11.043296666666667 -10.966666666666667 2.966666666666667 5000031.2989
11.043296666666667 -11.2 2.966666666666667 5000031.2989
11.043296666666667 -11.233333333333333 2.966666666666667 5000031.2989
11.043296666666667 -11.9 2.966666666666667 5000031.2989
12.699056666666667 -5.0 2.933333333333333 5000080.9717
14.474266666666667 -5.866666666666666 2.933333333333333 5000134.228
14.474266666666667 -5.9 2.933333333333333 5000134.228
14.474266666666667 -6.566666666666666 2.933333333333333 5000134.228
12.252253333333334 -7.833333333333333 2.933333333333333 5000067.5676
12.252253333333334 -8.2 2.933333333333333 5000067.5676
11.043296666666667 -8.466666666666667 2.933333333333333 5000031.2989
16.666666666666668 -8.666666666666666 2.933333333333333 5000200.0
12.252253333333334 -8.766666666666667 2.933333333333333 5000067.5676
12.252253333333334 -8.8 2.933333333333333 5000067.5676
11.50489 -10.0 2.933333333333333 5000045.1467
11.50489 -10.033333333333333 2.933333333333333 5000045.1467
11.043296666666667 -10.933333333333334 2.933333333333333 5000031.2989
11.043296666666667 -10.966666666666667 2.933333333333333 5000031.2989
11.043296666666667 -11.0 2.933333333333333 5000031.2989
11.043296666666667 -11.2 2.933333333333333 5000031.2989
11.043296666666667 -11.233333333333333 2.933333333333333 5000031.2989
11.043296666666667 -11.933333333333334 2.933333333333333 5000031.2989
12.699056666666667 -5.0 2.9 5000080.9717
16.666666666666668 -7.7 2.9 5000200.0
16.666666666666668 -8.666666666666666 2.9 5000200.0
12.252253333333334 -8.766666666666667 2.9 5000067.5676
12.252253333333334 -8.8 2.9 5000067.5676
16.666666666666668 -8.966666666666667 2.9 5000200.0
13.367 -9.166666666666666 2.9 5000101.01
10.71454 -9.2 2.9 5000021.4362
10.71454 -9.233333333333333 2.9 5000021.4362
10.468493333333333 -9.433333333333334 2.9 5000014.0548
10.4529 -9.466666666666667 2.9 5000013.587
10.4529 -9.5 2.9 5000013.587
14.474266666666667 -5.3 2.8666666666666667 5000134.228
14.474266666666667 -5.833333333333333 2.8666666666666667 5000134.228
16.666666666666668 -7.7 2.8666666666666667 5000200.0
16.666666666666668 -9.033333333333333 2.8666666666666667 5000200.0
14.474266666666667 -9.1 2.8666666666666667 5000134.228
13.367 -9.133333333333333 2.8666666666666667 5000101.01
11.355013333333334 -9.3 2.8666666666666667 5000040.6504
14.474266666666667 -9.333333333333334 2.8666666666666667 5000134.228
11.355013333333334 -9.366666666666667 2.8666666666666667 5000040.6504
14.474266666666667 -4.566666666666666 2.8333333333333335 5000134.228
14.474266666666667 -4.766666666666667 2.8333333333333335 5000134.228
14.474266666666667 -5.3 2.8333333333333335 5000134.228
14.474266666666667 -5.833333333333333 2.8333333333333335 5000134.228
13.367 -7.5 2.8333333333333335 5000101.01
16.666666666666668 -8.333333333333334 2.8333333333333335 5000200.0
14.474266666666667 -9.1 2.8333333333333335 5000134.228
13.367 -9.133333333333333 2.8333333333333335 5000101.01
11.355013333333334 -9.3 2.8333333333333335 5000040.6504
14.474266666666667 -9.333333333333334 2.8333333333333335 5000134.228
11.355013333333334 -9.366666666666667 2.8333333333333335 5000040.6504
11.50489 -10.1 2.8333333333333335 5000045.1467
11.50489 -10.133333333333333 2.8333333333333335 5000045.1467
10.438306666666668 -10.233333333333333 2.8333333333333335 5000013.1492
10.438306666666668 -10.266666666666667 2.8333333333333335 5000013.1492
10.590493333333333 -16.133333333333333 2.8333333333333335 5000017.7148
10.590493333333333 -16.166666666666668 2.8333333333333335 5000017.7148
12.699056666666667 -4.233333333333333 2.8 5000080.9717
14.474266666666667 -4.566666666666666 2.8 5000134.228
14.474266666666667 -4.766666666666667 2.8 5000134.228
12.252253333333334 -6.5 2.8 5000067.5676
16.666666666666668 -9.1 2.8 5000200.0
10.848176666666667 -9.733333333333333 2.8 5000025.4453
11.50489 -10.1 2.8 5000045.1467
11.50489 -10.133333333333333 2.8 5000045.1467
10.754146666666667 -12.266666666666667 2.8 5000022.6244
10.678886666666667 -13.533333333333333 2.8 5000020.3666
10.678886666666667 -13.566666666666666 2.8 5000020.3666
10.678886666666667 -13.6 2.8 5000020.3666
10.503143333333334 -15.633333333333333 2.8 5000015.0943
10.590493333333333 -16.133333333333333 2.8 5000017.7148
10.590493333333333 -16.166666666666668 2.8 5000017.7148
10.522466666666666 -16.266666666666666 2.8 5000015.674
12.699056666666667 -4.233333333333333 2.7666666666666666 5000080.9717
14.474266666666667 -4.566666666666666 2.7666666666666666 5000134.228
14.474266666666667 -4.766666666666667 2.7666666666666666 5000134.228
12.252253333333334 -6.5 2.7666666666666666 5000067.5676
10.848176666666667 -11.6 2.7666666666666666 5000025.4453
10.678886666666667 -13.533333333333333 2.7666666666666666 5000020.3666
10.678886666666667 -13.566666666666666 2.7666666666666666 5000020.3666
10.678886666666667 -13.6 2.7666666666666666 5000020.3666
10.64662 -13.633333333333333 2.7666666666666666 5000019.3986
10.54333 -14.366666666666667 2.7666666666666666 5000016.2999
10.54333 -14.4 2.7666666666666666 5000016.2999
10.590493333333333 -16.133333333333333 2.7666666666666666 5000017.7148
12.699056666666667 -4.233333333333333 2.7333333333333334 5000080.9717
14.474266666666667 -4.566666666666666 2.7333333333333334 5000134.228
14.474266666666667 -4.766666666666667 2.7333333333333334 5000134.228
14.474266666666667 -5.3 2.7333333333333334 5000134.228
11.043296666666667 -10.833333333333334 2.7333333333333334 5000031.2989
11.043296666666667 -10.866666666666667 2.7333333333333334 5000031.2989
13.367 -2.6 2.7 5000101.01
14.474266666666667 -4.566666666666666 2.7 5000134.228
14.474266666666667 -4.766666666666667 2.7 5000134.228
14.474266666666667 -5.3 2.7 5000134.228
14.474266666666667 -5.666666666666667 2.7 5000134.228
10.71454 -12.666666666666666 2.7 5000021.4362
10.71454 -12.7 2.7 5000021.4362
10.71454 -12.733333333333333 2.7 5000021.4362
10.71454 -13.5 2.7 5000021.4362
10.71454 -13.533333333333333 2.7 5000021.4362
10.522466666666666 -15.333333333333334 2.7 5000015.674
10.4852 -15.366666666666667 2.7 5000014.556
10.4852 -15.4 2.7 5000014.556
10.468493333333333 -15.433333333333334 2.7 5000014.0548
10.4529 -15.466666666666667 2.7 5000013.587
10.4529 -15.5 2.7 5000013.587
10.438306666666668 -15.533333333333333 2.7 5000013.1492
10.438306666666668 -15.566666666666666 2.7 5000013.1492
13.367 -2.6 2.6666666666666665 5000101.01
14.474266666666667 -4.566666666666666 2.6666666666666665 5000134.228
14.474266666666667 -4.766666666666667 2.6666666666666665 5000134.228
10.904566666666666 -11.533333333333333 2.6666666666666665 5000027.137
10.904566666666666 -11.566666666666666 2.6666666666666665 5000027.137
10.71454 -12.7 2.6666666666666665 5000021.4362
10.71454 -12.733333333333333 2.6666666666666665 5000021.4362
10.71454 -13.466666666666667 2.6666666666666665 5000021.4362
10.71454 -13.5 2.6666666666666665 5000021.4362
10.71454 -13.533333333333333 2.6666666666666665 5000021.4362
10.54333 -15.266666666666667 2.6666666666666665 5000016.2999
10.54333 -15.3 2.6666666666666665 5000016.2999
10.522466666666666 -15.333333333333334 2.6666666666666665 5000015.674
10.503143333333334 -15.366666666666667 2.6666666666666665 5000015.0943
10.4852 -15.4 2.6666666666666665 5000014.556
10.468493333333333 -15.433333333333334 2.6666666666666665 5000014.0548
10.3775 -17.066666666666666 2.6666666666666665 5000011.325
10.36731 -17.1 2.6666666666666665 5000011.0193
10.36731 -17.166666666666668 2.6666666666666665 5000011.0193
13.367 -2.6 2.6333333333333333 5000101.01
13.367 -9.833333333333334 2.6333333333333333 5000101.01
11.232286666666667 -10.033333333333333 2.6333333333333333 5000036.9686
11.232286666666667 -10.066666666666666 2.6333333333333333 5000036.9686
10.71454 -12.7 2.6333333333333333 5000021.4362
10.71454 -12.733333333333333 2.6333333333333333 5000021.4362
10.71454 -13.5 2.6333333333333333 5000021.4362
10.71454 -13.533333333333333 2.6333333333333333 5000021.4362
10.71454 -13.566666666666666 2.6333333333333333 5000021.4362
10.3775 -17.0 2.6333333333333333 5000011.325
13.367 -2.6 2.6 5000101.01
11.232286666666667 -10.033333333333333 2.6 5000036.9686
11.232286666666667 -10.066666666666666 2.6 5000036.9686
10.968993333333334 -10.866666666666667 2.6 5000029.0698
10.678886666666667 -12.7 2.6 5000020.3666
10.678886666666667 -12.733333333333333 2.6 5000020.3666
10.71454 -13.566666666666666 2.6 5000021.4362
10.503143333333334 -14.866666666666667 2.6 5000015.0943
10.503143333333334 -14.9 2.6 5000015.0943
10.4852 -15.433333333333334 2.6 5000014.556
10.54333 -15.833333333333334 2.6 5000016.2999
10.54333 -15.866666666666667 2.6 5000016.2999
10.54333 -15.9 2.6 5000016.2999
10.388273333333334 -16.9 2.6 5000011.6482
11.232286666666667 -10.066666666666666 2.566666666666667 5000036.9686
10.848176666666667 -10.233333333333333 2.566666666666667 5000025.4453
10.754146666666667 -11.833333333333334 2.566666666666667 5000022.6244
10.754146666666667 -11.866666666666667 2.566666666666667 5000022.6244
10.798403333333333 -12.133333333333333 2.566666666666667 5000023.9521
10.798403333333333 -12.166666666666666 2.566666666666667 5000023.9521
10.678886666666667 -12.7 2.566666666666667 5000020.3666
10.678886666666667 -12.733333333333333 2.566666666666667 5000020.3666
10.71454 -13.533333333333333 2.566666666666667 5000021.4362
10.71454 -13.566666666666666 2.566666666666667 5000021.4362
10.71454 -13.6 2.566666666666667 5000021.4362
10.503143333333334 -14.866666666666667 2.566666666666667 5000015.0943
10.503143333333334 -14.9 2.566666666666667 5000015.0943
10.4852 -14.966666666666667 2.566666666666667 5000014.556
10.468493333333333 -15.0 2.566666666666667 5000014.0548
10.54333 -15.866666666666667 2.566666666666667 5000016.2999
10.54333 -15.9 2.566666666666667 5000016.2999
10.388273333333334 -16.8 2.566666666666667 5000011.6482
10.388273333333334 -16.833333333333332 2.566666666666667 5000011.6482
10.388273333333334 -16.866666666666667 2.566666666666667 5000011.6482
10.754146666666667 -11.833333333333334 2.533333333333333 5000022.6244
10.678886666666667 -12.7 2.533333333333333 5000020.3666
10.678886666666667 -12.733333333333333 2.533333333333333 5000020.3666
10.678886666666667 -12.766666666666667 2.533333333333333 5000020.3666
10.503143333333334 -14.866666666666667 2.533333333333333 5000015.0943
10.503143333333334 -14.9 2.533333333333333 5000015.0943
10.4852 -14.966666666666667 2.533333333333333 5000014.556
10.54333 -15.733333333333333 2.533333333333333 5000016.2999
10.54333 -15.766666666666667 2.533333333333333 5000016.2999
10.54333 -15.8 2.533333333333333 5000016.2999
10.388273333333334 -16.766666666666666 2.533333333333333 5000011.6482
10.357653333333333 -17.433333333333334 2.533333333333333 5000010.7296
11.692046666666666 -9.666666666666666 2.5 5000050.7614
11.692046666666666 -9.7 2.5 5000050.7614
11.692046666666666 -9.733333333333333 2.5 5000050.7614
11.355013333333334 -9.866666666666667 2.5 5000040.6504
11.355013333333334 -9.9 2.5 5000040.6504
11.355013333333334 -9.933333333333334 2.5 5000040.6504
11.129943333333333 -10.466666666666667 2.5 5000033.8983
11.043296666666667 -10.7 2.5 5000031.2989
11.043296666666667 -10.733333333333333 2.5 5000031.2989
10.71454 -10.866666666666667 2.5 5000021.4362
10.798403333333333 -11.0 2.5 5000023.9521
10.848176666666667 -11.6 2.5 5000025.4453
10.848176666666667 -11.633333333333333 2.5 5000025.4453
11.692046666666666 -9.733333333333333 2.466666666666667 5000050.7614
11.355013333333334 -9.866666666666667 2.466666666666667 5000040.6504
11.355013333333334 -9.9 2.466666666666667 5000040.6504
11.355013333333334 -9.933333333333334 2.466666666666667 5000040.6504
10.904566666666666 -10.066666666666666 2.466666666666667 5000027.137
11.043296666666667 -10.7 2.466666666666667 5000031.2989
10.71454 -10.866666666666667 2.466666666666667 5000021.4362
10.71454 -10.9 2.466666666666667 5000021.4362
10.798403333333333 -10.933333333333334 2.466666666666667 5000023.9521
10.798403333333333 -11.0 2.466666666666667 5000023.9521
10.848176666666667 -11.633333333333333 2.466666666666667 5000025.4453
10.848176666666667 -11.666666666666666 2.466666666666667 5000025.4453
10.64662 -13.8 2.466666666666667 5000019.3986
10.64662 -13.833333333333334 2.466666666666667 5000019.3986
10.54333 -13.866666666666667 2.466666666666667 5000016.2999
10.522466666666666 -14.066666666666666 2.466666666666667 5000015.674
10.54333 -15.7 2.466666666666667 5000016.2999
10.54333 -15.733333333333333 2.466666666666667 5000016.2999
10.357653333333333 -17.4 2.466666666666667 5000010.7296
10.348493333333334 -17.866666666666667 2.466666666666667 5000010.4548
10.348493333333334 -17.9 2.466666666666667 5000010.4548
11.043296666666667 -10.7 2.433333333333333 5000031.2989
10.71454 -10.9 2.433333333333333 5000021.4362
10.848176666666667 -11.633333333333333 2.433333333333333 5000025.4453
10.848176666666667 -11.666666666666666 2.433333333333333 5000025.4453
10.64662 -11.833333333333334 2.433333333333333 5000019.3986
10.617283333333333 -11.866666666666667 2.433333333333333 5000018.5185
10.617283333333333 -11.9 2.433333333333333 5000018.5185
10.64662 -13.833333333333334 2.433333333333333 5000019.3986
10.54333 -13.866666666666667 2.433333333333333 5000016.2999
10.54333 -13.9 2.433333333333333 5000016.2999
10.522466666666666 -13.933333333333334 2.433333333333333 5000015.674
10.522466666666666 -15.7 2.433333333333333 5000015.674
10.522466666666666 -15.733333333333333 2.433333333333333 5000015.674
11.232286666666667 -10.266666666666667 2.4 5000036.9686
11.232286666666667 -10.3 2.4 5000036.9686
11.043296666666667 -10.7 2.4 5000031.2989
11.043296666666667 -10.733333333333333 2.4 5000031.2989
10.848176666666667 -11.633333333333333 2.4 5000025.4453
10.848176666666667 -11.666666666666666 2.4 5000025.4453
10.64662 -11.766666666666667 2.4 5000019.3986
10.64662 -11.8 2.4 5000019.3986
10.64662 -11.833333333333334 2.4 5000019.3986
10.617283333333333 -13.666666666666666 2.4 5000018.5185
10.617283333333333 -13.7 2.4 5000018.5185
10.64662 -13.733333333333333 2.4 5000019.3986
10.522466666666666 -15.7 2.4 5000015.674
10.522466666666666 -15.733333333333333 2.4 5000015.674
10.522466666666666 -15.766666666666667 2.4 5000015.674
10.357653333333333 -17.833333333333332 2.4 5000010.7296
11.232286666666667 -10.266666666666667 2.3666666666666667 5000036.9686
11.232286666666667 -10.3 2.3666666666666667 5000036.9686
10.798403333333333 -10.5 2.3666666666666667 5000023.9521
10.798403333333333 -10.533333333333333 2.3666666666666667 5000023.9521
11.043296666666667 -10.7 2.3666666666666667 5000031.2989
11.043296666666667 -10.733333333333333 2.3666666666666667 5000031.2989
10.968993333333334 -11.033333333333333 2.3666666666666667 5000029.0698
10.71454 -12.533333333333333 2.3666666666666667 5000021.4362
10.71454 -12.566666666666666 2.3666666666666667 5000021.4362
10.617283333333333 -13.666666666666666 2.3666666666666667 5000018.5185
10.617283333333333 -13.7 2.3666666666666667 5000018.5185
10.4852 -15.533333333333333 2.3666666666666667 5000014.556
10.4852 -15.566666666666666 2.3666666666666667 5000014.556
10.4852 -15.6 2.3666666666666667 5000014.556
10.33979 -17.9 2.3666666666666667 5000010.1937
11.232286666666667 -10.266666666666667 2.3333333333333335 5000036.9686
11.232286666666667 -10.3 2.3333333333333335 5000036.9686
10.968993333333334 -10.966666666666667 2.3333333333333335 5000029.0698
10.54333 -13.9 2.3333333333333335 5000016.2999
10.54333 -13.933333333333334 2.3333333333333335 5000016.2999
10.357653333333333 -17.8 2.3333333333333335 5000010.7296
10.848176666666667 -11.366666666666667 2.3 5000025.4453
10.798403333333333 -11.7 2.3 5000023.9521
10.798403333333333 -11.733333333333333 2.3 5000023.9521
10.678886666666667 -11.833333333333334 2.3 5000020.3666
10.678886666666667 -13.0 2.3 5000020.3666
10.678886666666667 -13.033333333333333 2.3 5000020.3666
10.678886666666667 -13.066666666666666 2.3 5000020.3666
10.54333 -13.933333333333334 2.3 5000016.2999
10.54333 -14.033333333333333 2.3 5000016.2999
10.54333 -14.066666666666666 2.3 5000016.2999
10.54333 -14.1 2.3 5000016.2999
10.4852 -15.933333333333334 2.3 5000014.556
10.4852 -15.966666666666667 2.3 5000014.556
10.4852 -16.0 2.3 5000014.556
10.42463 -16.166666666666668 2.3 5000012.7389
10.39968 -16.533333333333335 2.3 5000011.9904
10.33979 -17.866666666666667 2.3 5000010.1937
11.232286666666667 -8.7 2.2666666666666666 5000036.9686
11.232286666666667 -8.733333333333333 2.2666666666666666 5000036.9686
11.129943333333333 -10.433333333333334 2.2666666666666666 5000033.8983
11.129943333333333 -10.466666666666667 2.2666666666666666 5000033.8983
10.904566666666666 -10.566666666666666 2.2666666666666666 5000027.137
10.904566666666666 -10.6 2.2666666666666666 5000027.137
10.848176666666667 -11.333333333333334 2.2666666666666666 5000025.4453
10.848176666666667 -11.366666666666667 2.2666666666666666 5000025.4453
10.678886666666667 -13.0 2.2666666666666666 5000020.3666
10.678886666666667 -13.033333333333333 2.2666666666666666 5000020.3666
10.678886666666667 -13.066666666666666 2.2666666666666666 5000020.3666
10.590493333333333 -13.166666666666666 2.2666666666666666 5000017.7148
10.503143333333334 -15.833333333333334 2.2666666666666666 5000015.0943
10.4852 -15.966666666666667 2.2666666666666666 5000014.556
10.4852 -16.0 2.2666666666666666 5000014.556
10.42463 -16.1 2.2666666666666666 5000012.7389
10.42463 -16.166666666666668 2.2666666666666666 5000012.7389
10.36731 -17.3 2.2666666666666666 5000011.0193
10.357653333333333 -17.766666666666666 2.2666666666666666 5000010.7296
11.232286666666667 -8.7 2.2333333333333334 5000036.9686
11.232286666666667 -8.733333333333333 2.2333333333333334 5000036.9686
11.129943333333333 -10.433333333333334 2.2333333333333334 5000033.8983
11.129943333333333 -10.466666666666667 2.2333333333333334 5000033.8983
10.904566666666666 -10.566666666666666 2.2333333333333334 5000027.137
10.904566666666666 -10.6 2.2333333333333334 5000027.137
11.043296666666667 -10.8 2.2333333333333334 5000031.2989
10.798403333333333 -11.733333333333333 2.2333333333333334 5000023.9521
10.678886666666667 -11.833333333333334 2.2333333333333334 5000020.3666
10.678886666666667 -13.033333333333333 2.2333333333333334 5000020.3666
10.678886666666667 -13.066666666666666 2.2333333333333334 5000020.3666
10.590493333333333 -13.166666666666666 2.2333333333333334 5000017.7148
10.39968 -16.466666666666665 2.2333333333333334 5000011.9904
10.411776666666666 -16.5 2.2333333333333334 5000012.3533
10.3775 -17.2 2.2333333333333334 5000011.325
10.357653333333333 -17.766666666666666 2.2333333333333334 5000010.7296
11.129943333333333 -10.466666666666667 2.2 5000033.8983
11.043296666666667 -10.8 2.2 5000031.2989
10.798403333333333 -11.733333333333333 2.2 5000023.9521
10.798403333333333 -11.766666666666667 2.2 5000023.9521
10.42463 -16.233333333333334 2.2 5000012.7389
10.36731 -17.233333333333334 2.2 5000011.0193
11.043296666666667 -10.8 2.1666666666666665 5000031.2989
10.503143333333334 -15.4 2.1666666666666665 5000015.0943
10.4852 -15.433333333333334 2.1666666666666665 5000014.556
10.4852 -15.466666666666667 2.1666666666666665 5000014.556
10.4852 -15.5 2.1666666666666665 5000014.556
10.411776666666666 -16.166666666666668 2.1666666666666665 5000012.3533
10.411776666666666 -16.2 2.1666666666666665 5000012.3533
10.4529 -16.566666666666666 2.1666666666666665 5000013.587
10.468493333333333 -16.6 2.1666666666666665 5000014.0548
10.348493333333334 -17.766666666666666 2.1666666666666665 5000010.4548
10.348493333333334 -17.8 2.1666666666666665 5000010.4548
10.848176666666667 -11.466666666666667 2.1333333333333333 5000025.4453
10.798403333333333 -11.766666666666667 2.1333333333333333 5000023.9521
10.71454 -12.266666666666667 2.1333333333333333 5000021.4362
10.71454 -12.3 2.1333333333333333 5000021.4362
10.617283333333333 -12.4 2.1333333333333333 5000018.5185
10.4852 -15.033333333333333 2.1333333333333333 5000014.556
10.4852 -15.433333333333334 2.1333333333333333 5000014.556
10.4852 -15.466666666666667 2.1333333333333333 5000014.556
10.4852 -15.5 2.1333333333333333 5000014.556
10.4852 -15.7 2.1333333333333333 5000014.556
10.4852 -15.733333333333333 2.1333333333333333 5000014.556
10.4852 -15.766666666666667 2.1333333333333333 5000014.556
10.411776666666666 -16.366666666666667 2.1333333333333333 5000012.3533
10.411776666666666 -16.733333333333334 2.1333333333333333 5000012.3533
10.3775 -17.633333333333333 2.1333333333333333 5000011.325
10.348493333333334 -17.766666666666666 2.1333333333333333 5000010.4548
11.692046666666666 -8.6 2.1 5000050.7614
11.043296666666667 -8.733333333333333 2.1 5000031.2989
10.848176666666667 -11.433333333333334 2.1 5000025.4453
10.848176666666667 -11.466666666666667 2.1 5000025.4453
10.798403333333333 -11.766666666666667 2.1 5000023.9521
10.798403333333333 -11.8 2.1 5000023.9521
10.71454 -12.266666666666667 2.1 5000021.4362
10.71454 -12.3 2.1 5000021.4362
10.617283333333333 -12.4 2.1 5000018.5185
10.617283333333333 -12.433333333333334 2.1 5000018.5185
10.4852 -15.033333333333333 2.1 5000014.556
10.4852 -15.733333333333333 2.1 5000014.556
10.4852 -15.766666666666667 2.1 5000014.556
10.411776666666666 -16.366666666666667 2.1 5000012.3533
10.411776666666666 -16.4 2.1 5000012.3533
10.39968 -16.433333333333334 2.1 5000011.9904
10.42463 -17.433333333333334 2.1 5000012.7389
10.42463 -17.466666666666665 2.1 5000012.7389
10.348493333333334 -17.766666666666666 2.1 5000010.4548
11.043296666666667 -8.733333333333333 2.066666666666667 5000031.2989
16.666666666666668 -10.9 2.066666666666667 5000200.0
10.848176666666667 -11.433333333333334 2.066666666666667 5000025.4453
10.848176666666667 -11.466666666666667 2.066666666666667 5000025.4453
10.71454 -12.266666666666667 2.066666666666667 5000021.4362
10.71454 -12.3 2.066666666666667 5000021.4362
10.617283333333333 -12.433333333333334 2.066666666666667 5000018.5185
10.503143333333334 -13.833333333333334 2.066666666666667 5000015.0943
10.4852 -15.033333333333333 2.066666666666667 5000014.556
10.503143333333334 -15.2 2.066666666666667 5000015.0943
10.503143333333334 -15.233333333333333 2.066666666666667 5000015.0943
10.503143333333334 -15.266666666666667 2.066666666666667 5000015.0943
10.4852 -15.766666666666667 2.066666666666667 5000014.556
10.39968 -16.5 2.066666666666667 5000011.9904
11.043296666666667 -8.733333333333333 2.033333333333333 5000031.2989
10.968993333333334 -11.0 2.033333333333333 5000029.0698
10.968993333333334 -11.033333333333333 2.033333333333333 5000029.0698
10.754146666666667 -11.133333333333333 2.033333333333333 5000022.6244
10.754146666666667 -11.166666666666666 2.033333333333333 5000022.6244
10.904566666666666 -11.433333333333334 2.033333333333333 5000027.137
10.904566666666666 -11.466666666666667 2.033333333333333 5000027.137
10.798403333333333 -11.8 2.033333333333333 5000023.9521
10.71454 -12.266666666666667 2.033333333333333 5000021.4362
10.71454 -12.3 2.033333333333333 5000021.4362
10.590493333333333 -13.666666666666666 2.033333333333333 5000017.7148
10.56593 -13.7 2.033333333333333 5000016.9779
10.503143333333334 -13.8 2.033333333333333 5000015.0943
10.4852 -15.0 2.033333333333333 5000014.556
10.4852 -15.033333333333333 2.033333333333333 5000014.556
10.4529 -15.966666666666667 2.033333333333333 5000013.587
10.438306666666668 -16.0 2.033333333333333 5000013.1492
10.438306666666668 -16.033333333333335 2.033333333333333 5000013.1492
10.42463 -16.066666666666666 2.033333333333333 5000012.7389
10.42463 -16.1 2.033333333333333 5000012.7389
10.411776666666666 -16.133333333333333 2.033333333333333 5000012.3533
10.39968 -16.166666666666668 2.033333333333333 5000011.9904
10.388273333333334 -16.2 2.033333333333333 5000011.6482
10.388273333333334 -16.233333333333334 2.033333333333333 5000011.6482
11.043296666666667 -8.733333333333333 2.0 5000031.2989
11.043296666666667 -8.766666666666667 2.0 5000031.2989
10.968993333333334 -11.0 2.0 5000029.0698
10.968993333333334 -11.033333333333333 2.0 5000029.0698
10.754146666666667 -11.133333333333333 2.0 5000022.6244
10.848176666666667 -11.433333333333334 2.0 5000025.4453
10.848176666666667 -11.466666666666667 2.0 5000025.4453
10.798403333333333 -11.8 2.0 5000023.9521
10.71454 -12.266666666666667 2.0 5000021.4362
10.71454 -12.3 2.0 5000021.4362
10.522466666666666 -13.766666666666667 2.0 5000015.674
10.4852 -15.0 2.0 5000014.556
10.438306666666668 -16.0 2.0 5000013.1492
10.438306666666668 -16.033333333333335 2.0 5000013.1492
10.42463 -16.066666666666666 2.0 5000012.7389
10.42463 -16.1 2.0 5000012.7389
10.411776666666666 -16.133333333333333 2.0 5000012.3533
10.848176666666667 -11.4 1.9666666666666666 5000025.4453
10.848176666666667 -11.433333333333334 1.9666666666666666 5000025.4453
10.848176666666667 -11.466666666666667 1.9666666666666666 5000025.4453
10.798403333333333 -11.8 1.9666666666666666 5000023.9521
10.71454 -12.266666666666667 1.9666666666666666 5000021.4362
10.71454 -12.3 1.9666666666666666 5000021.4362
10.617283333333333 -12.4 1.9666666666666666 5000018.5185
10.4852 -15.2 1.9666666666666666 5000014.556
10.4852 -15.3 1.9666666666666666 5000014.556
10.4852 -15.333333333333334 1.9666666666666666 5000014.556
10.4852 -15.366666666666667 1.9666666666666666 5000014.556
10.42463 -16.066666666666666 1.9666666666666666 5000012.7389
10.848176666666667 -11.433333333333334 1.9333333333333333 5000025.4453
10.848176666666667 -11.466666666666667 1.9333333333333333 5000025.4453
10.71454 -12.233333333333333 1.9333333333333333 5000021.4362
10.71454 -12.266666666666667 1.9333333333333333 5000021.4362
10.71454 -12.3 1.9333333333333333 5000021.4362
10.590493333333333 -13.533333333333333 1.9333333333333333 5000017.7148
10.590493333333333 -13.566666666666666 1.9333333333333333 5000017.7148
10.4852 -14.966666666666667 1.9333333333333333 5000014.556
10.4852 -15.3 1.9333333333333333 5000014.556
10.4852 -15.333333333333334 1.9333333333333333 5000014.556
10.4852 -15.366666666666667 1.9333333333333333 5000014.556
10.4852 -15.4 1.9333333333333333 5000014.556
10.39968 -16.2 1.9333333333333333 5000011.9904
10.411776666666666 -16.233333333333334 1.9333333333333333 5000012.3533
10.71454 -12.233333333333333 1.9 5000021.4362
10.71454 -12.266666666666667 1.9 5000021.4362
10.71454 -12.3 1.9 5000021.4362
10.904566666666666 -13.233333333333333 1.9 5000027.137
10.904566666666666 -13.266666666666667 1.9 5000027.137
10.848176666666667 -13.3 1.9 5000025.4453
10.848176666666667 -13.333333333333334 1.9 5000025.4453
10.798403333333333 -13.366666666666667 1.9 5000023.9521
10.754146666666667 -13.4 1.9 5000022.6244
10.71454 -13.433333333333334 1.9 5000021.4362
10.64662 -13.466666666666667 1.9 5000019.3986
10.590493333333333 -13.5 1.9 5000017.7148
10.590493333333333 -13.533333333333333 1.9 5000017.7148
10.590493333333333 -13.566666666666666 1.9 5000017.7148
10.590493333333333 -13.6 1.9 5000017.7148
10.4852 -15.333333333333334 1.9 5000014.556
10.4852 -15.366666666666667 1.9 5000014.556
10.4852 -15.4 1.9 5000014.556
10.71454 -12.3 1.8666666666666667 5000021.4362
10.590493333333333 -13.533333333333333 1.8666666666666667 5000017.7148
10.590493333333333 -13.566666666666666 1.8666666666666667 5000017.7148
10.503143333333334 -13.7 1.8666666666666667 5000015.0943
10.503143333333334 -13.733333333333333 1.8666666666666667 5000015.0943
10.4852 -15.366666666666667 1.8666666666666667 5000014.556
10.848176666666667 -8.933333333333334 1.8333333333333333 5000025.4453
10.798403333333333 -11.633333333333333 1.8 5000023.9521
10.798403333333333 -11.666666666666666 1.8 5000023.9521
10.798403333333333 -11.7 1.8 5000023.9521
10.71454 -12.666666666666666 1.8 5000021.4362
10.678886666666667 -12.7 1.8 5000020.3666
10.678886666666667 -12.733333333333333 1.8 5000020.3666
10.678886666666667 -12.766666666666667 1.8 5000020.3666
10.42463 -16.0 1.8 5000012.7389
10.42463 -16.033333333333335 1.8 5000012.7389
10.798403333333333 -11.633333333333333 1.7666666666666666 5000023.9521
10.798403333333333 -11.666666666666666 1.7666666666666666 5000023.9521
10.798403333333333 -11.7 1.7666666666666666 5000023.9521
10.71454 -12.4 1.7666666666666666 5000021.4362
10.71454 -12.433333333333334 1.7666666666666666 5000021.4362
10.71454 -12.666666666666666 1.7666666666666666 5000021.4362
10.678886666666667 -12.7 1.7666666666666666 5000020.3666
10.678886666666667 -12.733333333333333 1.7666666666666666 5000020.3666
10.503143333333334 -14.666666666666666 1.7666666666666666 5000015.0943
10.503143333333334 -14.7 1.7666666666666666 5000015.0943
10.503143333333334 -14.733333333333333 1.7666666666666666 5000015.0943
10.42463 -15.966666666666667 1.7666666666666666 5000012.7389
10.42463 -16.0 1.7666666666666666 5000012.7389
10.42463 -16.033333333333335 1.7666666666666666 5000012.7389
10.42463 -16.066666666666666 1.7666666666666666 5000012.7389
10.848176666666667 -9.0 1.7333333333333334 5000025.4453
10.848176666666667 -9.033333333333333 1.7333333333333334 5000025.4453
10.678886666666667 -12.4 1.7333333333333334 5000020.3666
10.678886666666667 -12.433333333333334 1.7333333333333334 5000020.3666
10.503143333333334 -14.633333333333333 1.7333333333333334 5000015.0943
10.503143333333334 -14.666666666666666 1.7333333333333334 5000015.0943
10.503143333333334 -14.7 1.7333333333333334 5000015.0943
10.42463 -14.9 1.7333333333333334 5000012.7389
10.438306666666668 -15.8 1.7333333333333334 5000013.1492
10.42463 -15.833333333333334 1.7333333333333334 5000012.7389
10.42463 -15.866666666666667 1.7333333333333334 5000012.7389
10.42463 -15.9 1.7333333333333334 5000012.7389
10.42463 -16.033333333333335 1.7333333333333334 5000012.7389
10.503143333333334 -14.633333333333333 1.7 5000015.0943
10.503143333333334 -14.666666666666666 1.7 5000015.0943
10.42463 -14.866666666666667 1.7 5000012.7389
10.42463 -14.9 1.7 5000012.7389
10.42463 -14.933333333333334 1.7 5000012.7389
10.42463 -15.866666666666667 1.7 5000012.7389
10.42463 -15.9 1.7 5000012.7389
10.71454 -12.433333333333334 1.6666666666666667 5000021.4362
10.503143333333334 -14.633333333333333 1.6666666666666667 5000015.0943
10.503143333333334 -14.666666666666666 1.6666666666666667 5000015.0943
10.4529 -14.766666666666667 1.6666666666666667 5000013.587
10.4529 -14.8 1.6666666666666667 5000013.587
10.42463 -15.9 1.6666666666666667 5000012.7389
10.42463 -15.933333333333334 1.6666666666666667 5000012.7389
10.71454 -12.366666666666667 1.6333333333333333 5000021.4362
10.71454 -12.4 1.6333333333333333 5000021.4362
10.71454 -12.433333333333334 1.6333333333333333 5000021.4362
10.503143333333334 -14.6 1.6333333333333333 5000015.0943
10.503143333333334 -14.633333333333333 1.6333333333333333 5000015.0943
10.468493333333333 -14.733333333333333 1.6333333333333333 5000014.0548
10.4529 -14.766666666666667 1.6333333333333333 5000013.587
10.4852 -15.033333333333333 1.6333333333333333 5000014.556
10.590493333333333 -13.466666666666667 1.6 5000017.7148
10.503143333333334 -14.6 1.6 5000015.0943
10.503143333333334 -14.633333333333333 1.6 5000015.0943
10.438306666666668 -15.6 1.6 5000013.1492
10.438306666666668 -15.633333333333333 1.6 5000013.1492
10.438306666666668 -15.666666666666666 1.6 5000013.1492
10.678886666666667 -12.666666666666666 1.5666666666666667 5000020.3666
10.503143333333334 -14.633333333333333 1.5666666666666667 5000015.0943
10.438306666666668 -15.6 1.5666666666666667 5000013.1492
10.438306666666668 -15.633333333333333 1.5666666666666667 5000013.1492
10.3775 -15.866666666666667 1.5666666666666667 5000011.325
10.39968 -15.733333333333333 1.5333333333333334 5000011.9904
10.39968 -15.766666666666667 1.5333333333333334 5000011.9904
10.590493333333333 -13.466666666666667 1.5 5000017.7148
10.590493333333333 -13.5 1.5 5000017.7148
10.503143333333334 -14.6 1.5 5000015.0943
10.590493333333333 -13.466666666666667 1.4666666666666666 5000017.7148
10.590493333333333 -13.5 1.4666666666666666 5000017.7148
10.590493333333333 -13.533333333333333 1.4666666666666666 5000017.7148
10.503143333333334 -14.6 1.4666666666666666 5000015.0943
10.590493333333333 -13.466666666666667 1.4333333333333333 5000017.7148
10.590493333333333 -13.5 1.4333333333333333 5000017.7148
10.590493333333333 -13.533333333333333 1.4333333333333333 5000017.7148
10.590493333333333 -13.5 1.4 5000017.7148
10.590493333333333 -13.533333333333333 1.4 5000017.7148
10.56593 -13.933333333333334 1.4 5000016.9779
10.590493333333333 -13.966666666666667 1.4 5000017.7148
10.590493333333333 -14.0 1.4 5000017.7148
10.42463 -15.666666666666666 1.4 5000012.7389
10.42463 -15.7 1.4 5000012.7389
10.411776666666666 -15.766666666666667 1.4 5000012.3533
10.411776666666666 -15.8 1.4 5000012.3533
10.56593 -13.533333333333333 1.3666666666666667 5000016.9779
10.56593 -13.566666666666666 1.3666666666666667 5000016.9779
10.56593 -13.933333333333334 1.3666666666666667 5000016.9779
10.590493333333333 -13.966666666666667 1.3666666666666667 5000017.7148
10.42463 -15.666666666666666 1.3666666666666667 5000012.7389
10.56593 -13.533333333333333 1.3333333333333333 5000016.9779
10.56593 -13.566666666666666 1.3333333333333333 5000016.9779
10.56593 -14.033333333333333 1.3333333333333333 5000016.9779
10.590493333333333 -14.066666666666666 1.3333333333333333 5000017.7148
10.590493333333333 -14.133333333333333 1.3333333333333333 5000017.7148
10.590493333333333 -14.166666666666666 1.3333333333333333 5000017.7148
10.56593 -14.2 1.3333333333333333 5000016.9779
10.590493333333333 -14.233333333333333 1.3333333333333333 5000017.7148
10.590493333333333 -14.266666666666667 1.3333333333333333 5000017.7148
10.42463 -15.866666666666667 1.3333333333333333 5000012.7389
10.56593 -13.566666666666666 1.3 5000016.9779
10.39968 -14.366666666666667 1.3 5000011.9904
10.39968 -14.4 1.3 5000011.9904
10.388273333333334 -14.433333333333334 1.3 5000011.6482
10.388273333333334 -14.466666666666667 1.3 5000011.6482
10.388273333333334 -14.5 1.3 5000011.6482
10.3775 -14.533333333333333 1.3 5000011.325
10.438306666666668 -15.6 1.3 5000013.1492
10.438306666666668 -15.633333333333333 1.3 5000013.1492
10.42463 -15.833333333333334 1.3 5000012.7389
10.42463 -15.866666666666667 1.3 5000012.7389
10.42463 -15.9 1.3 5000012.7389
10.348493333333334 -17.7 1.3 5000010.4548
10.348493333333334 -17.733333333333334 1.3 5000010.4548
10.590493333333333 -9.6 1.2666666666666666 5000017.7148
10.590493333333333 -9.633333333333333 1.2666666666666666 5000017.7148
10.438306666666668 -15.566666666666666 1.2666666666666666 5000013.1492
10.438306666666668 -15.6 1.2666666666666666 5000013.1492
10.438306666666668 -15.633333333333333 1.2666666666666666 5000013.1492
10.468493333333333 -15.733333333333333 1.2666666666666666 5000014.0548
10.42463 -15.833333333333334 1.2666666666666666 5000012.7389
10.42463 -15.866666666666667 1.2666666666666666 5000012.7389
10.42463 -15.9 1.2666666666666666 5000012.7389
10.348493333333334 -17.666666666666668 1.2666666666666666 5000010.4548
10.348493333333334 -17.7 1.2666666666666666 5000010.4548
10.590493333333333 -9.6 1.2333333333333334 5000017.7148
10.590493333333333 -9.633333333333333 1.2333333333333334 5000017.7148
10.590493333333333 -9.666666666666666 1.2333333333333334 5000017.7148
10.503143333333334 -14.633333333333333 1.2333333333333334 5000015.0943
10.503143333333334 -14.666666666666666 1.2333333333333334 5000015.0943
10.438306666666668 -15.566666666666666 1.2333333333333334 5000013.1492
10.438306666666668 -15.6 1.2333333333333334 5000013.1492
