VERSION .7
FIELDS x y z rgb
SIZE 4 4 4 4
TYPE F F F F
COUNT 1 1 1 1
WIDTH 1650
HEIGHT 1
VIEWPOINT 0 0 0 1 0 0 0
POINTS 1650
DATA ascii
13.979940000000001 -5.74 2.94 16.2999
13.979940000000001 -5.76 2.94 16.2999
28.590239999999998 3.22 2.92 40.6504
12.3522 1.56 2.92 13.587
24.53898 -3.1 2.92 33.8983
24.53898 -3.12 2.92 33.8983
18.57126 -4.5 2.92 23.9521
18.57126 -4.58 2.92 23.9521
18.57126 -4.6 2.92 23.9521
17.06172 -4.68 2.92 21.4362
17.06172 -4.7 2.92 21.4362
13.979940000000001 -5.74 2.92 16.2999
12.3522 1.56 2.9 13.587
24.53898 -3.18 2.9 33.8983
24.53898 -3.2 2.9 33.8983
19.467180000000003 -3.92 2.9 25.4453
19.467180000000003 -3.94 2.9 25.4453
18.57126 -4.56 2.9 23.9521
18.57126 -4.62 2.9 23.9521
13.6044 -5.54 2.9 15.674
22.97934 -6.7 2.9 31.2989
22.97934 -6.74 2.9 31.2989
12.3522 1.56 2.88 13.587
24.53898 -3.2 2.88 33.8983
24.53898 -3.36 2.88 33.8983
19.467180000000003 -3.92 2.88 25.4453
19.467180000000003 -3.94 2.88 25.4453
19.467180000000003 -3.96 2.88 25.4453
18.57126 -4.54 2.88 23.9521
18.57126 -4.56 2.88 23.9521
13.979940000000001 -5.46 2.88 16.2999
13.979940000000001 -5.48 2.88 16.2999
13.6044 -5.5 2.88 15.674
13.6044 -5.52 2.88 15.674
13.6044 -5.54 2.88 15.674
13.25658 -5.56 2.88 15.0943
22.97934 -6.7 2.88 31.2989
12.3522 1.56 2.86 13.587
19.467180000000003 -3.94 2.86 25.4453
19.467180000000003 -4.5 2.86 25.4453
18.57126 -4.66 2.86 23.9521
18.57126 -4.68 2.86 23.9521
13.6044 -5.54 2.86 15.674
12.3522 1.56 2.84 13.587
19.467180000000003 -3.92 2.84 25.4453
19.467180000000003 -3.94 2.84 25.4453
19.467180000000003 -3.96 2.84 25.4453
19.467180000000003 -4.48 2.84 25.4453
19.467180000000003 -4.5 2.84 25.4453
19.467180000000003 -4.52 2.84 25.4453
18.57126 -4.66 2.84 23.9521
18.57126 -4.68 2.84 23.9521
13.25658 -5.62 2.84 15.0943
12.3522 1.56 2.82 13.587
19.467180000000003 -3.98 2.82 25.4453
14.386740000000001 -5.48 2.82 16.9779
14.386740000000001 -5.5 2.82 16.9779
11.394240000000002 -5.72 2.82 11.9904
13.25658 -6.74 2.82 15.0943
12.3522 1.56 2.8 13.587
26.38116 -3.08 2.8 36.9686
19.467180000000003 -3.96 2.8 25.4453
19.467180000000003 -3.98 2.8 25.4453
14.386740000000001 -5.48 2.8 16.9779
14.386740000000001 -5.5 2.8 16.9779
13.25658 -5.58 2.8 15.0943
11.394240000000002 -5.7 2.8 11.9904
13.25658 -6.7 2.8 15.0943
13.25658 -6.72 2.8 15.0943
13.25658 -6.74 2.8 15.0943
12.3522 1.56 2.78 13.587
26.38116 -3.06 2.78 36.9686
19.467180000000003 -3.96 2.78 25.4453
19.467180000000003 -3.98 2.78 25.4453
19.467180000000003 -4.0 2.78 25.4453
18.57126 -4.52 2.78 23.9521
18.57126 -4.54 2.78 23.9521
18.57126 -4.66 2.78 23.9521
18.57126 -4.68 2.78 23.9521
14.386740000000001 -5.48 2.78 16.9779
14.386740000000001 -5.5 2.78 16.9779
13.6044 -5.56 2.78 15.674
13.25658 -6.7 2.78 15.0943
12.3522 1.56 2.76 13.587
26.38116 -3.04 2.76 36.9686
24.53898 -3.1 2.76 33.8983
19.467180000000003 -3.98 2.76 25.4453
19.467180000000003 -4.0 2.76 25.4453
18.57126 -4.64 2.76 23.9521
18.57126 -4.66 2.76 23.9521
14.386740000000001 -5.5 2.76 16.9779
14.386740000000001 -5.52 2.76 16.9779
13.25658 -5.62 2.76 15.0943
12.3522 1.56 2.74 13.587
19.467180000000003 -3.98 2.74 25.4453
19.467180000000003 -4.0 2.74 25.4453
19.467180000000003 -4.02 2.74 25.4453
12.3522 1.56 2.72 13.587
19.467180000000003 -4.0 2.72 25.4453
124.19999999999999 -5.0 2.72 200.0
13.979940000000001 -5.4 2.72 16.2999
13.979940000000001 -5.42 2.72 16.2999
13.979940000000001 -5.44 2.72 16.2999
13.6044 -5.58 2.72 15.674
13.6044 -5.6 2.72 15.674
28.590239999999998 2.74 2.7 40.6504
12.3522 1.56 2.7 13.587
24.53898 -3.1 2.7 33.8983
24.53898 -3.12 2.7 33.8983
18.57126 -4.64 2.7 23.9521
13.979940000000001 -5.4 2.7 16.2999
13.979940000000001 -5.42 2.7 16.2999
13.979940000000001 -5.44 2.7 16.2999
14.82888 -5.5 2.7 17.7148
14.386740000000001 -5.52 2.7 16.9779
14.386740000000001 -5.54 2.7 16.9779
13.979940000000001 -5.56 2.7 16.2999
13.6044 -5.58 2.7 15.674
31.28802 3.16 2.68 45.1467
31.28802 3.14 2.68 45.1467
12.3522 1.56 2.68 13.587
18.57126 -4.62 2.68 23.9521
18.57126 -4.64 2.68 23.9521
18.57126 -4.66 2.68 23.9521
13.979940000000001 -5.42 2.68 16.2999
14.82888 -5.5 2.68 17.7148
13.25658 -6.04 2.68 15.0943
12.3522 1.56 2.66 13.587
24.53898 -3.36 2.66 33.8983
18.57126 -3.9 2.66 23.9521
18.57126 -3.92 2.66 23.9521
18.57126 -3.94 2.66 23.9521
18.57126 -4.66 2.66 23.9521
13.979940000000001 -5.42 2.66 16.2999
12.3522 1.56 2.64 13.587
24.53898 -3.38 2.64 33.8983
18.57126 -3.9 2.64 23.9521
18.57126 -3.92 2.64 23.9521
13.979940000000001 -5.4 2.64 16.2999
13.979940000000001 -5.42 2.64 16.2999
13.979940000000001 -5.44 2.64 16.2999
12.08952 -5.82 2.64 13.1492
13.25658 -6.5 2.64 15.0943
12.3522 1.56 2.62 13.587
13.979940000000001 -5.42 2.62 16.2999
14.386740000000001 -5.52 2.62 16.9779
12.3522 1.56 2.6 13.587
19.467180000000003 -3.92 2.6 25.4453
19.467180000000003 -3.94 2.6 25.4453
18.57126 -4.64 2.6 23.9521
13.979940000000001 -5.42 2.6 16.2999
13.979940000000001 -5.44 2.6 16.2999
13.979940000000001 -5.46 2.6 16.2999
13.6044 -5.6 2.6 15.674
13.6044 -5.62 2.6 15.674
12.933599999999998 -6.06 2.6 14.556
13.25658 -6.36 2.6 15.0943
13.25658 -6.38 2.6 15.0943
12.3522 1.56 2.58 13.587
24.53898 -3.04 2.58 33.8983
26.38116 -3.14 2.58 36.9686
22.97934 -3.38 2.58 31.2989
18.57126 -3.94 2.58 23.9521
18.57126 -4.64 2.58 23.9521
18.57126 -4.66 2.58 23.9521
18.57126 -4.68 2.58 23.9521
14.386740000000001 -5.4 2.58 16.9779
13.979940000000001 -5.42 2.58 16.2999
13.979940000000001 -5.44 2.58 16.2999
14.386740000000001 -5.52 2.58 16.9779
13.6044 -5.62 2.58 15.674
12.933599999999998 -6.04 2.58 14.556
12.933599999999998 -6.06 2.58 14.556
12.3522 1.56 2.56 13.587
24.53898 -3.04 2.56 33.8983
24.53898 -3.06 2.56 33.8983
26.38116 -3.14 2.56 36.9686
26.38116 -3.16 2.56 36.9686
18.57126 -3.94 2.56 23.9521
12.3522 1.56 2.54 13.587
24.53898 -3.04 2.54 33.8983
18.57126 -3.9 2.54 23.9521
12.3522 1.56 2.52 13.587
124.19999999999999 -2.92 2.52 200.0
24.53898 -3.06 2.52 33.8983
24.53898 -3.08 2.52 33.8983
18.57126 -4.64 2.52 23.9521
18.57126 -4.66 2.52 23.9521
13.25658 -5.64 2.52 15.0943
13.25658 -5.9 2.52 15.0943
12.3522 1.56 2.5 13.587
24.53898 -3.06 2.5 33.8983
24.53898 -3.08 2.5 33.8983
18.57126 -3.9 2.5 23.9521
18.57126 -3.98 2.5 23.9521
18.57126 -4.64 2.5 23.9521
18.57126 -4.66 2.5 23.9521
14.82888 -5.42 2.5 17.7148
14.82888 -5.44 2.5 17.7148
13.25658 -5.62 2.5 15.0943
13.25658 -5.64 2.5 15.0943
13.25658 -6.34 2.5 15.0943
12.63288 1.56 2.48 14.0548
24.53898 -3.12 2.48 33.8983
14.82888 -5.4 2.48 17.7148
14.82888 -5.42 2.48 17.7148
13.6044 -5.8 2.48 15.674
13.6044 -5.82 2.48 15.674
13.6044 -5.84 2.48 15.674
12.63288 1.56 2.46 14.0548
12.63288 1.56 2.44 14.0548
22.97934 -3.12 2.44 31.2989
18.57126 -4.6 2.44 23.9521
12.63288 1.56 2.42 14.0548
24.53898 -3.16 2.42 33.8983
19.467180000000003 -3.96 2.42 25.4453
19.467180000000003 -3.98 2.42 25.4453
19.467180000000003 -4.0 2.42 25.4453
18.57126 -4.6 2.42 23.9521
28.590239999999998 2.96 2.4 40.6504
28.590239999999998 2.94 2.4 40.6504
24.53898 -3.4 2.4 33.8983
19.467180000000003 -3.96 2.4 25.4453
19.467180000000003 -3.98 2.4 25.4453
19.467180000000003 -4.0 2.4 25.4453
18.57126 -4.02 2.4 23.9521
13.979940000000001 -5.52 2.4 16.2999
13.979940000000001 -5.54 2.4 16.2999
13.979940000000001 -5.56 2.4 16.2999
28.590239999999998 2.94 2.38 40.6504
12.63288 1.56 2.38 14.0548
24.53898 -3.04 2.38 33.8983
24.53898 -3.4 2.38 33.8983
20.4822 -5.28 2.38 27.137
13.979940000000001 -5.52 2.38 16.2999
13.979940000000001 -5.54 2.38 16.2999
13.979940000000001 -5.56 2.38 16.2999
12.933599999999998 -5.64 2.38 14.556
12.933599999999998 -5.66 2.38 14.556
13.979940000000001 -6.74 2.38 16.2999
24.53898 -3.04 2.36 33.8983
19.467180000000003 -4.58 2.36 25.4453
18.57126 -4.6 2.36 23.9521
18.57126 -4.64 2.36 23.9521
17.77464 -4.66 2.36 22.6244
13.979940000000001 -5.54 2.36 16.2999
12.933599999999998 -5.64 2.36 14.556
13.979940000000001 -6.68 2.36 16.2999
13.979940000000001 -6.7 2.36 16.2999
13.979940000000001 -6.72 2.36 16.2999
12.63288 1.56 2.34 14.0548
18.57126 -4.64 2.34 23.9521
11.61198 -5.8 2.34 12.3533
12.63288 1.56 2.32 14.0548
26.38116 -5.22 2.32 36.9686
26.38116 -5.24 2.32 36.9686
11.61198 -5.76 2.32 12.3533
13.25658 -6.46 2.32 15.0943
20.4822 -3.18 2.3 27.137
13.979940000000001 -6.4 2.3 16.2999
13.6044 -6.42 2.3 15.674
13.6044 -6.44 2.3 15.674
13.25658 -6.46 2.3 15.0943
13.25658 -6.5 2.3 15.0943
18.57126 -4.04 2.28 23.9521
18.57126 -4.6 2.28 23.9521
18.57126 -4.62 2.28 23.9521
18.57126 -4.64 2.28 23.9521
26.38116 -5.2 2.28 36.9686
13.6044 -5.58 2.28 15.674
13.6044 -5.6 2.28 15.674
14.82888 -6.34 2.28 17.7148
14.82888 -6.36 2.28 17.7148
14.386740000000001 -6.38 2.28 16.9779
13.6044 -6.44 2.28 15.674
13.25658 -6.46 2.28 15.0943
18.57126 -3.9 2.26 23.9521
18.57126 -3.92 2.26 23.9521
18.57126 -3.94 2.26 23.9521
18.57126 -4.62 2.26 23.9521
13.6044 -5.58 2.26 15.674
24.53898 -3.12 2.24 33.8983
18.57126 -3.9 2.24 23.9521
18.57126 -3.92 2.24 23.9521
13.25658 -5.92 2.24 15.0943
24.53898 -3.1 2.22 33.8983
18.57126 -4.6 2.22 23.9521
18.57126 -4.62 2.22 23.9521
13.6044 -5.66 2.22 15.674
14.386740000000001 -6.38 2.22 16.9779
14.386740000000001 -6.4 2.22 16.9779
13.979940000000001 -6.42 2.22 16.2999
13.979940000000001 -6.44 2.22 16.2999
13.25658 -6.46 2.22 15.0943
13.6044 -6.74 2.22 15.674
13.979940000000001 -5.5 2.2 16.2999
13.979940000000001 -5.52 2.2 16.2999
15.3111 -6.32 2.2 18.5185
14.82888 -6.34 2.2 17.7148
14.82888 -6.36 2.2 17.7148
14.386740000000001 -6.38 2.2 16.9779
24.53898 -3.18 2.18 33.8983
13.979940000000001 -5.54 2.18 16.2999
13.979940000000001 -5.56 2.18 16.2999
24.53898 -3.18 2.16 33.8983
24.53898 -3.2 2.16 33.8983
20.4822 -3.92 2.16 27.137
18.57126 -4.6 2.16 23.9521
13.979940000000001 -5.54 2.16 16.2999
12.63288 -5.68 2.16 14.0548
11.843340000000001 -5.78 2.16 12.7389
11.843340000000001 -5.8 2.16 12.7389
13.6044 -6.68 2.16 15.674
13.6044 -6.7 2.16 15.674
28.590239999999998 0.4 2.14 40.6504
34.65684 -0.22 2.14 50.7614
34.65684 -3.78 2.14 50.7614
18.57126 -4.6 2.14 23.9521
28.590239999999998 -5.18 2.14 40.6504
28.590239999999998 -5.2 2.14 40.6504
28.590239999999998 -5.22 2.14 40.6504
13.979940000000001 -5.54 2.14 16.2999
11.843340000000001 -5.78 2.14 12.7389
31.28802 0.28 2.12 45.1467
31.28802 0.26 2.12 45.1467
13.979940000000001 -5.54 2.12 16.2999
13.979940000000001 -5.56 2.12 16.2999
13.979940000000001 -5.58 2.12 16.2999
13.25658 -6.46 2.12 15.0943
26.38116 -3.16 2.1 36.9686
26.38116 -3.18 2.1 36.9686
20.4822 -3.24 2.1 27.137
28.590239999999998 -5.2 2.1 40.6504
28.590239999999998 -5.22 2.1 40.6504
13.979940000000001 -5.58 2.1 16.2999
13.25658 -6.34 2.1 15.0943
13.25658 -6.46 2.1 15.0943
24.53898 -3.04 2.08 33.8983
26.38116 -3.16 2.08 36.9686
19.467180000000003 -4.56 2.08 25.4453
26.38116 -5.26 2.08 36.9686
26.38116 -5.28 2.08 36.9686
13.979940000000001 -5.56 2.08 16.2999
13.979940000000001 -5.58 2.08 16.2999
14.386740000000001 -5.56 2.06 16.9779
13.25658 -6.22 2.06 15.0943
24.53898 -3.0 2.04 33.8983
24.53898 -3.4 2.04 33.8983
18.57126 -4.62 2.04 23.9521
18.57126 -4.64 2.04 23.9521
13.6044 -5.64 2.04 15.674
13.25658 -6.06 2.04 15.0943
24.53898 -3.4 2.02 33.8983
34.65684 -3.62 2.02 50.7614
19.467180000000003 -3.92 2.02 25.4453
18.57126 -4.62 2.02 23.9521
18.57126 -4.64 2.02 23.9521
13.979940000000001 -6.7 2.02 16.2999
22.97934 -3.06 2.0 31.2989
24.53898 -3.4 2.0 33.8983
17.06172 -4.0 2.0 21.4362
52.78302 -5.02 2.0 80.9717
52.78302 -5.04 2.0 80.9717
31.28802 2.8 1.98 45.1467
19.467180000000003 -3.9 1.98 25.4453
19.467180000000003 -3.92 1.98 25.4453
13.6044 -5.66 1.98 15.674
13.6044 -5.68 1.98 15.674
13.6044 -5.7 1.98 15.674
31.28802 2.8 1.96 45.1467
38.9826 2.22 1.96 57.971
28.590239999999998 -3.8 1.96 40.6504
19.467180000000003 -3.92 1.96 25.4453
19.467180000000003 -3.94 1.96 25.4453
13.6044 -5.66 1.96 15.674
13.6044 -5.68 1.96 15.674
12.933599999999998 -5.74 1.96 14.556
12.933599999999998 -5.76 1.96 14.556
13.6044 -6.58 1.96 15.674
26.38116 -3.02 1.94 36.9686
26.38116 -3.04 1.94 36.9686
21.64188 -3.1 1.94 29.0698
21.64188 -3.12 1.94 29.0698
18.57126 -4.56 1.94 23.9521
13.25658 -5.72 1.94 15.0943
12.933599999999998 -5.74 1.94 14.556
18.57126 -4.66 1.92 23.9521
19.467180000000003 -3.94 1.9 25.4453
18.57126 -4.66 1.9 23.9521
52.78302 -4.82 1.9 80.9717
22.97934 -6.74 1.9 31.2989
24.53898 -2.96 1.88 33.8983
18.57126 -4.64 1.88 23.9521
14.386740000000001 -5.7 1.88 16.9779
14.386740000000001 -5.72 1.88 16.9779
13.6044 -5.78 1.88 15.674
22.97934 -6.74 1.88 31.2989
38.9826 -1.1 1.86 57.971
22.97934 -3.4 1.86 31.2989
14.386740000000001 -5.7 1.86 16.9779
24.53898 -6.5 1.86 33.8983
22.97934 -6.74 1.86 31.2989
24.53898 -2.96 1.84 33.8983
34.65684 -3.64 1.84 50.7614
24.53898 -6.48 1.84 33.8983
24.53898 -6.5 1.84 33.8983
22.97934 -6.74 1.84 31.2989
52.78302 -4.88 1.82 80.9717
52.78302 -4.9 1.82 80.9717
52.78302 -4.92 1.82 80.9717
28.590239999999998 -5.36 1.82 40.6504
14.386740000000001 -5.62 1.82 16.9779
14.386740000000001 -5.64 1.82 16.9779
24.53898 -6.46 1.82 33.8983
24.53898 -6.48 1.82 33.8983
22.97934 -6.74 1.82 31.2989
28.590239999999998 3.14 1.8 40.6504
19.467180000000003 -3.86 1.8 25.4453
19.467180000000003 -3.88 1.8 25.4453
19.467180000000003 -3.9 1.8 25.4453
14.386740000000001 -5.8 1.8 16.9779
13.979940000000001 -5.82 1.8 16.2999
22.97934 -6.74 1.8 31.2989
19.467180000000003 -3.86 1.78 25.4453
17.06172 -3.96 1.78 21.4362
14.386740000000001 -5.8 1.78 16.9779
14.386740000000001 -5.82 1.78 16.9779
13.25658 -5.92 1.78 15.0943
13.25658 -5.94 1.78 15.0943
22.97934 -6.74 1.78 31.2989
38.9826 -0.56 1.76 57.971
44.74056 -1.4 1.76 67.5676
44.74056 -1.42 1.76 67.5676
26.38116 -2.92 1.76 36.9686
26.38116 -2.94 1.76 36.9686
13.979940000000001 -5.86 1.76 16.2999
13.979940000000001 -5.88 1.76 16.2999
13.25658 -5.94 1.76 15.0943
13.25658 -5.96 1.76 15.0943
22.97934 -6.74 1.76 31.2989
38.9826 -0.56 1.74 57.971
38.9826 -0.7 1.74 57.971
26.38116 -0.78 1.74 36.9686
26.38116 -0.8 1.74 36.9686
26.38116 -2.92 1.74 36.9686
26.38116 -2.94 1.74 36.9686
19.467180000000003 -3.86 1.74 25.4453
13.979940000000001 -5.84 1.74 16.2999
13.979940000000001 -5.86 1.74 16.2999
13.979940000000001 -5.88 1.74 16.2999
13.25658 -5.94 1.74 15.0943
13.6044 -6.54 1.74 15.674
26.38116 3.96 1.72 36.9686
38.9826 -0.7 1.72 57.971
38.9826 -0.72 1.72 57.971
34.65684 -3.66 1.72 50.7614
20.4822 -3.84 1.72 27.137
14.386740000000001 -5.7 1.72 16.9779
13.6044 -6.36 1.72 15.674
13.6044 -6.54 1.72 15.674
31.28802 -2.42 1.7 45.1467
34.65684 -3.66 1.7 50.7614
64.806 -4.62 1.7 101.01
13.979940000000001 -5.74 1.7 16.2999
13.979940000000001 -5.76 1.7 16.2999
13.6044 -6.18 1.7 15.674
13.6044 -6.36 1.7 15.674
13.6044 -6.42 1.7 15.674
18.57126 -3.9 1.68 23.9521
18.57126 -3.92 1.68 23.9521
34.65684 -5.0 1.68 50.7614
13.979940000000001 -5.72 1.68 16.2999
13.979940000000001 -5.74 1.68 16.2999
13.979940000000001 -5.76 1.68 16.2999
13.6044 -6.36 1.68 15.674
22.97934 -6.74 1.68 31.2989
44.74056 -0.74 1.66 67.5676
38.9826 -1.4 1.66 57.971
44.74056 -1.98 1.66 67.5676
22.97934 -2.98 1.66 31.2989
34.65684 -5.0 1.66 50.7614
13.6044 -6.0 1.66 15.674
13.6044 -6.02 1.66 15.674
13.6044 -6.38 1.66 15.674
13.6044 -6.4 1.66 15.674
22.97934 -6.74 1.66 31.2989
28.590239999999998 3.14 1.64 40.6504
44.74056 -0.74 1.64 67.5676
44.74056 -1.98 1.64 67.5676
13.6044 -6.0 1.64 15.674
13.6044 -6.38 1.64 15.674
22.97934 -6.74 1.64 31.2989
26.38116 4.92 1.62 36.9686
26.38116 4.9 1.62 36.9686
24.53898 -5.44 1.62 33.8983
13.6044 -5.98 1.62 15.674
13.6044 -6.0 1.62 15.674
22.97934 -6.74 1.62 31.2989
24.53898 -3.0 1.6 33.8983
19.467180000000003 -3.88 1.6 25.4453
13.6044 -6.18 1.6 15.674
22.97934 -6.74 1.6 31.2989
38.9826 2.04 1.58 57.971
24.53898 -3.42 1.58 33.8983
19.467180000000003 -3.88 1.58 25.4453
18.57126 -4.6 1.58 23.9521
13.6044 -6.16 1.58 15.674
13.6044 -6.4 1.58 15.674
13.6044 -6.42 1.58 15.674
22.97934 -6.74 1.58 31.2989
64.806 2.64 1.56 101.01
24.53898 -3.42 1.56 33.8983
19.467180000000003 -3.9 1.56 25.4453
19.467180000000003 -3.92 1.56 25.4453
13.6044 -6.18 1.56 15.674
13.6044 -6.2 1.56 15.674
13.6044 -6.22 1.56 15.674
13.6044 -6.4 1.56 15.674
13.6044 -6.42 1.56 15.674
22.97934 -6.74 1.56 31.2989
64.806 2.62 1.54 101.01
64.806 2.6 1.54 101.01
44.74056 -0.76 1.54 67.5676
38.9826 -1.14 1.54 57.971
44.74056 -1.96 1.54 67.5676
19.467180000000003 -3.92 1.54 25.4453
26.38116 -5.46 1.54 36.9686
13.6044 -6.2 1.54 15.674
13.6044 -6.4 1.54 15.674
22.97934 -6.74 1.54 31.2989
28.590239999999998 4.86 1.52 40.6504
64.806 2.6 1.52 101.01
64.806 2.58 1.52 101.01
38.9826 -0.44 1.52 57.971
44.74056 -0.78 1.52 67.5676
22.97934 -2.96 1.52 31.2989
22.97934 -2.98 1.52 31.2989
13.6044 -6.22 1.52 15.674
13.6044 -6.4 1.52 15.674
22.97934 -6.74 1.52 31.2989
64.806 2.58 1.5 101.01
44.74056 -0.78 1.5 67.5676
34.65684 -2.4 1.5 50.7614
19.467180000000003 -3.96 1.5 25.4453
20.4822 -3.98 1.5 27.137
24.53898 -5.76 1.5 33.8983
24.53898 -5.78 1.5 33.8983
26.38116 4.48 1.48 36.9686
38.9826 -0.48 1.48 57.971
44.74056 -0.78 1.48 67.5676
26.38116 -0.88 1.48 36.9686
24.53898 -2.98 1.48 33.8983
22.97934 -3.0 1.48 31.2989
28.590239999999998 -5.36 1.48 40.6504
24.53898 -5.76 1.48 33.8983
13.6044 -6.38 1.48 15.674
44.74056 -0.78 1.46 67.5676
44.74056 -0.8 1.46 67.5676
26.38116 -0.88 1.46 36.9686
24.53898 -3.4 1.46 33.8983
18.57126 -4.58 1.46 23.9521
13.6044 -6.38 1.46 15.674
13.6044 -6.4 1.46 15.674
64.806 2.66 1.44 101.01
44.74056 -0.8 1.44 67.5676
24.53898 -2.94 1.44 33.8983
24.53898 -2.96 1.44 33.8983
34.65684 -3.78 1.44 50.7614
17.77464 -4.18 1.44 22.6244
13.6044 -6.18 1.44 15.674
13.6044 -6.2 1.44 15.674
13.6044 -6.22 1.44 15.674
13.6044 -6.38 1.44 15.674
13.6044 -6.4 1.44 15.674
28.590239999999998 4.14 1.42 40.6504
28.590239999999998 4.12 1.42 40.6504
64.806 2.66 1.42 101.01
44.74056 -0.8 1.42 67.5676
44.74056 -0.82 1.42 67.5676
34.65684 -2.38 1.42 50.7614
64.806 -2.5 1.42 101.01
26.38116 -5.56 1.42 36.9686
13.6044 -6.18 1.42 15.674
13.6044 -6.2 1.42 15.674
13.6044 -6.38 1.42 15.674
13.6044 -6.4 1.42 15.674
26.38116 4.52 1.4 36.9686
26.38116 4.5 1.4 36.9686
26.38116 4.48 1.4 36.9686
28.590239999999998 4.16 1.4 40.6504
44.74056 -0.8 1.4 67.5676
44.74056 -0.82 1.4 67.5676
34.65684 -2.38 1.4 50.7614
44.74056 -5.08 1.4 67.5676
26.38116 -5.54 1.4 36.9686
26.38116 -5.56 1.4 36.9686
13.6044 -6.38 1.4 15.674
38.9826 2.16 1.38 57.971
44.74056 -0.8 1.38 67.5676
44.74056 -0.82 1.38 67.5676
34.65684 -2.38 1.38 50.7614
44.74056 -5.08 1.38 67.5676
26.38116 -5.56 1.38 36.9686
13.6044 -6.2 1.38 15.674
13.6044 -6.38 1.38 15.674
28.590239999999998 5.02 1.36 40.6504
84.7368 2.62 1.36 134.228
13.6044 -6.2 1.36 15.674
13.25658 -6.26 1.36 15.0943
13.6044 -6.4 1.36 15.674
28.590239999999998 5.24 1.34 40.6504
84.7368 2.62 1.34 134.228
52.78302 0.94 1.34 80.9717
52.78302 0.92 1.34 80.9717
26.38116 -0.9 1.34 36.9686
26.38116 -2.94 1.34 36.9686
26.38116 -2.96 1.34 36.9686
26.38116 -2.98 1.34 36.9686
24.53898 -3.02 1.34 33.8983
20.4822 -3.04 1.34 27.137
13.6044 -6.2 1.34 15.674
13.6044 -6.22 1.34 15.674
13.6044 -6.24 1.34 15.674
13.6044 -6.4 1.34 15.674
13.6044 -6.42 1.34 15.674
52.78302 0.92 1.32 80.9717
44.74056 -0.82 1.32 67.5676
124.19999999999999 -2.78 1.32 200.0
26.38116 -2.96 1.32 36.9686
20.4822 -3.08 1.32 27.137
13.6044 -6.4 1.32 15.674
13.6044 -6.42 1.32 15.674
52.78302 0.92 1.3 80.9717
21.64188 -3.06 1.3 29.0698
20.4822 -3.08 1.3 27.137
13.6044 -6.24 1.3 15.674
13.6044 -6.26 1.3 15.674
13.6044 -6.4 1.3 15.674
64.806 2.66 1.28 101.01
38.9826 -0.54 1.28 57.971
38.9826 -0.56 1.28 57.971
16.419959999999996 -1.06 1.28 20.3666
13.6044 -6.24 1.28 15.674
13.6044 -6.26 1.28 15.674
13.6044 -6.42 1.28 15.674
64.806 2.64 1.26 101.01
38.9826 -0.56 1.26 57.971
38.9826 -0.58 1.26 57.971
16.419959999999996 -1.06 1.26 20.3666
24.53898 -3.0 1.26 33.8983
24.53898 -3.02 1.26 33.8983
31.28802 -5.22 1.26 45.1467
13.6044 -6.24 1.26 15.674
13.6044 -6.26 1.26 15.674
13.6044 -6.4 1.26 15.674
13.6044 -6.42 1.26 15.674
13.6044 -6.44 1.26 15.674
64.806 2.64 1.24 101.01
64.806 2.62 1.24 101.01
38.9826 -0.58 1.24 57.971
34.65684 -2.36 1.24 50.7614
34.65684 -2.38 1.24 50.7614
24.53898 -3.0 1.24 33.8983
24.53898 -3.02 1.24 33.8983
24.53898 -3.04 1.24 33.8983
13.6044 -6.42 1.24 15.674
64.806 2.62 1.22 101.01
124.19999999999999 -0.76 1.22 200.0
44.74056 -0.84 1.22 67.5676
24.53898 -0.94 1.22 33.8983
34.65684 -2.36 1.22 50.7614
34.65684 -2.38 1.22 50.7614
24.53898 -3.02 1.22 33.8983
26.38116 -5.72 1.22 36.9686
52.78302 0.96 1.2 80.9717
44.74056 -0.84 1.2 67.5676
26.38116 -5.72 1.2 36.9686
13.6044 -6.22 1.2 15.674
13.6044 -6.24 1.2 15.674
13.6044 -6.26 1.2 15.674
13.6044 -6.48 1.2 15.674
13.6044 -6.5 1.2 15.674
44.74056 1.52 1.18 67.5676
44.74056 -0.84 1.18 67.5676
18.57126 -1.04 1.18 23.9521
24.53898 -2.96 1.18 33.8983
13.6044 -6.22 1.18 15.674
13.6044 -6.24 1.18 15.674
13.6044 -6.26 1.18 15.674
13.6044 -6.48 1.18 15.674
13.6044 -6.5 1.18 15.674
31.28802 3.68 1.16 45.1467
31.28802 3.64 1.16 45.1467
38.9826 -0.6 1.16 57.971
44.74056 -0.86 1.16 67.5676
26.38116 -0.94 1.16 36.9686
28.590239999999998 -5.38 1.16 40.6504
26.38116 -5.72 1.16 36.9686
13.6044 -6.22 1.16 15.674
13.6044 -6.24 1.16 15.674
13.6044 -6.26 1.16 15.674
13.6044 -6.48 1.16 15.674
13.6044 -6.5 1.16 15.674
28.590239999999998 4.44 1.14 40.6504
28.590239999999998 4.42 1.14 40.6504
31.28802 3.76 1.14 45.1467
44.74056 1.46 1.14 67.5676
44.74056 -0.86 1.14 67.5676
26.38116 -0.94 1.14 36.9686
28.590239999999998 -5.38 1.14 40.6504
26.38116 -5.72 1.14 36.9686
13.6044 -6.48 1.14 15.674
13.6044 -6.5 1.14 15.674
44.74056 -0.86 1.12 67.5676
124.19999999999999 -2.24 1.12 200.0
34.65684 -2.36 1.12 50.7614
34.65684 -2.38 1.12 50.7614
28.590239999999998 -5.38 1.12 40.6504
13.6044 -6.24 1.12 15.674
13.6044 -6.48 1.12 15.674
13.6044 -6.5 1.12 15.674
28.590239999999998 4.26 1.1 40.6504
44.74056 -0.86 1.1 67.5676
26.38116 -0.96 1.1 36.9686
34.65684 -2.38 1.1 50.7614
13.6044 -6.2 1.1 15.674
13.6044 -6.48 1.1 15.674
13.6044 -6.5 1.1 15.674
26.38116 5.26 1.08 36.9686
52.78302 0.96 1.08 80.9717
44.74056 -0.88 1.08 67.5676
26.38116 -0.96 1.08 36.9686
44.74056 -1.46 1.08 67.5676
34.65684 -2.38 1.08 50.7614
13.6044 -6.2 1.08 15.674
13.6044 -6.22 1.08 15.674
13.6044 -6.24 1.08 15.674
13.6044 -6.48 1.08 15.674
13.6044 -6.5 1.08 15.674
26.38116 5.26 1.06 36.9686
44.74056 -0.88 1.06 67.5676
26.38116 -0.96 1.06 36.9686
18.57126 -4.28 1.06 23.9521
18.57126 -4.3 1.06 23.9521
13.6044 -6.2 1.06 15.674
13.6044 -6.22 1.06 15.674
13.25658 -6.28 1.06 15.0943
12.933599999999998 -6.3 1.06 14.556
13.6044 -6.48 1.06 15.674
13.6044 -6.5 1.06 15.674
38.9826 -0.66 1.04 57.971
18.57126 -4.3 1.04 23.9521
13.6044 -6.22 1.04 15.674
13.6044 -6.46 1.04 15.674
13.6044 -6.48 1.04 15.674
52.78302 0.94 1.02 80.9717
38.9826 -1.4 1.02 57.971
124.19999999999999 -2.24 1.02 200.0
13.6044 -6.22 1.02 15.674
13.6044 -6.24 1.02 15.674
13.6044 -6.46 1.02 15.674
13.6044 -6.48 1.02 15.674
44.74056 -0.88 1.0 67.5676
44.74056 -0.9 1.0 67.5676
13.6044 -6.2 1.0 15.674
13.6044 -6.22 1.0 15.674
13.6044 -6.24 1.0 15.674
13.6044 -6.46 1.0 15.674
13.6044 -6.48 1.0 15.674
44.74056 -0.9 0.98 67.5676
52.78302 -1.46 0.98 80.9717
22.97934 -3.08 0.98 31.2989
13.6044 -6.22 0.98 15.674
13.6044 -6.24 0.98 15.674
13.6044 -6.26 0.98 15.674
44.74056 -0.9 0.96 67.5676
44.74056 -0.92 0.96 67.5676
52.78302 -1.46 0.96 80.9717
21.64188 -1.62 0.96 29.0698
52.78302 -5.08 0.96 80.9717
13.6044 -6.22 0.96 15.674
13.6044 -6.24 0.96 15.674
26.38116 5.22 0.94 36.9686
44.74056 -0.9 0.94 67.5676
44.74056 -0.92 0.94 67.5676
13.6044 -6.5 0.94 15.674
13.6044 -6.52 0.94 15.674
38.9826 -2.36 0.92 57.971
38.9826 -2.38 0.92 57.971
34.65684 -3.84 0.92 50.7614
13.6044 -6.5 0.92 15.674
13.6044 -6.52 0.92 15.674
22.97934 -6.64 0.92 31.2989
22.97934 -6.66 0.92 31.2989
26.38116 5.22 0.9 36.9686
28.590239999999998 3.74 0.9 40.6504
28.590239999999998 3.72 0.9 40.6504
44.74056 -0.5 0.9 67.5676
44.74056 -0.92 0.9 67.5676
38.9826 -2.36 0.9 57.971
38.9826 -2.38 0.9 57.971
22.97934 -3.02 0.9 31.2989
34.65684 -3.84 0.9 50.7614
13.25658 -6.32 0.9 15.0943
22.97934 -6.64 0.9 31.2989
44.74056 -0.92 0.88 67.5676
44.74056 -0.94 0.88 67.5676
26.38116 -1.0 0.88 36.9686
26.38116 -3.1 0.88 36.9686
26.38116 -3.12 0.88 36.9686
26.38116 -3.14 0.88 36.9686
34.65684 -3.84 0.88 50.7614
18.57126 -4.28 0.88 23.9521
13.6044 -6.26 0.88 15.674
13.6044 -6.28 0.88 15.674
13.6044 -6.3 0.88 15.674
13.25658 -6.32 0.88 15.0943
22.97934 -6.64 0.88 31.2989
26.38116 -1.0 0.86 36.9686
26.38116 -3.1 0.86 36.9686
26.38116 -3.12 0.86 36.9686
34.65684 -3.84 0.86 50.7614
34.65684 -5.0 0.86 50.7614
34.65684 -5.02 0.86 50.7614
13.6044 -6.26 0.86 15.674
13.6044 -6.28 0.86 15.674
13.6044 -6.5 0.86 15.674
13.6044 -6.52 0.86 15.674
28.590239999999998 5.2 0.84 40.6504
84.7368 0.5 0.84 134.228
44.74056 -0.9 0.84 67.5676
44.74056 -0.92 0.84 67.5676
26.38116 -1.0 0.84 36.9686
15.3111 -1.18 0.84 18.5185
44.74056 -1.48 0.84 67.5676
13.6044 -6.5 0.84 15.674
13.6044 -6.52 0.84 15.674
84.7368 0.5 0.82 134.228
84.7368 -0.72 0.82 134.228
38.9826 -0.78 0.82 57.971
44.74056 -0.92 0.82 67.5676
26.38116 -1.0 0.82 36.9686
24.53898 -3.22 0.82 33.8983
13.6044 -6.32 0.82 15.674
13.6044 -6.34 0.82 15.674
13.6044 -6.5 0.82 15.674
28.590239999999998 5.2 0.8 40.6504
26.38116 4.54 0.8 36.9686
84.7368 0.5 0.8 134.228
44.74056 -0.92 0.8 67.5676
44.74056 -0.94 0.8 67.5676
26.38116 -1.0 0.8 36.9686
26.38116 -1.02 0.8 36.9686
24.53898 -3.22 0.8 33.8983
31.28802 -3.5 0.8 45.1467
31.28802 -3.52 0.8 45.1467
13.6044 -6.32 0.8 15.674
13.6044 -6.34 0.8 15.674
13.6044 -6.5 0.8 15.674
84.7368 0.5 0.78 134.228
44.74056 -0.92 0.78 67.5676
13.6044 -6.34 0.78 15.674
13.6044 -6.36 0.78 15.674
13.6044 -6.5 0.78 15.674
28.590239999999998 4.48 0.76 40.6504
84.7368 1.1 0.76 134.228
84.7368 0.5 0.76 134.228
44.74056 -0.72 0.76 67.5676
44.74056 -0.74 0.76 67.5676
44.74056 -1.14 0.76 67.5676
13.6044 -6.34 0.76 15.674
13.6044 -6.5 0.76 15.674
28.590239999999998 5.18 0.74 40.6504
52.78302 -2.32 0.74 80.9717
13.6044 -6.32 0.74 15.674
13.6044 -6.34 0.74 15.674
44.74056 -1.48 0.72 67.5676
44.74056 -2.34 0.72 67.5676
84.7368 -2.94 0.72 134.228
84.7368 -2.96 0.72 134.228
13.6044 -6.5 0.72 15.674
28.590239999999998 4.2 0.7 40.6504
44.74056 -1.48 0.7 67.5676
26.38116 -5.84 0.7 36.9686
26.38116 -5.86 0.7 36.9686
24.53898 -6.0 0.7 33.8983
13.6044 -6.36 0.7 15.674
13.6044 -6.5 0.7 15.674
84.7368 -0.54 0.68 134.228
52.78302 -1.22 0.68 80.9717
52.78302 -1.24 0.68 80.9717
44.74056 -2.34 0.68 67.5676
44.74056 -2.36 0.68 67.5676
19.467180000000003 -4.26 0.68 25.4453
19.467180000000003 -4.28 0.68 25.4453
26.38116 -5.84 0.68 36.9686
26.38116 -5.86 0.68 36.9686
26.38116 -5.88 0.68 36.9686
24.53898 -6.0 0.68 33.8983
13.6044 -6.34 0.68 15.674
13.6044 -6.5 0.68 15.674
52.78302 0.98 0.66 80.9717
84.7368 -0.54 0.66 134.228
52.78302 -1.26 0.66 80.9717
52.78302 -1.6 0.66 80.9717
26.38116 -5.84 0.66 36.9686
21.64188 -6.54 0.66 29.0698
22.97934 -6.56 0.66 31.2989
52.78302 0.96 0.64 80.9717
84.7368 -0.54 0.64 134.228
28.590239999999998 -5.62 0.64 40.6504
28.590239999999998 -5.64 0.64 40.6504
26.38116 -5.76 0.64 36.9686
52.78302 -1.48 0.62 80.9717
28.590239999999998 -5.62 0.62 40.6504
28.590239999999998 -5.64 0.62 40.6504
26.38116 5.16 0.6 36.9686
52.78302 0.94 0.6 80.9717
52.78302 -1.5 0.6 80.9717
38.9826 -3.74 0.6 57.971
38.9826 -3.76 0.6 57.971
13.6044 -6.3 0.6 15.674
13.6044 -6.32 0.6 15.674
22.97934 -6.48 0.6 31.2989
52.78302 0.94 0.58 80.9717
44.74056 -1.6 0.58 67.5676
34.65684 -4.98 0.58 50.7614
24.53898 -5.48 0.58 33.8983
22.97934 -6.48 0.58 31.2989
52.78302 0.94 0.56 80.9717
44.74056 -1.6 0.56 67.5676
28.590239999999998 -5.36 0.56 40.6504
28.590239999999998 -5.38 0.56 40.6504
26.38116 -5.44 0.56 36.9686
64.806 0.54 0.54 101.01
34.65684 -4.98 0.54 50.7614
28.590239999999998 -5.36 0.54 40.6504
28.590239999999998 -5.38 0.54 40.6504
28.590239999999998 -5.4 0.54 40.6504
26.38116 -5.44 0.54 36.9686
22.97934 -6.0 0.54 31.2989
22.97934 -6.02 0.54 31.2989
22.97934 -6.04 0.54 31.2989
84.7368 0.54 0.52 134.228
64.806 -2.3 0.52 101.01
34.65684 -4.96 0.52 50.7614
34.65684 -4.98 0.52 50.7614
28.590239999999998 4.38 0.5 40.6504
52.78302 3.36 0.5 80.9717
84.7368 0.98 0.5 134.228
84.7368 0.54 0.5 134.228
22.97934 -6.48 0.5 31.2989
84.7368 0.98 0.48 134.228
84.7368 0.54 0.48 134.228
84.7368 -0.12 0.48 134.228
124.19999999999999 -1.84 0.48 200.0
34.65684 -3.14 0.48 50.7614
24.53898 -3.24 0.48 33.8983
26.38116 -5.76 0.48 36.9686
26.38116 -5.78 0.48 36.9686
26.38116 -5.8 0.48 36.9686
22.97934 -6.48 0.48 31.2989
84.7368 0.98 0.46 134.228
84.7368 0.54 0.46 134.228
24.53898 -3.24 0.46 33.8983
13.6044 -6.38 0.46 15.674
13.6044 -6.4 0.46 15.674
28.590239999999998 4.6 0.44 40.6504
84.7368 0.98 0.44 134.228
84.7368 -0.12 0.44 134.228
18.57126 -4.38 0.44 23.9521
26.38116 -5.58 0.44 36.9686
84.7368 0.98 0.42 134.228
84.7368 -0.12 0.42 134.228
84.7368 -0.72 0.42 134.228
84.7368 -0.74 0.42 134.228
18.57126 -4.38 0.42 23.9521
26.38116 -5.56 0.42 36.9686
26.38116 -5.58 0.42 36.9686
84.7368 -0.42 0.4 134.228
84.7368 -0.74 0.4 134.228
52.78302 -1.5 0.4 80.9717
52.78302 -1.52 0.4 80.9717
34.65684 -4.96 0.4 50.7614
34.65684 -4.98 0.4 50.7614
38.9826 -5.16 0.4 57.971
28.590239999999998 -5.5 0.4 40.6504
26.38116 -5.58 0.4 36.9686
20.4822 -1.06 0.38 27.137
34.65684 -4.96 0.38 50.7614
34.65684 -4.98 0.38 50.7614
31.28802 -5.22 0.38 45.1467
13.979940000000001 -6.36 0.38 16.2999
13.6044 -6.54 0.38 15.674
13.6044 -6.56 0.38 15.674
12.3522 1.7 0.36 13.587
12.3522 1.68 0.36 13.587
38.9826 -2.64 0.36 57.971
34.65684 -3.64 0.36 50.7614
34.65684 -3.66 0.36 50.7614
38.9826 -3.8 0.36 57.971
34.65684 -4.98 0.36 50.7614
26.38116 -5.74 0.36 36.9686
22.97934 -6.48 0.36 31.2989
13.6044 -6.54 0.36 15.674
13.6044 -6.56 0.36 15.674
12.3522 1.7 0.34 13.587
52.78302 0.88 0.34 80.9717
26.38116 -5.74 0.34 36.9686
13.6044 -6.42 0.34 15.674
22.97934 -6.44 0.34 31.2989
12.3522 1.7 0.32 13.587
52.78302 0.88 0.32 80.9717
52.78302 0.86 0.32 80.9717
44.74056 -1.46 0.32 67.5676
44.74056 -1.48 0.32 67.5676
24.53898 -1.58 0.32 33.8983
26.38116 -5.74 0.32 36.9686
13.6044 -6.56 0.32 15.674
13.6044 -6.58 0.32 15.674
24.53898 5.26 0.3 33.8983
12.3522 1.72 0.3 13.587
84.7368 0.2 0.3 134.228
38.9826 -0.9 0.3 57.971
44.74056 -1.46 0.3 67.5676
44.74056 -1.48 0.3 67.5676
28.590239999999998 -1.58 0.3 40.6504
44.74056 -2.62 0.3 67.5676
22.97934 -6.48 0.3 31.2989
13.6044 -6.56 0.3 15.674
13.6044 -6.58 0.3 15.674
24.53898 5.26 0.28 33.8983
12.3522 1.72 0.28 13.587
84.7368 0.18 0.28 134.228
84.7368 -0.62 0.28 134.228
44.74056 -1.46 0.28 67.5676
44.74056 -1.48 0.28 67.5676
28.590239999999998 -1.56 0.28 40.6504
38.9826 -2.62 0.28 57.971
38.9826 -2.64 0.28 57.971
13.6044 -6.36 0.28 15.674
13.6044 -6.38 0.28 15.674
13.6044 -6.58 0.28 15.674
12.3522 1.72 0.26 13.587
84.7368 0.2 0.26 134.228
84.7368 0.18 0.26 134.228
52.78302 -1.46 0.26 80.9717
52.78302 -1.48 0.26 80.9717
28.590239999999998 -1.56 0.26 40.6504
52.78302 -2.48 0.26 80.9717
52.78302 -2.5 0.26 80.9717
13.6044 -6.36 0.26 15.674
13.6044 -6.38 0.26 15.674
13.6044 -6.58 0.26 15.674
12.3522 1.72 0.24 13.587
84.7368 0.18 0.24 134.228
52.78302 -1.46 0.24 80.9717
52.78302 -1.48 0.24 80.9717
44.74056 -2.6 0.24 67.5676
38.9826 -2.62 0.24 57.971
26.38116 -5.74 0.24 36.9686
13.6044 -6.36 0.24 15.674
13.6044 -6.38 0.24 15.674
13.6044 -6.58 0.24 15.674
24.53898 5.5 0.22 33.8983
24.53898 5.32 0.22 33.8983
12.3522 1.72 0.22 13.587
84.7368 0.18 0.22 134.228
84.7368 -0.2 0.22 134.228
64.806 -2.54 0.22 101.01
52.78302 -2.56 0.22 80.9717
52.78302 -2.58 0.22 80.9717
44.74056 -2.6 0.22 67.5676
38.9826 -2.62 0.22 57.971
34.65684 -2.64 0.22 50.7614
34.65684 -2.66 0.22 50.7614
13.6044 -6.58 0.22 15.674
24.53898 5.32 0.2 33.8983
28.590239999999998 4.32 0.2 40.6504
12.3522 1.72 0.2 13.587
84.7368 0.6 0.2 134.228
84.7368 0.58 0.2 134.228
84.7368 0.2 0.2 134.228
84.7368 0.18 0.2 134.228
84.7368 -0.2 0.2 134.228
64.806 -2.54 0.2 101.01
52.78302 -2.56 0.2 80.9717
52.78302 -2.58 0.2 80.9717
44.74056 -2.6 0.2 67.5676
38.9826 -2.62 0.2 57.971
34.65684 -2.66 0.2 50.7614
44.74056 -4.06 0.2 67.5676
52.78302 -5.18 0.2 80.9717
24.53898 5.32 0.18 33.8983
12.08952 1.72 0.18 13.1492
84.7368 0.6 0.18 134.228
124.19999999999999 0.06 0.18 200.0
20.4822 -0.74 0.18 27.137
13.6044 -6.34 0.18 15.674
13.6044 -6.36 0.18 15.674
13.6044 -6.38 0.18 15.674
13.6044 -6.56 0.18 15.674
13.6044 -6.58 0.18 15.674
24.53898 5.32 0.16 33.8983
84.7368 0.94 0.16 134.228
84.7368 -0.2 0.16 134.228
124.19999999999999 -0.54 0.16 200.0
20.4822 -0.74 0.16 27.137
124.19999999999999 -1.3 0.16 200.0
13.6044 -6.36 0.16 15.674
13.6044 -6.54 0.16 15.674
13.6044 -6.56 0.16 15.674
84.7368 -0.2 0.14 134.228
124.19999999999999 -1.28 0.14 200.0
64.806 -2.16 0.14 101.01
64.806 -2.18 0.14 101.01
52.78302 -2.8 0.14 80.9717
24.53898 5.32 0.12 33.8983
124.19999999999999 -0.54 0.12 200.0
64.806 -2.18 0.12 101.01
52.78302 -2.76 0.12 80.9717
52.78302 -2.78 0.12 80.9717
52.78302 -2.8 0.12 80.9717
52.78302 -2.82 0.12 80.9717
44.74056 -2.84 0.12 67.5676
19.467180000000003 -2.86 0.12 25.4453
19.467180000000003 -2.88 0.12 25.4453
18.57126 -2.9 0.12 23.9521
18.57126 -4.3 0.12 23.9521
18.57126 -4.32 0.12 23.9521
13.6044 -6.34 0.12 15.674
13.6044 -6.36 0.12 15.674
13.6044 -6.38 0.12 15.674
13.6044 -6.4 0.12 15.674
24.53898 5.32 0.1 33.8983
12.3522 1.58 0.1 13.587
124.19999999999999 -0.54 0.1 200.0
124.19999999999999 -0.82 0.1 200.0
38.9826 -0.9 0.1 57.971
124.19999999999999 -1.34 0.1 200.0
64.806 -2.6 0.1 101.01
64.806 -2.62 0.1 101.01
64.806 -2.64 0.1 101.01
52.78302 -2.66 0.1 80.9717
52.78302 -2.8 0.1 80.9717
13.6044 -6.36 0.1 15.674
13.6044 -6.56 0.1 15.674
13.6044 -6.58 0.1 15.674
24.53898 5.32 0.08 33.8983
124.19999999999999 -1.34 0.08 200.0
64.806 -2.6 0.08 101.01
64.806 -2.62 0.08 101.01
64.806 -2.64 0.08 101.01
52.78302 -2.66 0.08 80.9717
24.53898 5.32 0.06 33.8983
52.78302 0.88 0.06 80.9717
84.7368 -0.62 0.06 134.228
13.6044 -6.42 0.06 15.674
13.6044 -6.44 0.06 15.674
13.6044 -6.58 0.06 15.674
13.6044 -6.6 0.06 15.674
52.78302 0.88 0.04 80.9717
13.6044 -6.34 0.04 15.674
13.6044 -6.36 0.04 15.674
64.806 0.24 0.02 101.01
84.7368 -0.1 0.02 134.228
84.7368 -0.74 0.02 134.228
44.74056 -2.52 0.02 67.5676
84.7368 0.24 0.0 134.228
84.7368 -0.1 0.0 134.228
24.53898 -3.32 0.0 33.8983
84.7368 0.24 -0.02 134.228
84.7368 -0.1 -0.02 134.228
21.64188 -3.4 -0.02 29.0698
21.64188 -3.42 -0.02 29.0698
21.64188 -3.44 -0.02 29.0698
13.6044 -6.36 -0.02 15.674
64.806 0.98 -0.04 101.01
84.7368 0.8 -0.04 134.228
84.7368 0.24 -0.04 134.228
84.7368 -0.1 -0.04 134.228
84.7368 -0.4 -0.04 134.228
21.64188 -3.42 -0.04 29.0698
21.64188 -3.44 -0.04 29.0698
13.6044 -6.34 -0.04 15.674
13.6044 -6.36 -0.04 15.674
13.6044 -6.38 -0.04 15.674
84.7368 1.24 -0.06 134.228
84.7368 0.8 -0.06 134.228
84.7368 0.24 -0.06 134.228
84.7368 -0.1 -0.06 134.228
84.7368 -0.4 -0.06 134.228
64.806 -1.4 -0.06 101.01
64.806 -1.42 -0.06 101.01
13.6044 -6.36 -0.06 15.674
84.7368 0.8 -0.08 134.228
84.7368 0.24 -0.08 134.228
84.7368 -0.1 -0.08 134.228
84.7368 -0.4 -0.08 134.228
34.65684 -0.48 -0.08 50.7614
64.806 -1.2 -0.08 101.01
64.806 -1.42 -0.08 101.01
84.7368 -2.34 -0.08 134.228
84.7368 -2.36 -0.08 134.228
21.64188 -2.88 -0.08 29.0698
21.64188 -2.9 -0.08 29.0698
22.97934 -3.18 -0.08 31.2989
22.97934 -3.2 -0.08 31.2989
21.64188 -3.44 -0.08 29.0698
84.7368 0.8 -0.1 134.228
84.7368 -0.1 -0.1 134.228
64.806 -1.42 -0.1 101.01
84.7368 -1.82 -0.1 134.228
26.38116 -2.5 -0.1 36.9686
26.38116 -2.52 -0.1 36.9686
26.38116 -2.54 -0.1 36.9686
21.64188 -2.88 -0.1 29.0698
21.64188 -2.9 -0.1 29.0698
13.25658 -6.44 -0.1 15.0943
24.53898 5.46 -0.12 33.8983
64.806 -1.42 -0.12 101.01
64.806 -1.44 -0.12 101.01
84.7368 -1.8 -0.12 134.228
26.38116 -2.54 -0.12 36.9686
26.38116 -2.56 -0.12 36.9686
18.57126 -4.32 -0.12 23.9521
13.6044 -6.32 -0.12 15.674
24.53898 5.46 -0.14 33.8983
24.53898 5.36 -0.14 33.8983
21.64188 -2.88 -0.14 29.0698
13.6044 -6.34 -0.14 15.674
24.53898 5.46 -0.16 33.8983
64.806 0.98 -0.16 101.01
20.4822 -3.48 -0.16 27.137
64.806 0.98 -0.18 101.01
84.7368 -1.34 -0.18 134.228
44.74056 -1.44 -0.18 67.5676
22.97934 -3.02 -0.18 31.2989
22.97934 -3.04 -0.18 31.2989
20.4822 -3.48 -0.18 27.137
26.38116 5.02 -0.2 36.9686
52.78302 -1.2 -0.2 80.9717
52.78302 -1.22 -0.2 80.9717
84.7368 -1.34 -0.2 134.228
84.7368 -1.36 -0.2 134.228
44.74056 -1.44 -0.2 67.5676
12.08952 -1.5 -0.2 13.1492
20.4822 -2.88 -0.2 27.137
22.97934 -3.02 -0.2 31.2989
22.97934 -3.04 -0.2 31.2989
26.38116 5.02 -0.22 36.9686
84.7368 -1.3 -0.22 134.228
44.74056 -1.44 -0.22 67.5676
31.28802 -2.22 -0.22 45.1467
31.28802 -2.24 -0.22 45.1467
20.4822 -2.86 -0.22 27.137
20.4822 -2.88 -0.22 27.137
22.97934 -3.02 -0.22 31.2989
22.97934 -3.04 -0.22 31.2989
20.4822 -3.44 -0.22 27.137
20.4822 -2.88 -0.24 27.137
18.57126 -4.3 -0.24 23.9521
18.57126 -4.36 -0.24 23.9521
124.19999999999999 -1.58 -0.26 200.0
124.19999999999999 -1.6 -0.26 200.0
124.19999999999999 -1.62 -0.26 200.0
28.590239999999998 -1.74 -0.26 40.6504
28.590239999999998 -1.76 -0.26 40.6504
24.53898 5.5 -0.28 33.8983
84.7368 1.14 -0.28 134.228
84.7368 1.02 -0.28 134.228
84.7368 0.68 -0.28 134.228
124.19999999999999 -1.58 -0.28 200.0
124.19999999999999 -1.62 -0.28 200.0
28.590239999999998 -1.72 -0.28 40.6504
28.590239999999998 -1.74 -0.28 40.6504
28.590239999999998 -1.76 -0.28 40.6504
26.38116 -1.78 -0.28 36.9686
26.38116 -2.3 -0.28 36.9686
26.38116 -2.32 -0.28 36.9686
20.4822 -3.34 -0.28 27.137
13.25658 -6.48 -0.28 15.0943
13.25658 -6.5 -0.28 15.0943
24.53898 5.5 -0.3 33.8983
84.7368 1.14 -0.3 134.228
84.7368 1.02 -0.3 134.228
26.38116 -2.3 -0.3 36.9686
26.38116 -2.32 -0.3 36.9686
15.83916 -4.06 -0.3 19.3986
16.419959999999996 -4.6 -0.3 20.3666
16.419959999999996 -4.62 -0.3 20.3666
15.83916 -4.64 -0.3 19.3986
12.08952 -6.26 -0.3 13.1492
13.25658 -6.48 -0.3 15.0943
13.25658 -6.5 -0.3 15.0943
84.7368 1.14 -0.32 134.228
84.7368 1.02 -0.32 134.228
15.83916 -4.04 -0.32 19.3986
15.83916 -4.06 -0.32 19.3986
15.83916 -4.08 -0.32 19.3986
16.419959999999996 -4.62 -0.32 20.3666
15.83916 -4.64 -0.32 19.3986
15.83916 -4.66 -0.32 19.3986
15.3111 -4.68 -0.32 18.5185
14.82888 -5.72 -0.32 17.7148
14.82888 -5.74 -0.32 17.7148
14.82888 -5.76 -0.32 17.7148
12.08952 -6.24 -0.32 13.1492
12.08952 -6.26 -0.32 13.1492
13.25658 -6.5 -0.32 15.0943
22.97934 5.8 -0.34 31.2989
22.97934 5.78 -0.34 31.2989
84.7368 1.14 -0.34 134.228
84.7368 1.02 -0.34 134.228
17.77464 -3.3 -0.34 22.6244
15.3111 -4.68 -0.34 18.5185
12.3522 -5.32 -0.34 13.587
12.3522 -5.34 -0.34 13.587
12.3522 -5.36 -0.34 13.587
13.25658 -6.5 -0.34 15.0943
22.97934 5.8 -0.36 31.2989
84.7368 1.14 -0.36 134.228
84.7368 1.02 -0.36 134.228
22.97934 -2.78 -0.36 31.2989
22.97934 -2.8 -0.36 31.2989
12.933599999999998 -5.26 -0.36 14.556
12.63288 -5.28 -0.36 14.0548
12.63288 -5.3 -0.36 14.0548
12.08952 -6.06 -0.36 13.1492
12.08952 -6.08 -0.36 13.1492
22.97934 5.78 -0.38 31.2989
24.53898 5.44 -0.38 33.8983
15.3111 -4.08 -0.38 18.5185
15.3111 -4.1 -0.38 18.5185
15.3111 -4.12 -0.38 18.5185
16.419959999999996 -4.58 -0.38 20.3666
16.419959999999996 -4.6 -0.38 20.3666
16.419959999999996 -4.62 -0.38 20.3666
12.933599999999998 -5.24 -0.38 14.556
12.933599999999998 -5.98 -0.38 14.556
12.933599999999998 -6.0 -0.38 14.556
12.63288 -6.02 -0.38 14.0548
12.3522 -6.04 -0.38 13.587
12.08952 -6.06 -0.38 13.1492
12.08952 -6.08 -0.38 13.1492
22.97934 5.78 -0.4 31.2989
24.53898 5.44 -0.4 33.8983
26.38116 -2.24 -0.4 36.9686
26.38116 -2.26 -0.4 36.9686
15.3111 -4.08 -0.4 18.5185
15.3111 -4.1 -0.4 18.5185
15.3111 -4.12 -0.4 18.5185
16.419959999999996 -4.58 -0.4 20.3666
15.83916 -4.6 -0.4 19.3986
15.83916 -4.62 -0.4 19.3986
15.83916 -4.64 -0.4 19.3986
12.933599999999998 -5.98 -0.4 14.556
12.933599999999998 -6.0 -0.4 14.556
12.63288 -6.02 -0.4 14.0548
12.3522 -6.04 -0.4 13.587
12.08952 -6.06 -0.4 13.1492
12.08952 -6.08 -0.4 13.1492
11.843340000000001 -6.1 -0.4 12.7389
11.843340000000001 -6.12 -0.4 12.7389
11.394240000000002 -6.14 -0.4 11.9904
22.97934 5.78 -0.42 31.2989
26.38116 -2.26 -0.42 36.9686
15.3111 -4.1 -0.42 18.5185
15.3111 -4.12 -0.42 18.5185
15.83916 -4.64 -0.42 19.3986
15.3111 -4.78 -0.42 18.5185
26.38116 -2.26 -0.44 36.9686
15.3111 -4.1 -0.44 18.5185
15.3111 -4.12 -0.44 18.5185
15.83916 -4.64 -0.44 19.3986
15.83916 -4.66 -0.44 19.3986
12.3522 -5.92 -0.44 13.587
12.3522 -5.94 -0.44 13.587
12.933599999999998 -6.3 -0.44 14.556
12.933599999999998 -6.32 -0.44 14.556
12.933599999999998 -6.34 -0.44 14.556
12.63288 -6.36 -0.44 14.0548
12.63288 -6.38 -0.44 14.0548
17.77464 -3.48 -0.46 22.6244
17.77464 -3.5 -0.46 22.6244
15.83916 -4.08 -0.46 19.3986
15.3111 -4.1 -0.46 18.5185
15.3111 -4.12 -0.46 18.5185
15.83916 -4.66 -0.46 19.3986
12.08952 -5.72 -0.46 13.1492
12.08952 -5.74 -0.46 13.1492
12.63288 -6.36 -0.46 14.0548
22.97934 5.78 -0.48 31.2989
31.28802 -2.04 -0.48 45.1467
21.64188 -2.8 -0.48 29.0698
15.83916 -4.08 -0.48 19.3986
15.83916 -4.1 -0.48 19.3986
15.83916 -4.12 -0.48 19.3986
15.83916 -4.62 -0.48 19.3986
15.3111 -4.82 -0.48 18.5185
12.08952 -5.7 -0.48 13.1492
12.08952 -5.72 -0.48 13.1492
12.08952 -5.74 -0.48 13.1492
31.28802 -2.02 -0.5 45.1467
31.28802 -2.04 -0.5 45.1467
28.590239999999998 -2.06 -0.5 40.6504
26.38116 -2.1 -0.5 36.9686
18.57126 -2.18 -0.5 23.9521
18.57126 -2.28 -0.5 23.9521
21.64188 -2.7 -0.5 29.0698
21.64188 -2.74 -0.5 29.0698
21.64188 -2.8 -0.5 29.0698
21.64188 -2.82 -0.5 29.0698
17.77464 -3.32 -0.5 22.6244
17.77464 -3.34 -0.5 22.6244
15.83916 -4.1 -0.5 19.3986
15.83916 -4.12 -0.5 19.3986
15.3111 -4.14 -0.5 18.5185
15.3111 -4.82 -0.5 18.5185
15.3111 -4.84 -0.5 18.5185
11.843340000000001 -5.78 -0.5 12.7389
11.61198 -5.8 -0.5 12.3533
12.63288 -6.28 -0.5 14.0548
18.57126 -2.16 -0.52 23.9521
18.57126 -2.18 -0.52 23.9521
22.97934 -2.54 -0.52 31.2989
21.64188 -2.7 -0.52 29.0698
21.64188 -2.8 -0.52 29.0698
21.64188 -2.82 -0.52 29.0698
18.57126 -3.32 -0.52 23.9521
18.57126 -3.34 -0.52 23.9521
15.3111 -4.82 -0.52 18.5185
15.3111 -4.84 -0.52 18.5185
15.3111 -4.86 -0.52 18.5185
14.82888 -4.88 -0.52 17.7148
12.63288 -6.26 -0.52 14.0548
12.63288 -6.28 -0.52 14.0548
12.63288 -6.5 -0.52 14.0548
21.64188 -2.7 -0.54 29.0698
20.4822 -2.76 -0.54 27.137
18.57126 -3.34 -0.54 23.9521
15.3111 -4.84 -0.54 18.5185
15.3111 -4.86 -0.54 18.5185
14.82888 -4.88 -0.54 17.7148
14.386740000000001 -4.9 -0.54 16.9779
12.933599999999998 -5.1 -0.54 14.556
12.3522 -6.26 -0.54 13.587
12.3522 -6.28 -0.54 13.587
12.63288 -6.5 -0.54 14.0548
22.97934 5.78 -0.56 31.2989
26.38116 -2.28 -0.56 36.9686
21.64188 -2.7 -0.56 29.0698
21.64188 -2.72 -0.56 29.0698
18.57126 -3.32 -0.56 23.9521
18.57126 -3.34 -0.56 23.9521
13.979940000000001 -5.26 -0.56 16.2999
13.979940000000001 -5.28 -0.56 16.2999
12.3522 -6.28 -0.56 13.587
22.97934 5.78 -0.58 31.2989
26.38116 -2.28 -0.58 36.9686
26.38116 -2.4 -0.58 36.9686
26.38116 -2.42 -0.58 36.9686
21.64188 -2.7 -0.58 29.0698
18.57126 -3.36 -0.58 23.9521
15.83916 -3.42 -0.58 19.3986
15.83916 -3.44 -0.58 19.3986
15.83916 -3.46 -0.58 19.3986
15.3111 -4.74 -0.58 18.5185
15.3111 -4.76 -0.58 18.5185
13.979940000000001 -5.24 -0.58 16.2999
12.3522 -6.28 -0.58 13.587
12.3522 -6.32 -0.58 13.587
12.3522 -6.66 -0.58 13.587
12.3522 -6.68 -0.58 13.587
22.97934 5.78 -0.6 31.2989
24.53898 5.44 -0.6 33.8983
26.38116 -2.4 -0.6 36.9686
20.4822 -2.88 -0.6 27.137
15.83916 -3.42 -0.6 19.3986
15.83916 -3.98 -0.6 19.3986
15.83916 -4.0 -0.6 19.3986
15.3111 -4.74 -0.6 18.5185
15.3111 -4.76 -0.6 18.5185
12.3522 -6.3 -0.6 13.587
12.3522 -6.32 -0.6 13.587
22.97934 5.78 -0.62 31.2989
24.53898 5.44 -0.62 33.8983
11.843340000000001 -6.2 -0.62 12.7389
11.843340000000001 -6.22 -0.62 12.7389
12.08952 -6.24 -0.62 13.1492
22.97934 5.78 -0.64 31.2989
26.38116 -1.42 -0.64 36.9686
24.53898 -2.52 -0.64 33.8983
18.57126 -3.14 -0.64 23.9521
17.06172 -3.4 -0.64 21.4362
16.419959999999996 -3.48 -0.64 20.3666
15.3111 -4.32 -0.64 18.5185
13.25658 -5.0 -0.64 15.0943
13.25658 -5.02 -0.64 15.0943
13.25658 -5.06 -0.64 15.0943
13.25658 -5.08 -0.64 15.0943
13.25658 -5.1 -0.64 15.0943
12.933599999999998 -5.12 -0.64 14.556
12.3522 -5.66 -0.64 13.587
22.97934 5.78 -0.66 31.2989
24.53898 -2.5 -0.66 33.8983
24.53898 -2.52 -0.66 33.8983
24.53898 -2.54 -0.66 33.8983
19.467180000000003 -2.6 -0.66 25.4453
19.467180000000003 -2.62 -0.66 25.4453
21.64188 -2.76 -0.66 29.0698
18.57126 -3.14 -0.66 23.9521
15.3111 -4.3 -0.66 18.5185
15.3111 -4.32 -0.66 18.5185
15.3111 -4.34 -0.66 18.5185
15.3111 -4.7 -0.66 18.5185
15.3111 -4.72 -0.66 18.5185
13.979940000000001 -4.94 -0.66 16.2999
13.25658 -4.98 -0.66 15.0943
13.25658 -5.0 -0.66 15.0943
13.25658 -5.08 -0.66 15.0943
13.25658 -5.1 -0.66 15.0943
12.3522 -5.64 -0.66 13.587
12.3522 -5.66 -0.66 13.587
11.843340000000001 -6.52 -0.66 12.7389
22.97934 5.78 -0.68 31.2989
24.53898 -2.52 -0.68 33.8983
24.53898 -2.54 -0.68 33.8983
21.64188 -2.76 -0.68 29.0698
17.06172 -3.42 -0.68 21.4362
17.06172 -3.44 -0.68 21.4362
15.3111 -4.32 -0.68 18.5185
15.3111 -4.34 -0.68 18.5185
13.979940000000001 -4.42 -0.68 16.2999
15.3111 -4.68 -0.68 18.5185
15.3111 -4.7 -0.68 18.5185
15.3111 -4.72 -0.68 18.5185
11.61198 -6.24 -0.68 12.3533
11.61198 -6.26 -0.68 12.3533
11.843340000000001 -6.5 -0.68 12.7389
11.843340000000001 -6.52 -0.68 12.7389
11.843340000000001 -6.56 -0.68 12.7389
11.843340000000001 -6.58 -0.68 12.7389
11.843340000000001 -6.6 -0.68 12.7389
11.843340000000001 -6.62 -0.68 12.7389
11.61198 -6.64 -0.68 12.3533
11.394240000000002 -6.66 -0.68 11.9904
10.637759999999998 -6.7 -0.68 10.7296
10.637759999999998 -6.72 -0.68 10.7296
22.97934 5.78 -0.7 31.2989
17.06172 -3.44 -0.7 21.4362
15.3111 -4.32 -0.7 18.5185
15.3111 -4.34 -0.7 18.5185
13.979940000000001 -4.4 -0.7 16.2999
12.933599999999998 -5.18 -0.7 14.556
12.933599999999998 -5.2 -0.7 14.556
11.61198 -6.22 -0.7 12.3533
12.3522 -6.34 -0.7 13.587
12.3522 -6.36 -0.7 13.587
12.08952 -6.38 -0.7 13.1492
11.843340000000001 -6.58 -0.7 12.7389
11.843340000000001 -6.6 -0.7 12.7389
11.843340000000001 -6.62 -0.7 12.7389
22.97934 5.78 -0.72 31.2989
24.53898 5.44 -0.72 33.8983
17.06172 -3.44 -0.72 21.4362
12.08952 -6.4 -0.72 13.1492
12.08952 -6.42 -0.72 13.1492
22.97934 5.78 -0.74 31.2989
22.97934 -1.42 -0.74 31.2989
21.64188 -2.74 -0.74 29.0698
21.64188 -2.76 -0.74 29.0698
17.77464 -3.22 -0.74 22.6244
17.06172 -3.44 -0.74 21.4362
17.06172 -3.46 -0.74 21.4362
22.97934 5.78 -0.76 31.2989
17.77464 -3.22 -0.76 22.6244
17.06172 -3.44 -0.76 21.4362
17.06172 -3.46 -0.76 21.4362
15.83916 -3.8 -0.76 19.3986
15.83916 -3.82 -0.76 19.3986
15.3111 -3.86 -0.76 18.5185
13.979940000000001 -3.88 -0.76 16.2999
13.979940000000001 -3.9 -0.76 16.2999
15.3111 -4.2 -0.76 18.5185
15.3111 -4.22 -0.76 18.5185
11.843340000000001 -6.12 -0.76 12.7389
11.843340000000001 -6.14 -0.76 12.7389
11.61198 -6.16 -0.76 12.3533
11.843340000000001 -6.34 -0.76 12.7389
21.64188 -1.44 -0.78 29.0698
124.19999999999999 -2.84 -0.78 200.0
17.77464 -3.22 -0.78 22.6244
15.83916 -3.8 -0.78 19.3986
15.83916 -3.82 -0.78 19.3986
13.979940000000001 -3.9 -0.78 16.2999
13.979940000000001 -3.92 -0.78 16.2999
13.6044 -4.82 -0.78 15.674
13.6044 -4.84 -0.78 15.674
11.843340000000001 -5.84 -0.78 12.7389
12.08952 -5.94 -0.78 13.1492
12.08952 -5.96 -0.78 13.1492
11.61198 -6.16 -0.78 12.3533
11.61198 -6.18 -0.78 12.3533
11.61198 -6.2 -0.78 12.3533
11.843340000000001 -6.34 -0.78 12.7389
11.843340000000001 -6.36 -0.78 12.7389
21.64188 -1.44 -0.8 29.0698
21.64188 -1.46 -0.8 29.0698
20.4822 -2.88 -0.8 27.137
20.4822 -2.9 -0.8 27.137
20.4822 -2.92 -0.8 27.137
16.419959999999996 -2.98 -0.8 20.3666
16.419959999999996 -3.0 -0.8 20.3666
17.77464 -3.2 -0.8 22.6244
17.77464 -3.22 -0.8 22.6244
15.83916 -3.78 -0.8 19.3986
15.83916 -3.8 -0.8 19.3986
15.83916 -3.82 -0.8 19.3986
13.6044 -4.84 -0.8 15.674
11.843340000000001 -5.86 -0.8 12.7389
11.61198 -6.18 -0.8 12.3533
12.08952 -6.28 -0.8 13.1492
20.4822 -2.9 -0.82 27.137
20.4822 -2.92 -0.82 27.137
16.419959999999996 -3.0 -0.82 20.3666
21.64188 -3.14 -0.82 29.0698
17.77464 -3.2 -0.82 22.6244
17.77464 -3.22 -0.82 22.6244
17.06172 -3.46 -0.82 21.4362
15.83916 -3.78 -0.82 19.3986
15.83916 -3.8 -0.82 19.3986
13.25658 -4.9 -0.82 15.0943
12.933599999999998 -4.92 -0.82 14.556
11.843340000000001 -5.84 -0.82 12.7389
11.843340000000001 -5.86 -0.82 12.7389
11.843340000000001 -5.98 -0.82 12.7389
11.843340000000001 -6.0 -0.82 12.7389
11.843340000000001 -6.02 -0.82 12.7389
11.843340000000001 -6.36 -0.82 12.7389
11.843340000000001 -6.38 -0.82 12.7389
18.57126 -3.2 -0.84 23.9521
18.57126 -3.22 -0.84 23.9521
17.06172 -3.46 -0.84 21.4362
17.06172 -3.48 -0.84 21.4362
15.83916 -3.8 -0.84 19.3986
11.843340000000001 -5.84 -0.84 12.7389
11.843340000000001 -5.86 -0.84 12.7389
18.57126 -3.2 -0.86 23.9521
18.57126 -3.22 -0.86 23.9521
