VERSION .7
FIELDS x y z rgb
SIZE 4 4 4 4
TYPE F F F F
COUNT 1 1 1 1
WIDTH 1374
HEIGHT 1
VIEWPOINT 0 0 0 1 0 0 0
POINTS 1374
DATA ascii
22.97934 -3.52 1.94 5000031.2989
17.77464 -4.88 1.94 5000022.6244
17.77464 -4.9 1.94 5000022.6244
13.6044 -6.18 1.94 5000015.674
13.6044 -6.2 1.94 5000015.674
12.63288 -6.32 1.94 5000014.0548
12.63288 -6.34 1.94 5000014.0548
22.97934 -6.74 1.94 5000031.2989
26.38116 4.78 1.92 5000036.9686
26.38116 -1.5 1.92 5000036.9686
17.77464 -4.74 1.92 5000022.6244
12.63288 -6.34 1.92 5000014.0548
12.63288 -6.36 1.92 5000014.0548
24.53898 -6.7 1.92 5000033.8983
24.53898 -6.72 1.92 5000033.8983
22.97934 -6.74 1.92 5000031.2989
24.53898 -3.08 1.9 5000033.8983
24.53898 -3.1 1.9 5000033.8983
18.57126 -4.06 1.9 5000023.9521
17.77464 -4.74 1.9 5000022.6244
17.77464 -4.9 1.9 5000022.6244
28.590239999999998 -5.52 1.9 5000040.6504
28.590239999999998 -5.54 1.9 5000040.6504
13.6044 -6.22 1.9 5000015.674
13.6044 -6.24 1.9 5000015.674
13.6044 -6.26 1.9 5000015.674
13.25658 -6.28 1.9 5000015.0943
12.63288 -6.34 1.9 5000014.0548
12.63288 -6.36 1.9 5000014.0548
26.38116 -6.64 1.9 5000036.9686
26.38116 -6.66 1.9 5000036.9686
26.38116 -6.68 1.9 5000036.9686
24.53898 -6.7 1.9 5000033.8983
28.590239999999998 2.88 1.88 5000040.6504
34.65684 -3.86 1.88 5000050.7614
16.419959999999996 -4.14 1.88 5000020.3666
52.78302 -5.02 1.88 5000080.9717
28.590239999999998 -5.52 1.88 5000040.6504
13.6044 -6.22 1.88 5000015.674
13.6044 -6.24 1.88 5000015.674
34.65684 -6.56 1.88 5000050.7614
28.590239999999998 4.84 1.86 5000040.6504
22.97934 -3.98 1.86 5000031.2989
22.97934 -4.0 1.86 5000031.2989
52.78302 -4.98 1.86 5000080.9717
52.78302 -5.0 1.86 5000080.9717
52.78302 -5.02 1.86 5000080.9717
34.65684 -5.1 1.86 5000050.7614
24.53898 -3.04 1.84 5000033.8983
24.53898 -3.06 1.84 5000033.8983
22.97934 -3.96 1.84 5000031.2989
13.25658 -6.12 1.84 5000015.0943
13.25658 -6.14 1.84 5000015.0943
12.933599999999998 -6.16 1.84 5000014.556
34.65684 -6.6 1.84 5000050.7614
28.590239999999998 2.8 1.82 5000040.6504
24.53898 -0.84 1.82 5000033.8983
24.53898 -3.04 1.82 5000033.8983
24.53898 -3.06 1.82 5000033.8983
13.25658 -6.1 1.82 5000015.0943
13.25658 -6.12 1.82 5000015.0943
13.25658 -6.14 1.82 5000015.0943
13.25658 -6.32 1.82 5000015.0943
12.3522 -6.42 1.82 5000013.587
28.590239999999998 4.42 1.8 5000040.6504
24.53898 -0.84 1.8 5000033.8983
44.74056 -1.46 1.8 5000067.5676
44.74056 -1.48 1.8 5000067.5676
28.590239999999998 4.42 1.78 5000040.6504
38.9826 -0.76 1.78 5000057.971
13.25658 -6.38 1.78 5000015.0943
12.3522 -6.46 1.78 5000013.587
28.590239999999998 4.02 1.76 5000040.6504
24.53898 -3.06 1.76 5000033.8983
20.4822 -3.12 1.76 5000027.137
17.77464 -4.1 1.76 5000022.6244
18.57126 -4.2 1.76 5000023.9521
13.25658 -6.38 1.76 5000015.0943
22.97934 -3.52 1.74 5000031.2989
34.65684 -3.78 1.74 5000050.7614
34.65684 -5.12 1.74 5000050.7614
34.65684 -5.14 1.74 5000050.7614
34.65684 -5.16 1.74 5000050.7614
26.38116 4.94 1.72 5000036.9686
34.65684 -3.84 1.72 5000050.7614
34.65684 -5.12 1.72 5000050.7614
34.65684 -5.14 1.72 5000050.7614
44.74056 -2.04 1.7 5000067.5676
44.74056 -2.06 1.7 5000067.5676
24.53898 -5.8 1.7 5000033.8983
12.933599999999998 -6.62 1.7 5000014.556
12.933599999999998 -6.64 1.7 5000014.556
26.38116 2.82 1.68 5000036.9686
22.97934 -3.14 1.68 5000031.2989
24.53898 -5.8 1.68 5000033.8983
26.38116 5.0 1.66 5000036.9686
34.65684 -3.88 1.66 5000050.7614
20.4822 -6.2 1.66 5000027.137
12.933599999999998 -6.64 1.66 5000014.556
24.53898 -3.54 1.64 5000033.8983
24.53898 -3.56 1.64 5000033.8983
19.467180000000003 -4.06 1.64 5000025.4453
19.467180000000003 -4.08 1.64 5000025.4453
19.467180000000003 -4.1 1.64 5000025.4453
18.57126 -4.12 1.64 5000023.9521
12.933599999999998 -6.64 1.64 5000014.556
17.06172 -4.56 1.62 5000021.4362
13.25658 -6.52 1.62 5000015.0943
13.25658 -6.54 1.62 5000015.0943
38.9826 -1.2 1.6 5000057.971
38.9826 -2.04 1.6 5000057.971
18.57126 -4.16 1.6 5000023.9521
18.57126 -4.18 1.6 5000023.9521
15.83916 -4.28 1.6 5000019.3986
13.25658 -6.52 1.6 5000015.0943
13.25658 -6.54 1.6 5000015.0943
38.9826 -0.82 1.58 5000057.971
38.9826 -1.2 1.58 5000057.971
38.9826 -2.04 1.58 5000057.971
24.53898 -3.08 1.58 5000033.8983
18.57126 -4.18 1.58 5000023.9521
24.53898 -5.96 1.58 5000033.8983
24.53898 -5.98 1.58 5000033.8983
12.933599999999998 -6.6 1.58 5000014.556
12.933599999999998 -6.62 1.58 5000014.556
28.590239999999998 4.94 1.56 5000040.6504
64.806 2.6 1.56 5000101.01
64.806 2.58 1.56 5000101.01
38.9826 -0.48 1.56 5000057.971
24.53898 -3.1 1.56 5000033.8983
38.9826 -3.88 1.56 5000057.971
38.9826 -3.9 1.56 5000057.971
24.53898 -5.94 1.56 5000033.8983
24.53898 -5.96 1.56 5000033.8983
12.933599999999998 -6.6 1.56 5000014.556
12.933599999999998 -6.62 1.56 5000014.556
12.933599999999998 -6.64 1.56 5000014.556
64.806 2.58 1.54 5000101.01
64.806 2.56 1.54 5000101.01
44.74056 -0.84 1.54 5000067.5676
22.97934 -3.54 1.54 5000031.2989
12.933599999999998 -6.62 1.54 5000014.556
26.38116 4.56 1.52 5000036.9686
64.806 2.56 1.52 5000101.01
44.74056 -0.84 1.52 5000067.5676
22.97934 -3.54 1.52 5000031.2989
19.467180000000003 -4.22 1.52 5000025.4453
16.419959999999996 -4.28 1.52 5000020.3666
18.57126 -4.36 1.52 5000023.9521
18.57126 -4.38 1.52 5000023.9521
26.38116 4.84 1.5 5000036.9686
44.74056 -0.84 1.5 5000067.5676
38.9826 -3.88 1.5 5000057.971
38.9826 -3.9 1.5 5000057.971
19.467180000000003 -4.18 1.5 5000025.4453
19.467180000000003 -4.2 1.5 5000025.4453
12.933599999999998 -6.62 1.5 5000014.556
44.74056 -0.86 1.48 5000067.5676
34.65684 -2.46 1.48 5000050.7614
38.9826 -3.88 1.48 5000057.971
38.9826 -3.9 1.48 5000057.971
18.57126 -4.48 1.48 5000023.9521
18.57126 -4.5 1.48 5000023.9521
26.38116 -5.72 1.48 5000036.9686
26.38116 -5.74 1.48 5000036.9686
24.53898 -6.14 1.48 5000033.8983
12.933599999999998 -6.62 1.48 5000014.556
44.74056 -0.86 1.46 5000067.5676
34.65684 -2.46 1.46 5000050.7614
26.38116 -5.74 1.46 5000036.9686
12.933599999999998 -6.62 1.46 5000014.556
12.933599999999998 -6.64 1.46 5000014.556
12.933599999999998 -6.66 1.46 5000014.556
26.38116 4.56 1.44 5000036.9686
28.590239999999998 4.22 1.44 5000040.6504
28.590239999999998 4.2 1.44 5000040.6504
44.74056 -0.84 1.44 5000067.5676
44.74056 -0.86 1.44 5000067.5676
26.38116 -0.94 1.44 5000036.9686
34.65684 -2.46 1.44 5000050.7614
26.38116 -5.74 1.44 5000036.9686
26.38116 5.32 1.42 5000036.9686
28.590239999999998 4.22 1.42 5000040.6504
44.74056 -0.86 1.42 5000067.5676
34.65684 -2.46 1.42 5000050.7614
34.65684 -4.0 1.42 5000050.7614
12.933599999999998 -6.66 1.42 5000014.556
12.933599999999998 -6.68 1.42 5000014.556
44.74056 -0.86 1.4 5000067.5676
24.53898 -0.96 1.4 5000033.8983
24.53898 -3.06 1.4 5000033.8983
24.53898 -3.08 1.4 5000033.8983
24.53898 -3.1 1.4 5000033.8983
21.64188 -3.14 1.4 5000029.0698
20.4822 -3.16 1.4 5000027.137
12.933599999999998 -6.66 1.4 5000014.556
12.933599999999998 -6.68 1.4 5000014.556
12.3522 -6.72 1.4 5000013.587
12.08952 -6.74 1.4 5000013.1492
26.38116 5.32 1.38 5000036.9686
24.53898 -0.96 1.38 5000033.8983
24.53898 -6.14 1.38 5000033.8983
24.53898 -6.4 1.38 5000033.8983
12.933599999999998 -6.66 1.38 5000014.556
12.933599999999998 -6.68 1.38 5000014.556
26.38116 5.34 1.36 5000036.9686
26.38116 5.32 1.36 5000036.9686
26.38116 4.58 1.36 5000036.9686
52.78302 0.9 1.36 5000080.9717
44.74056 -0.86 1.36 5000067.5676
44.74056 -0.88 1.36 5000067.5676
20.4822 -3.2 1.36 5000027.137
17.77464 -4.76 1.36 5000022.6244
22.97934 -3.12 1.34 5000031.2989
44.74056 -5.2 1.34 5000067.5676
24.53898 -6.14 1.34 5000033.8983
64.806 2.66 1.32 5000101.01
44.74056 -0.6 1.32 5000067.5676
22.97934 -3.12 1.32 5000031.2989
22.97934 -3.14 1.32 5000031.2989
24.53898 -6.14 1.32 5000033.8983
13.25658 -6.64 1.32 5000015.0943
12.933599999999998 -6.66 1.32 5000014.556
12.933599999999998 -6.68 1.32 5000014.556
28.590239999999998 4.26 1.3 5000040.6504
64.806 2.64 1.3 5000101.01
22.97934 -3.12 1.3 5000031.2989
22.97934 -3.14 1.3 5000031.2989
22.97934 -3.16 1.3 5000031.2989
24.53898 -6.14 1.3 5000033.8983
12.933599999999998 -6.64 1.3 5000014.556
12.933599999999998 -6.66 1.3 5000014.556
12.933599999999998 -6.68 1.3 5000014.556
12.933599999999998 -6.7 1.3 5000014.556
12.63288 -6.72 1.3 5000014.0548
64.806 2.62 1.28 5000101.01
24.53898 -0.98 1.28 5000033.8983
34.65684 -2.44 1.28 5000050.7614
34.65684 -2.46 1.28 5000050.7614
34.65684 -5.14 1.28 5000050.7614
26.38116 -5.9 1.28 5000036.9686
24.53898 -6.14 1.28 5000033.8983
13.25658 -6.64 1.28 5000015.0943
12.933599999999998 -6.66 1.28 5000014.556
28.590239999999998 4.44 1.26 5000040.6504
64.806 2.62 1.26 5000101.01
64.806 2.6 1.26 5000101.01
38.9826 -0.9 1.26 5000057.971
12.933599999999998 -6.66 1.26 5000014.556
38.9826 -0.88 1.24 5000057.971
38.9826 -0.9 1.24 5000057.971
13.25658 -6.64 1.24 5000015.0943
17.77464 -1.1 1.22 5000022.6244
17.77464 -4.6 1.22 5000022.6244
28.590239999999998 -5.56 1.22 5000040.6504
26.38116 5.22 1.2 5000036.9686
26.38116 4.9 1.2 5000036.9686
17.77464 -4.6 1.2 5000022.6244
28.590239999999998 -5.54 1.2 5000040.6504
13.25658 -6.62 1.2 5000015.0943
13.25658 -6.64 1.2 5000015.0943
28.590239999999998 4.5 1.18 5000040.6504
38.9826 -0.9 1.18 5000057.971
38.9826 -0.92 1.18 5000057.971
28.590239999999998 -5.54 1.18 5000040.6504
12.933599999999998 -6.62 1.18 5000014.556
12.933599999999998 -6.64 1.18 5000014.556
12.08952 -6.7 1.18 5000013.1492
12.08952 -6.72 1.18 5000013.1492
28.590239999999998 4.5 1.16 5000040.6504
44.74056 -0.92 1.16 5000067.5676
31.28802 -2.44 1.16 5000045.1467
31.28802 -2.46 1.16 5000045.1467
28.590239999999998 -5.54 1.16 5000040.6504
12.933599999999998 -6.62 1.16 5000014.556
12.933599999999998 -6.64 1.16 5000014.556
12.08952 -6.72 1.16 5000013.1492
26.38116 4.6 1.14 5000036.9686
31.28802 -2.46 1.14 5000045.1467
12.933599999999998 -6.64 1.14 5000014.556
52.78302 0.94 1.12 5000080.9717
44.74056 -0.92 1.12 5000067.5676
38.9826 -1.02 1.12 5000057.971
17.77464 -4.5 1.12 5000022.6244
12.933599999999998 -6.62 1.12 5000014.556
12.933599999999998 -6.64 1.12 5000014.556
26.38116 5.34 1.1 5000036.9686
38.9826 -1.02 1.1 5000057.971
34.65684 -5.48 1.1 5000050.7614
13.25658 -6.6 1.1 5000015.0943
12.933599999999998 -6.62 1.1 5000014.556
12.933599999999998 -6.64 1.1 5000014.556
12.933599999999998 -6.66 1.1 5000014.556
26.38116 5.34 1.08 5000036.9686
44.74056 -0.7 1.08 5000067.5676
12.933599999999998 -6.64 1.08 5000014.556
12.933599999999998 -6.66 1.08 5000014.556
12.933599999999998 -6.68 1.08 5000014.556
44.74056 -0.72 1.06 5000067.5676
44.74056 -0.94 1.06 5000067.5676
12.933599999999998 -6.64 1.06 5000014.556
12.933599999999998 -6.66 1.06 5000014.556
11.843340000000001 -6.74 1.06 5000012.7389
44.74056 -0.94 1.04 5000067.5676
44.74056 -0.96 1.04 5000067.5676
44.74056 -1.46 1.04 5000067.5676
34.65684 -2.42 1.04 5000050.7614
44.74056 -0.96 1.02 5000067.5676
44.74056 -1.52 1.02 5000067.5676
12.933599999999998 -6.68 1.02 5000014.556
44.74056 -0.96 1.0 5000067.5676
44.74056 -0.98 1.0 5000067.5676
44.74056 -1.52 1.0 5000067.5676
44.74056 -1.54 1.0 5000067.5676
12.933599999999998 -6.68 1.0 5000014.556
12.3522 -6.74 1.0 5000013.587
44.74056 -0.96 0.98 5000067.5676
12.933599999999998 -6.68 0.98 5000014.556
12.933599999999998 -6.7 0.98 5000014.556
12.3522 -6.74 0.98 5000013.587
26.38116 5.3 0.96 5000036.9686
12.933599999999998 -6.68 0.96 5000014.556
12.933599999999998 -6.7 0.96 5000014.556
26.38116 5.3 0.94 5000036.9686
44.74056 -0.98 0.94 5000067.5676
34.65684 -3.96 0.94 5000050.7614
26.38116 5.3 0.92 5000036.9686
26.38116 4.54 0.92 5000036.9686
26.38116 4.52 0.92 5000036.9686
31.28802 3.78 0.92 5000045.1467
44.74056 -0.98 0.92 5000067.5676
26.38116 -3.2 0.92 5000036.9686
26.38116 -3.22 0.92 5000036.9686
26.38116 -3.24 0.92 5000036.9686
24.53898 -3.26 0.92 5000033.8983
12.933599999999998 -6.74 0.92 5000014.556
84.7368 -3.06 0.9 5000134.228
34.65684 -5.12 0.9 5000050.7614
34.65684 -5.16 0.9 5000050.7614
12.933599999999998 -6.74 0.9 5000014.556
28.590239999999998 3.9 0.88 5000040.6504
34.65684 -2.32 0.88 5000050.7614
26.38116 5.3 0.86 5000036.9686
26.38116 5.28 0.86 5000036.9686
38.9826 -0.98 0.86 5000057.971
26.38116 -1.06 0.86 5000036.9686
22.97934 -3.36 0.86 5000031.2989
12.933599999999998 -6.74 0.86 5000014.556
124.19999999999999 0.46 0.84 5000200.0
44.74056 -0.98 0.84 5000067.5676
26.38116 -1.06 0.84 5000036.9686
22.97934 -3.34 0.84 5000031.2989
22.97934 -3.36 0.84 5000031.2989
13.25658 -6.74 0.84 5000015.0943
26.38116 5.3 0.82 5000036.9686
26.38116 4.62 0.82 5000036.9686
124.19999999999999 0.46 0.82 5000200.0
44.74056 -0.98 0.82 5000067.5676
26.38116 -1.06 0.82 5000036.9686
52.78302 -3.16 0.82 5000080.9717
34.65684 -5.12 0.82 5000050.7614
22.97934 -6.48 0.82 5000031.2989
19.467180000000003 -6.58 0.82 5000025.4453
44.74056 -0.98 0.8 5000067.5676
34.65684 -5.12 0.8 5000050.7614
84.7368 -0.2 0.78 5000134.228
44.74056 -0.78 0.78 5000067.5676
26.38116 5.28 0.76 5000036.9686
24.53898 -6.2 0.76 5000033.8983
26.38116 5.26 0.74 5000036.9686
52.78302 -1.54 0.74 5000080.9717
21.64188 -1.7 0.74 5000029.0698
64.806 -3.04 0.74 5000101.01
24.53898 -6.04 0.74 5000033.8983
24.53898 -6.06 0.74 5000033.8983
24.53898 -6.08 0.74 5000033.8983
24.53898 -6.2 0.74 5000033.8983
28.590239999999998 4.26 0.72 5000040.6504
28.590239999999998 4.24 0.72 5000040.6504
52.78302 -1.54 0.72 5000080.9717
52.78302 -2.4 0.72 5000080.9717
52.78302 -2.42 0.72 5000080.9717
24.53898 -6.04 0.72 5000033.8983
24.53898 -6.06 0.72 5000033.8983
22.97934 -6.74 0.72 5000031.2989
52.78302 0.94 0.68 5000080.9717
44.74056 -1.32 0.68 5000067.5676
44.74056 -1.68 0.68 5000067.5676
52.78302 -5.2 0.68 5000080.9717
28.590239999999998 -5.56 0.68 5000040.6504
26.38116 -5.8 0.68 5000036.9686
26.38116 -5.82 0.68 5000036.9686
26.38116 -5.84 0.68 5000036.9686
26.38116 -5.96 0.68 5000036.9686
26.38116 -5.98 0.68 5000036.9686
12.933599999999998 -6.74 0.68 5000014.556
52.78302 -5.2 0.66 5000080.9717
26.38116 -5.82 0.66 5000036.9686
12.933599999999998 -6.74 0.66 5000014.556
26.38116 5.24 0.64 5000036.9686
44.74056 -1.56 0.64 5000067.5676
34.65684 -3.86 0.64 5000050.7614
26.38116 -5.82 0.64 5000036.9686
20.4822 -6.48 0.64 5000027.137
20.4822 -6.5 0.64 5000027.137
20.4822 -6.52 0.64 5000027.137
26.38116 5.24 0.62 5000036.9686
44.74056 -1.56 0.62 5000067.5676
38.9826 -5.08 0.62 5000057.971
28.590239999999998 -5.64 0.62 5000040.6504
28.590239999999998 -5.66 0.62 5000040.6504
26.38116 5.24 0.6 5000036.9686
28.590239999999998 -5.54 0.6 5000040.6504
28.590239999999998 -5.56 0.6 5000040.6504
26.38116 5.24 0.58 5000036.9686
11.843340000000001 1.74 0.58 5000012.7389
52.78302 0.9 0.58 5000080.9717
44.74056 -5.48 0.58 5000067.5676
28.590239999999998 -5.54 0.58 5000040.6504
28.590239999999998 -5.56 0.58 5000040.6504
28.590239999999998 -5.6 0.58 5000040.6504
26.38116 -6.18 0.58 5000036.9686
26.38116 -6.2 0.58 5000036.9686
26.38116 -6.22 0.58 5000036.9686
24.53898 -6.24 0.58 5000033.8983
26.38116 5.24 0.56 5000036.9686
84.7368 0.5 0.56 5000134.228
64.806 -2.36 0.56 5000101.01
38.9826 -5.1 0.56 5000057.971
24.53898 -6.42 0.56 5000033.8983
28.590239999999998 4.74 0.54 5000040.6504
84.7368 0.5 0.54 5000134.228
24.53898 -6.1 0.54 5000033.8983
28.590239999999998 4.44 0.52 5000040.6504
84.7368 0.5 0.52 5000134.228
24.53898 -3.36 0.52 5000033.8983
26.38116 -5.96 0.52 5000036.9686
26.38116 -5.98 0.52 5000036.9686
11.843340000000001 1.74 0.5 5000012.7389
84.7368 0.94 0.5 5000134.228
84.7368 0.5 0.5 5000134.228
84.7368 -0.16 0.5 5000134.228
24.53898 -3.36 0.5 5000033.8983
26.38116 -6.16 0.5 5000036.9686
26.38116 -6.18 0.5 5000036.9686
11.843340000000001 1.74 0.48 5000012.7389
84.7368 0.94 0.48 5000134.228
84.7368 0.5 0.48 5000134.228
84.7368 -0.16 0.48 5000134.228
24.53898 -3.36 0.48 5000033.8983
24.53898 -6.42 0.48 5000033.8983
19.467180000000003 -6.5 0.48 5000025.4453
28.590239999999998 4.66 0.46 5000040.6504
84.7368 0.94 0.46 5000134.228
84.7368 -0.16 0.46 5000134.228
34.65684 -3.78 0.46 5000050.7614
26.38116 -5.74 0.46 5000036.9686
26.38116 -5.76 0.46 5000036.9686
26.38116 -5.78 0.46 5000036.9686
26.38116 -5.94 0.46 5000036.9686
26.38116 -6.16 0.46 5000036.9686
11.843340000000001 1.74 0.44 5000012.7389
84.7368 0.94 0.44 5000134.228
84.7368 -0.16 0.44 5000134.228
124.19999999999999 -0.78 0.44 5000200.0
26.38116 -5.76 0.44 5000036.9686
11.843340000000001 1.8 0.42 5000012.7389
84.7368 -0.48 0.42 5000134.228
52.78302 -1.56 0.42 5000080.9717
52.78302 -1.58 0.42 5000080.9717
38.9826 -5.1 0.42 5000057.971
38.9826 -5.12 0.42 5000057.971
26.38116 -5.94 0.42 5000036.9686
26.38116 -6.18 0.42 5000036.9686
11.843340000000001 1.82 0.4 5000012.7389
124.19999999999999 -0.8 0.4 5000200.0
13.6044 -6.72 0.4 5000015.674
11.843340000000001 1.84 0.38 5000012.7389
11.843340000000001 1.82 0.38 5000012.7389
44.74056 -2.72 0.38 5000067.5676
24.53898 -6.42 0.38 5000033.8983
11.843340000000001 1.84 0.36 5000012.7389
28.590239999999998 4.76 0.34 5000040.6504
11.843340000000001 1.84 0.34 5000012.7389
44.74056 -1.52 0.34 5000067.5676
44.74056 -1.54 0.34 5000067.5676
24.53898 5.36 0.32 5000033.8983
28.590239999999998 4.76 0.32 5000040.6504
11.843340000000001 1.84 0.32 5000012.7389
52.78302 0.84 0.32 5000080.9717
44.74056 -0.94 0.32 5000067.5676
19.467180000000003 -1.1 0.32 5000025.4453
44.74056 -1.52 0.32 5000067.5676
44.74056 -1.54 0.32 5000067.5676
28.590239999999998 -1.64 0.32 5000040.6504
44.74056 -2.7 0.32 5000067.5676
44.74056 -2.72 0.32 5000067.5676
24.53898 5.46 0.3 5000033.8983
24.53898 5.36 0.3 5000033.8983
28.590239999999998 4.56 0.3 5000040.6504
11.843340000000001 1.84 0.3 5000012.7389
84.7368 0.14 0.3 5000134.228
124.19999999999999 -0.66 0.3 5000200.0
44.74056 -1.54 0.3 5000067.5676
24.53898 -6.18 0.3 5000033.8983
13.25658 -6.74 0.3 5000015.0943
24.53898 5.46 0.28 5000033.8983
24.53898 5.36 0.28 5000033.8983
11.843340000000001 1.86 0.28 5000012.7389
84.7368 0.14 0.28 5000134.228
84.7368 0.0 0.28 5000134.228
44.74056 -1.52 0.28 5000067.5676
44.74056 -1.54 0.28 5000067.5676
28.590239999999998 -1.62 0.28 5000040.6504
52.78302 -2.54 0.28 5000080.9717
52.78302 -2.56 0.28 5000080.9717
52.78302 -2.58 0.28 5000080.9717
26.38116 -5.92 0.28 5000036.9686
24.53898 5.36 0.26 5000033.8983
64.806 0.54 0.26 5000101.01
84.7368 0.14 0.26 5000134.228
44.74056 -1.52 0.26 5000067.5676
44.74056 -1.54 0.26 5000067.5676
52.78302 -2.66 0.26 5000080.9717
44.74056 -2.68 0.26 5000067.5676
38.9826 -2.7 0.26 5000057.971
24.53898 5.62 0.24 5000033.8983
11.843340000000001 1.86 0.24 5000012.7389
84.7368 0.14 0.24 5000134.228
44.74056 -1.54 0.24 5000067.5676
52.78302 -2.64 0.24 5000080.9717
52.78302 -2.66 0.24 5000080.9717
44.74056 -2.68 0.24 5000067.5676
38.9826 -2.7 0.24 5000057.971
34.65684 -2.72 0.24 5000050.7614
34.65684 -2.74 0.24 5000050.7614
44.74056 -4.16 0.24 5000067.5676
44.74056 -4.18 0.24 5000067.5676
24.53898 5.62 0.22 5000033.8983
24.53898 5.42 0.22 5000033.8983
28.590239999999998 4.38 0.22 5000040.6504
11.843340000000001 1.86 0.22 5000012.7389
84.7368 0.14 0.22 5000134.228
84.7368 0.0 0.22 5000134.228
64.806 -2.62 0.22 5000101.01
52.78302 -2.64 0.22 5000080.9717
52.78302 -2.66 0.22 5000080.9717
44.74056 -2.68 0.22 5000067.5676
38.9826 -2.7 0.22 5000057.971
34.65684 -2.74 0.22 5000050.7614
34.65684 -4.08 0.22 5000050.7614
44.74056 -4.16 0.22 5000067.5676
44.74056 -4.18 0.22 5000067.5676
13.25658 -6.74 0.22 5000015.0943
24.53898 5.42 0.2 5000033.8983
28.590239999999998 4.38 0.2 5000040.6504
11.843340000000001 1.86 0.2 5000012.7389
84.7368 0.9 0.2 5000134.228
64.806 0.54 0.2 5000101.01
84.7368 0.14 0.2 5000134.228
84.7368 0.0 0.2 5000134.228
21.64188 -0.78 0.2 5000029.0698
21.64188 -6.5 0.2 5000029.0698
24.53898 5.42 0.18 5000033.8983
84.7368 0.9 0.18 5000134.228
84.7368 -0.6 0.18 5000134.228
24.53898 5.42 0.16 5000033.8983
26.38116 4.82 0.16 5000036.9686
84.7368 0.9 0.16 5000134.228
64.806 -2.24 0.16 5000101.01
64.806 -2.26 0.16 5000101.01
52.78302 -2.86 0.16 5000080.9717
52.78302 -2.88 0.16 5000080.9717
52.78302 -2.9 0.16 5000080.9717
18.57126 -4.64 0.16 5000023.9521
18.57126 -4.66 0.16 5000023.9521
24.53898 5.42 0.14 5000033.8983
26.38116 4.82 0.14 5000036.9686
11.843340000000001 1.68 0.14 5000012.7389
124.19999999999999 -1.92 0.14 5000200.0
64.806 -2.24 0.14 5000101.01
64.806 -2.84 0.14 5000101.01
52.78302 -2.86 0.14 5000080.9717
52.78302 -2.88 0.14 5000080.9717
52.78302 -2.9 0.14 5000080.9717
44.74056 -2.92 0.14 5000067.5676
20.4822 -2.94 0.14 5000027.137
19.467180000000003 -2.96 0.14 5000025.4453
18.57126 -2.98 0.14 5000023.9521
18.57126 -4.5 0.14 5000023.9521
18.57126 -4.52 0.14 5000023.9521
24.53898 5.42 0.12 5000033.8983
124.19999999999999 -0.6 0.12 5000200.0
44.74056 -0.96 0.12 5000067.5676
64.806 -2.68 0.12 5000101.01
64.806 -2.7 0.12 5000101.01
64.806 -2.72 0.12 5000101.01
52.78302 -2.74 0.12 5000080.9717
18.57126 -4.5 0.12 5000023.9521
18.57126 -4.52 0.12 5000023.9521
24.53898 5.42 0.1 5000033.8983
124.19999999999999 -1.4 0.1 5000200.0
64.806 -2.68 0.1 5000101.01
64.806 -2.7 0.1 5000101.01
64.806 -2.72 0.1 5000101.01
52.78302 -2.74 0.1 5000080.9717
24.53898 5.42 0.08 5000033.8983
44.74056 -0.94 0.08 5000067.5676
24.53898 5.42 0.06 5000033.8983
124.19999999999999 -0.14 0.04 5000200.0
44.74056 -2.6 0.04 5000067.5676
84.7368 0.2 0.02 5000134.228
84.7368 -0.14 0.02 5000134.228
84.7368 0.2 0.0 5000134.228
84.7368 -0.14 0.0 5000134.228
84.7368 -0.16 0.0 5000134.228
20.4822 -3.56 0.0 5000027.137
20.4822 -3.58 0.0 5000027.137
84.7368 0.76 -0.02 5000134.228
84.7368 0.2 -0.02 5000134.228
124.19999999999999 -0.16 -0.02 5000200.0
20.4822 -3.6 -0.02 5000027.137
26.38116 4.82 -0.04 5000036.9686
84.7368 0.76 -0.04 5000134.228
84.7368 0.2 -0.04 5000134.228
84.7368 -0.46 -0.04 5000134.228
84.7368 -1.46 -0.04 5000134.228
84.7368 0.76 -0.06 5000134.228
84.7368 0.2 -0.06 5000134.228
64.806 -1.46 -0.06 5000101.01
64.806 -1.48 -0.06 5000101.01
64.806 -2.4 -0.06 5000101.01
64.806 -2.42 -0.06 5000101.01
64.806 -2.44 -0.06 5000101.01
20.4822 -3.02 -0.06 5000027.137
20.4822 -3.04 -0.06 5000027.137
21.64188 -3.32 -0.06 5000029.0698
21.64188 -3.34 -0.06 5000029.0698
19.467180000000003 -3.62 -0.06 5000025.4453
84.7368 0.76 -0.08 5000134.228
124.19999999999999 -0.14 -0.08 5000200.0
64.806 -1.48 -0.08 5000101.01
28.590239999999998 -2.6 -0.08 5000040.6504
26.38116 -2.62 -0.08 5000036.9686
20.4822 -3.02 -0.08 5000027.137
20.4822 -3.04 -0.08 5000027.137
64.806 -1.48 -0.1 5000101.01
64.806 -1.5 -0.1 5000101.01
28.590239999999998 -2.6 -0.1 5000040.6504
26.38116 -2.64 -0.1 5000036.9686
26.38116 -2.66 -0.1 5000036.9686
24.53898 5.56 -0.12 5000033.8983
64.806 -1.5 -0.12 5000101.01
20.4822 -3.02 -0.12 5000027.137
21.64188 -3.16 -0.12 5000029.0698
24.53898 5.56 -0.14 5000033.8983
24.53898 5.46 -0.14 5000033.8983
20.4822 -3.0 -0.14 5000027.137
20.4822 -3.02 -0.14 5000027.137
17.77464 -3.64 -0.14 5000022.6244
24.53898 5.56 -0.16 5000033.8983
64.806 0.94 -0.16 5000101.01
26.38116 -2.34 -0.16 5000036.9686
21.64188 -3.16 -0.16 5000029.0698
21.64188 -3.18 -0.16 5000029.0698
24.53898 5.56 -0.18 5000033.8983
64.806 0.94 -0.18 5000101.01
84.7368 -1.4 -0.18 5000134.228
52.78302 -1.5 -0.18 5000080.9717
26.38116 -2.34 -0.18 5000036.9686
21.64188 -3.16 -0.18 5000029.0698
21.64188 -3.18 -0.18 5000029.0698
20.4822 -3.58 -0.18 5000027.137
26.38116 5.1 -0.2 5000036.9686
52.78302 -1.5 -0.2 5000080.9717
26.38116 -2.32 -0.2 5000036.9686
26.38116 -2.34 -0.2 5000036.9686
20.4822 -3.0 -0.2 5000027.137
20.4822 -3.02 -0.2 5000027.137
21.64188 -3.16 -0.2 5000029.0698
21.64188 -3.18 -0.2 5000029.0698
20.4822 -3.64 -0.2 5000027.137
26.38116 5.1 -0.22 5000036.9686
26.38116 -2.34 -0.22 5000036.9686
20.4822 -3.0 -0.22 5000027.137
20.4822 -3.02 -0.22 5000027.137
21.64188 -3.16 -0.22 5000029.0698
20.4822 -3.64 -0.22 5000027.137
24.53898 5.6 -0.24 5000033.8983
84.7368 -1.66 -0.24 5000134.228
84.7368 -1.68 -0.24 5000134.228
64.806 -1.8 -0.24 5000101.01
31.28802 -1.82 -0.24 5000045.1467
24.53898 5.6 -0.26 5000033.8983
26.38116 4.96 -0.26 5000036.9686
84.7368 -1.66 -0.26 5000134.228
84.7368 -1.68 -0.26 5000134.228
84.7368 -1.76 -0.26 5000134.228
84.7368 -1.78 -0.26 5000134.228
64.806 -1.8 -0.26 5000101.01
31.28802 -1.82 -0.26 5000045.1467
64.806 -1.84 -0.26 5000101.01
24.53898 -1.86 -0.26 5000033.8983
26.38116 -2.4 -0.26 5000036.9686
24.53898 5.6 -0.28 5000033.8983
84.7368 1.1 -0.28 5000134.228
26.38116 -2.4 -0.28 5000036.9686
26.38116 -2.42 -0.28 5000036.9686
24.53898 5.6 -0.3 5000033.8983
84.7368 1.1 -0.3 5000134.228
26.38116 -2.42 -0.3 5000036.9686
15.3111 -4.26 -0.3 5000018.5185
15.3111 -4.28 -0.3 5000018.5185
15.3111 -4.3 -0.3 5000018.5185
14.82888 -4.32 -0.3 5000017.7148
17.06172 -4.52 -0.3 5000021.4362
15.3111 -4.88 -0.3 5000018.5185
15.3111 -4.9 -0.3 5000018.5185
14.82888 -4.92 -0.3 5000017.7148
14.82888 -4.94 -0.3 5000017.7148
15.3111 -6.04 -0.3 5000018.5185
15.3111 -6.06 -0.3 5000018.5185
11.394240000000002 -6.74 -0.3 5000011.9904
84.7368 1.1 -0.32 5000134.228
14.82888 -4.92 -0.32 5000017.7148
14.82888 -4.94 -0.32 5000017.7148
14.82888 -4.96 -0.32 5000017.7148
14.386740000000001 -4.98 -0.32 5000016.9779
22.97934 5.92 -0.34 5000031.2989
22.97934 5.92 -0.36 5000031.2989
20.4822 -2.92 -0.36 5000027.137
20.4822 -2.94 -0.36 5000027.137
14.82888 -4.34 -0.36 5000017.7148
14.82888 -4.36 -0.36 5000017.7148
15.83916 -4.82 -0.36 5000019.3986
15.83916 -4.84 -0.36 5000019.3986
15.83916 -4.86 -0.36 5000019.3986
11.843340000000001 -6.5 -0.36 5000012.7389
11.61198 -6.52 -0.36 5000012.3533
11.61198 -6.54 -0.36 5000012.3533
11.394240000000002 -6.56 -0.36 5000011.9904
22.97934 5.92 -0.38 5000031.2989
24.53898 5.54 -0.38 5000033.8983
14.82888 -4.32 -0.38 5000017.7148
14.82888 -4.34 -0.38 5000017.7148
14.82888 -4.36 -0.38 5000017.7148
15.83916 -4.84 -0.38 5000019.3986
15.83916 -4.86 -0.38 5000019.3986
15.3111 -4.88 -0.38 5000018.5185
11.843340000000001 -6.48 -0.38 5000012.7389
11.843340000000001 -6.5 -0.38 5000012.7389
11.61198 -6.52 -0.38 5000012.3533
22.97934 5.92 -0.4 5000031.2989
24.53898 5.54 -0.4 5000033.8983
24.53898 -2.36 -0.4 5000033.8983
19.467180000000003 -3.4 -0.4 5000025.4453
14.82888 -4.34 -0.4 5000017.7148
14.82888 -4.36 -0.4 5000017.7148
15.3111 -4.9 -0.4 5000018.5185
12.08952 -6.44 -0.4 5000013.1492
11.843340000000001 -6.46 -0.4 5000012.7389
11.843340000000001 -6.48 -0.4 5000012.7389
11.843340000000001 -6.5 -0.4 5000012.7389
11.61198 -6.52 -0.4 5000012.3533
11.61198 -6.54 -0.4 5000012.3533
11.394240000000002 -6.56 -0.4 5000011.9904
11.18892 -6.58 -0.4 5000011.6482
11.18892 -6.6 -0.4 5000011.6482
22.97934 5.92 -0.42 5000031.2989
24.53898 5.54 -0.42 5000033.8983
14.82888 -4.34 -0.42 5000017.7148
14.82888 -4.36 -0.42 5000017.7148
15.3111 -4.9 -0.42 5000018.5185
12.08952 -5.8 -0.42 5000013.1492
22.97934 5.92 -0.44 5000031.2989
14.82888 -4.34 -0.44 5000017.7148
14.82888 -4.36 -0.44 5000017.7148
15.3111 -4.9 -0.44 5000018.5185
15.3111 -4.92 -0.44 5000018.5185
11.61198 -6.38 -0.44 5000012.3533
11.843340000000001 -6.4 -0.44 5000012.7389
11.843340000000001 -6.42 -0.44 5000012.7389
22.97934 5.92 -0.46 5000031.2989
22.97934 -2.64 -0.46 5000031.2989
16.419959999999996 -3.68 -0.46 5000020.3666
14.82888 -4.34 -0.46 5000017.7148
14.82888 -4.36 -0.46 5000017.7148
15.3111 -4.88 -0.46 5000018.5185
11.61198 -6.18 -0.46 5000012.3533
11.61198 -6.2 -0.46 5000012.3533
24.53898 5.6 -0.48 5000033.8983
31.28802 -2.12 -0.48 5000045.1467
22.97934 -2.64 -0.48 5000031.2989
14.82888 -4.34 -0.48 5000017.7148
14.82888 -4.36 -0.48 5000017.7148
14.82888 -4.38 -0.48 5000017.7148
15.3111 -4.88 -0.48 5000018.5185
15.3111 -4.9 -0.48 5000018.5185
14.82888 -5.1 -0.48 5000017.7148
14.82888 -5.12 -0.48 5000017.7148
11.61198 -6.14 -0.48 5000012.3533
11.61198 -6.16 -0.48 5000012.3533
11.61198 -6.18 -0.48 5000012.3533
11.61198 -6.2 -0.48 5000012.3533
10.995 -6.26 -0.48 5000011.325
31.28802 -2.12 -0.5 5000045.1467
31.28802 -2.14 -0.5 5000045.1467
26.38116 -2.28 -0.5 5000036.9686
19.467180000000003 -2.36 -0.5 5000025.4453
21.64188 -2.82 -0.5 5000029.0698
20.4822 -2.84 -0.5 5000027.137
18.57126 -2.88 -0.5 5000023.9521
20.4822 -2.94 -0.5 5000027.137
16.419959999999996 -3.04 -0.5 5000020.3666
17.77464 -3.5 -0.5 5000022.6244
14.82888 -4.34 -0.5 5000017.7148
14.82888 -4.36 -0.5 5000017.7148
14.82888 -4.38 -0.5 5000017.7148
14.82888 -5.12 -0.5 5000017.7148
14.82888 -5.14 -0.5 5000017.7148
11.61198 -6.16 -0.5 5000012.3533
11.61198 -6.18 -0.5 5000012.3533
11.394240000000002 -6.24 -0.5 5000011.9904
12.08952 -6.74 -0.5 5000013.1492
26.38116 -2.24 -0.52 5000036.9686
26.38116 -2.26 -0.52 5000036.9686
21.64188 -2.82 -0.52 5000029.0698
20.4822 -2.88 -0.52 5000027.137
20.4822 -2.94 -0.52 5000027.137
20.4822 -2.96 -0.52 5000027.137
16.419959999999996 -3.04 -0.52 5000020.3666
17.77464 -3.5 -0.52 5000022.6244
17.77464 -3.52 -0.52 5000022.6244
13.6044 -3.66 -0.52 5000015.674
13.6044 -3.68 -0.52 5000015.674
14.82888 -4.38 -0.52 5000017.7148
14.82888 -4.74 -0.52 5000017.7148
14.82888 -4.76 -0.52 5000017.7148
14.82888 -5.1 -0.52 5000017.7148
14.82888 -5.12 -0.52 5000017.7148
14.82888 -5.14 -0.52 5000017.7148
14.386740000000001 -5.16 -0.52 5000016.9779
11.843340000000001 -6.74 -0.52 5000012.7389
21.64188 -2.82 -0.54 5000029.0698
20.4822 -2.84 -0.54 5000027.137
20.4822 -2.88 -0.54 5000027.137
17.77464 -3.5 -0.54 5000022.6244
17.77464 -3.52 -0.54 5000022.6244
14.82888 -5.12 -0.54 5000017.7148
14.82888 -5.14 -0.54 5000017.7148
14.386740000000001 -5.16 -0.54 5000016.9779
14.386740000000001 -5.18 -0.54 5000016.9779
12.08952 -6.04 -0.54 5000013.1492
26.38116 -2.38 -0.56 5000036.9686
24.53898 -2.52 -0.56 5000033.8983
21.64188 -2.82 -0.56 5000029.0698
20.4822 -2.84 -0.56 5000027.137
17.77464 -3.52 -0.56 5000022.6244
13.6044 -5.58 -0.56 5000015.674
13.25658 -5.6 -0.56 5000015.0943
12.933599999999998 -5.62 -0.56 5000014.556
12.933599999999998 -5.64 -0.56 5000014.556
22.97934 5.9 -0.58 5000031.2989
24.53898 -2.52 -0.58 5000033.8983
20.4822 -2.84 -0.58 5000027.137
17.77464 -3.52 -0.58 5000022.6244
15.3111 -3.62 -0.58 5000018.5185
14.82888 -3.64 -0.58 5000017.7148
14.386740000000001 -5.02 -0.58 5000016.9779
14.386740000000001 -5.04 -0.58 5000016.9779
14.386740000000001 -5.06 -0.58 5000016.9779
22.97934 5.9 -0.6 5000031.2989
19.467180000000003 -3.02 -0.6 5000025.4453
17.77464 -3.52 -0.6 5000022.6244
17.06172 -3.58 -0.6 5000021.4362
16.419959999999996 -3.6 -0.6 5000020.3666
14.82888 -4.22 -0.6 5000017.7148
14.82888 -4.24 -0.6 5000017.7148
14.386740000000001 -4.52 -0.6 5000016.9779
14.386740000000001 -5.02 -0.6 5000016.9779
14.386740000000001 -5.04 -0.6 5000016.9779
13.6044 -5.54 -0.6 5000015.674
13.6044 -5.56 -0.6 5000015.674
12.933599999999998 -5.66 -0.6 5000014.556
22.97934 5.9 -0.62 5000031.2989
24.53898 5.54 -0.62 5000033.8983
17.06172 -3.58 -0.62 5000021.4362
14.82888 -4.22 -0.62 5000017.7148
13.25658 -6.6 -0.62 5000015.0943
13.25658 -6.62 -0.62 5000015.0943
13.25658 -6.64 -0.62 5000015.0943
12.933599999999998 -6.66 -0.62 5000014.556
22.97934 5.9 -0.64 5000031.2989
22.97934 -2.64 -0.64 5000031.2989
16.419959999999996 -3.36 -0.64 5000020.3666
17.06172 -3.56 -0.64 5000021.4362
16.419959999999996 -3.58 -0.64 5000020.3666
14.82888 -3.66 -0.64 5000017.7148
14.82888 -3.68 -0.64 5000017.7148
14.82888 -4.22 -0.64 5000017.7148
14.82888 -4.24 -0.64 5000017.7148
11.394240000000002 -6.72 -0.64 5000011.9904
11.394240000000002 -6.74 -0.64 5000011.9904
22.97934 5.9 -0.66 5000031.2989
22.97934 -2.62 -0.66 5000031.2989
22.97934 -2.64 -0.66 5000031.2989
22.97934 -2.66 -0.66 5000031.2989
18.57126 -2.72 -0.66 5000023.9521
18.57126 -2.74 -0.66 5000023.9521
17.77464 -3.3 -0.66 5000022.6244
14.82888 -4.54 -0.66 5000017.7148
14.386740000000001 -4.56 -0.66 5000016.9779
14.386740000000001 -4.58 -0.66 5000016.9779
14.386740000000001 -4.6 -0.66 5000016.9779
14.82888 -4.98 -0.66 5000017.7148
14.82888 -5.0 -0.66 5000017.7148
14.82888 -5.12 -0.66 5000017.7148
12.933599999999998 -5.3 -0.66 5000014.556
12.63288 -5.32 -0.66 5000014.0548
12.63288 -5.34 -0.66 5000014.0548
12.63288 -5.36 -0.66 5000014.0548
12.3522 -5.44 -0.66 5000013.587
12.3522 -5.46 -0.66 5000013.587
12.3522 -5.48 -0.66 5000013.587
12.08952 -6.06 -0.66 5000013.1492
12.08952 -6.08 -0.66 5000013.1492
22.97934 5.9 -0.68 5000031.2989
22.97934 -2.62 -0.68 5000031.2989
22.97934 -2.64 -0.68 5000031.2989
22.97934 -2.66 -0.68 5000031.2989
18.57126 -2.72 -0.68 5000023.9521
18.57126 -2.74 -0.68 5000023.9521
21.64188 -2.88 -0.68 5000029.0698
21.64188 -2.9 -0.68 5000029.0698
16.419959999999996 -3.6 -0.68 5000020.3666
16.419959999999996 -3.62 -0.68 5000020.3666
14.386740000000001 -4.56 -0.68 5000016.9779
14.386740000000001 -4.58 -0.68 5000016.9779
14.386740000000001 -4.6 -0.68 5000016.9779
14.82888 -4.98 -0.68 5000017.7148
14.386740000000001 -5.0 -0.68 5000016.9779
12.63288 -5.36 -0.68 5000014.0548
22.97934 5.9 -0.7 5000031.2989
24.53898 5.54 -0.7 5000033.8983
16.419959999999996 -3.6 -0.7 5000020.3666
16.419959999999996 -3.62 -0.7 5000020.3666
13.25658 -4.66 -0.7 5000015.0943
14.82888 -4.94 -0.7 5000017.7148
12.3522 -5.56 -0.7 5000013.587
11.18892 -6.72 -0.7 5000011.6482
11.18892 -6.74 -0.7 5000011.6482
22.97934 5.9 -0.72 5000031.2989
24.53898 5.54 -0.72 5000033.8983
16.419959999999996 -3.62 -0.72 5000020.3666
14.82888 -4.98 -0.72 5000017.7148
12.63288 -5.4 -0.72 5000014.0548
12.3522 -5.54 -0.72 5000013.587
12.3522 -5.56 -0.72 5000013.587
12.3522 -5.58 -0.72 5000013.587
11.394240000000002 -6.74 -0.72 5000011.9904
22.97934 5.9 -0.74 5000031.2989
24.53898 5.6 -0.74 5000033.8983
24.53898 5.54 -0.74 5000033.8983
17.77464 -3.38 -0.74 5000022.6244
16.419959999999996 -3.64 -0.74 5000020.3666
22.97934 5.9 -0.76 5000031.2989
22.97934 -1.5 -0.76 5000031.2989
21.64188 -2.86 -0.76 5000029.0698
21.64188 -2.88 -0.76 5000029.0698
17.77464 -3.38 -0.76 5000022.6244
16.419959999999996 -3.64 -0.76 5000020.3666
15.3111 -3.98 -0.76 5000018.5185
13.6044 -4.1 -0.76 5000015.674
14.386740000000001 -4.46 -0.76 5000016.9779
14.386740000000001 -4.48 -0.76 5000016.9779
17.77464 -3.38 -0.78 5000022.6244
16.419959999999996 -3.64 -0.78 5000020.3666
15.3111 -4.02 -0.78 5000018.5185
15.3111 -4.04 -0.78 5000018.5185
13.6044 -4.1 -0.78 5000015.674
13.6044 -4.12 -0.78 5000015.674
13.6044 -4.14 -0.78 5000015.674
22.97934 -1.52 -0.8 5000031.2989
20.4822 -3.04 -0.8 5000027.137
20.4822 -3.06 -0.8 5000027.137
16.419959999999996 -3.14 -0.8 5000020.3666
17.77464 -3.36 -0.8 5000022.6244
17.77464 -3.38 -0.8 5000022.6244
15.3111 -4.02 -0.8 5000018.5185
15.3111 -4.04 -0.8 5000018.5185
13.6044 -4.14 -0.8 5000015.674
11.394240000000002 -6.62 -0.8 5000011.9904
11.18892 -6.64 -0.8 5000011.6482
11.18892 -6.66 -0.8 5000011.6482
11.18892 -6.68 -0.8 5000011.6482
11.18892 -6.7 -0.8 5000011.6482
22.97934 5.9 -0.82 5000031.2989
20.4822 -3.02 -0.82 5000027.137
20.4822 -3.04 -0.82 5000027.137
20.4822 -3.06 -0.82 5000027.137
19.467180000000003 -3.08 -0.82 5000025.4453
16.419959999999996 -3.14 -0.82 5000020.3666
17.77464 -3.36 -0.82 5000022.6244
17.77464 -3.38 -0.82 5000022.6244
15.3111 -4.0 -0.82 5000018.5185
15.3111 -4.02 -0.82 5000018.5185
15.3111 -4.04 -0.82 5000018.5185
12.933599999999998 -5.16 -0.82 5000014.556
12.933599999999998 -5.18 -0.82 5000014.556
11.18892 -6.34 -0.82 5000011.6482
11.18892 -6.46 -0.82 5000011.6482
11.18892 -6.68 -0.82 5000011.6482
11.18892 -6.7 -0.82 5000011.6482
10.995 -6.72 -0.82 5000011.325
17.77464 -3.36 -0.84 5000022.6244
17.77464 -3.38 -0.84 5000022.6244
16.419959999999996 -3.64 -0.84 5000020.3666
16.419959999999996 -3.66 -0.84 5000020.3666
15.3111 -4.02 -0.84 5000018.5185
12.933599999999998 -5.14 -0.84 5000014.556
12.63288 -5.24 -0.84 5000014.0548
12.63288 -5.26 -0.84 5000014.0548
11.18892 -6.34 -0.84 5000011.6482
11.18892 -6.48 -0.84 5000011.6482
11.18892 -6.5 -0.84 5000011.6482
17.77464 -3.36 -0.86 5000022.6244
17.77464 -3.38 -0.86 5000022.6244
16.419959999999996 -3.66 -0.86 5000020.3666
15.3111 -4.02 -0.86 5000018.5185
12.63288 -5.24 -0.86 5000014.0548
11.18892 -6.32 -0.86 5000011.6482
11.18892 -6.34 -0.86 5000011.6482
11.18892 -6.36 -0.86 5000011.6482
10.811580000000001 -6.4 -0.86 5000011.0193
10.811580000000001 -6.42 -0.86 5000011.0193
10.995 -6.52 -0.86 5000011.325
17.77464 -3.36 -0.88 5000022.6244
17.77464 -3.38 -0.88 5000022.6244
16.419959999999996 -3.66 -0.88 5000020.3666
15.3111 -4.02 -0.88 5000018.5185
11.18892 -6.3 -0.88 5000011.6482
11.18892 -6.32 -0.88 5000011.6482
17.77464 -3.36 -0.9 5000022.6244
17.77464 -3.38 -0.9 5000022.6244
15.3111 -3.98 -0.9 5000018.5185
15.3111 -4.0 -0.9 5000018.5185
15.3111 -4.02 -0.9 5000018.5185
15.3111 -4.04 -0.9 5000018.5185
13.979940000000001 -4.1 -0.9 5000016.2999
13.979940000000001 -4.12 -0.9 5000016.2999
12.63288 -5.22 -0.9 5000014.0548
11.18892 -6.32 -0.9 5000011.6482
15.3111 -4.0 -0.92 5000018.5185
15.3111 -4.02 -0.92 5000018.5185
15.3111 -4.04 -0.92 5000018.5185
11.18892 -6.28 -0.92 5000011.6482
11.18892 -6.3 -0.92 5000011.6482
11.18892 -6.46 -0.92 5000011.6482
11.394240000000002 -6.54 -0.92 5000011.9904
11.18892 -6.56 -0.92 5000011.6482
11.18892 -6.58 -0.92 5000011.6482
15.3111 -4.02 -0.94 5000018.5185
15.3111 -4.04 -0.94 5000018.5185
12.933599999999998 -5.04 -0.94 5000014.556
12.933599999999998 -5.06 -0.94 5000014.556
12.933599999999998 -5.08 -0.94 5000014.556
11.843340000000001 -5.14 -0.94 5000012.7389
11.843340000000001 -5.16 -0.94 5000012.7389
11.18892 -6.46 -0.94 5000011.6482
11.18892 -6.58 -0.94 5000011.6482
10.995 -6.6 -0.94 5000011.325
16.419959999999996 -3.54 -0.96 5000020.3666
15.3111 -4.02 -0.96 5000018.5185
15.3111 -4.04 -0.96 5000018.5185
14.82888 -4.18 -0.96 5000017.7148
12.933599999999998 -5.04 -0.96 5000014.556
12.933599999999998 -5.06 -0.96 5000014.556
12.933599999999998 -5.08 -0.96 5000014.556
11.843340000000001 -5.16 -0.96 5000012.7389
11.843340000000001 -5.18 -0.96 5000012.7389
11.61198 -6.06 -0.96 5000012.3533
11.394240000000002 -6.52 -0.96 5000011.9904
11.394240000000002 -6.54 -0.96 5000011.9904
11.18892 -6.56 -0.96 5000011.6482
11.18892 -6.58 -0.96 5000011.6482
10.995 -6.6 -0.96 5000011.325
10.995 -6.62 -0.96 5000011.325
10.995 -6.64 -0.96 5000011.325
17.06172 -3.52 -0.98 5000021.4362
16.419959999999996 -3.54 -0.98 5000020.3666
16.419959999999996 -3.56 -0.98 5000020.3666
17.06172 -3.78 -0.98 5000021.4362
17.06172 -3.8 -0.98 5000021.4362
12.933599999999998 -5.04 -0.98 5000014.556
11.61198 -6.06 -0.98 5000012.3533
11.18892 -6.12 -0.98 5000011.6482
10.995 -6.6 -0.98 5000011.325
10.995 -6.62 -0.98 5000011.325
10.995 -6.64 -0.98 5000011.325
16.419959999999996 -3.54 -1.0 5000020.3666
16.419959999999996 -3.56 -1.0 5000020.3666
16.419959999999996 -3.58 -1.0 5000020.3666
14.82888 -4.32 -1.0 5000017.7148
14.82888 -4.34 -1.0 5000017.7148
14.82888 -4.36 -1.0 5000017.7148
14.386740000000001 -4.38 -1.0 5000016.9779
11.61198 -6.06 -1.0 5000012.3533
10.995 -6.62 -1.0 5000011.325
17.06172 -1.74 -1.02 5000021.4362
15.3111 -4.1 -1.02 5000018.5185
15.3111 -4.12 -1.02 5000018.5185
14.82888 -4.32 -1.02 5000017.7148
14.82888 -4.34 -1.02 5000017.7148
14.82888 -4.36 -1.02 5000017.7148
15.3111 -4.1 -1.04 5000018.5185
15.3111 -4.12 -1.04 5000018.5185
15.3111 -4.78 -1.04 5000018.5185
14.82888 -4.8 -1.04 5000017.7148
14.82888 -4.82 -1.04 5000017.7148
12.933599999999998 -5.0 -1.04 5000014.556
14.82888 -4.82 -1.06 5000017.7148
14.82888 -4.84 -1.06 5000017.7148
14.82888 -4.86 -1.06 5000017.7148
12.933599999999998 -5.0 -1.06 5000014.556
12.3522 -5.06 -1.06 5000013.587
11.394240000000002 -6.02 -1.08 5000011.9904
11.394240000000002 -6.04 -1.08 5000011.9904
11.394240000000002 -6.06 -1.08 5000011.9904
14.82888 -4.12 -1.1 5000017.7148
14.82888 -4.14 -1.1 5000017.7148
11.61198 -5.98 -1.1 5000012.3533
11.61198 -6.0 -1.1 5000012.3533
11.394240000000002 -6.02 -1.1 5000011.9904
11.394240000000002 -6.04 -1.1 5000011.9904
11.394240000000002 -6.18 -1.1 5000011.9904
11.394240000000002 -6.2 -1.1 5000011.9904
14.82888 -4.1 -1.12 5000017.7148
14.82888 -4.12 -1.12 5000017.7148
14.82888 -4.14 -1.12 5000017.7148
11.61198 -6.0 -1.12 5000012.3533
11.394240000000002 -6.02 -1.12 5000011.9904
11.61198 -5.96 -1.14 5000012.3533
11.61198 -5.98 -1.14 5000012.3533
11.61198 -6.0 -1.14 5000012.3533
11.18892 -6.36 -1.14 5000011.6482
11.61198 -5.98 -1.16 5000012.3533
11.61198 -6.0 -1.16 5000012.3533
11.61198 -5.98 -1.18 5000012.3533
11.61198 -5.96 -1.2 5000012.3533
12.933599999999998 -5.0 -1.22 5000014.556
12.933599999999998 -5.02 -1.22 5000014.556
11.61198 -5.96 -1.22 5000012.3533
11.61198 -5.98 -1.22 5000012.3533
11.18892 -6.04 -1.22 5000011.6482
12.933599999999998 -4.98 -1.24 5000014.556
12.933599999999998 -5.0 -1.24 5000014.556
12.933599999999998 -5.02 -1.24 5000014.556
11.61198 -5.96 -1.24 5000012.3533
11.61198 -5.98 -1.24 5000012.3533
11.394240000000002 -6.02 -1.24 5000011.9904
11.61198 -5.96 -1.26 5000012.3533
11.394240000000002 -6.02 -1.26 5000011.9904
12.933599999999998 -5.0 -1.28 5000014.556
12.933599999999998 -5.02 -1.28 5000014.556
11.61198 -5.96 -1.28 5000012.3533
11.61198 -5.98 -1.28 5000012.3533
12.933599999999998 -5.0 -1.3 5000014.556
12.933599999999998 -5.02 -1.3 5000014.556
12.933599999999998 -5.04 -1.3 5000014.556
12.63288 -5.38 -1.3 5000014.0548
11.61198 -5.96 -1.3 5000012.3533
12.933599999999998 -5.02 -1.32 5000014.556
12.933599999999998 -5.04 -1.32 5000014.556
12.933599999999998 -5.32 -1.32 5000014.556
12.933599999999998 -5.34 -1.32 5000014.556
12.933599999999998 -5.36 -1.32 5000014.556
12.63288 -5.38 -1.32 5000014.0548
11.61198 -5.96 -1.32 5000012.3533
12.933599999999998 -5.04 -1.34 5000014.556
12.933599999999998 -5.32 -1.34 5000014.556
12.933599999999998 -5.34 -1.34 5000014.556
12.933599999999998 -5.36 -1.34 5000014.556
12.63288 -5.38 -1.34 5000014.0548
11.18892 -6.18 -1.34 5000011.6482
12.933599999999998 -5.04 -1.36 5000014.556
12.933599999999998 -5.06 -1.36 5000014.556
12.63288 -5.08 -1.36 5000014.0548
12.933599999999998 -5.06 -1.38 5000014.556
12.933599999999998 -5.08 -1.38 5000014.556
13.25658 -2.2 -1.4 5000015.0943
13.25658 -2.22 -1.4 5000015.0943
13.25658 -2.24 -1.4 5000015.0943
11.61198 -5.98 -1.44 5000012.3533
11.61198 -6.0 -1.44 5000012.3533
12.3522 -5.32 -1.46 5000013.587
13.979940000000001 -6.58 -1.46 5000016.2999
13.979940000000001 -6.6 -1.46 5000016.2999
13.979940000000001 -6.62 -1.46 5000016.2999
10.995 -6.06 -1.48 5000011.325
10.995 -6.08 -1.48 5000011.325
12.63288 -6.72 -1.48 5000014.0548
12.63288 -6.74 -1.48 5000014.0548
12.08952 -5.58 -1.52 5000013.1492
12.08952 -5.6 -1.52 5000013.1492
12.08952 -5.62 -1.52 5000013.1492
12.08952 -5.62 -1.54 5000013.1492
11.61198 3.9 -1.56 5000012.3533
11.394240000000002 2.58 -1.58 5000011.9904
11.394240000000002 2.18 -1.6 5000011.9904
11.394240000000002 -6.2 -1.6 5000011.9904
11.61198 -6.04 -1.62 5000012.3533
11.61198 -6.06 -1.62 5000012.3533
11.61198 -6.08 -1.62 5000012.3533
11.394240000000002 4.04 -1.64 5000011.9904
10.995 3.22 -1.64 5000011.325
10.995 3.2 -1.64 5000011.325
11.18892 2.24 -1.64 5000011.6482
11.18892 2.22 -1.64 5000011.6482
10.995 3.8 -1.66 5000011.325
11.394240000000002 -4.64 -1.68 5000011.9904
11.394240000000002 -4.66 -1.68 5000011.9904
10.995 4.64 -1.72 5000011.325
10.472879999999998 5.04 -1.82 5000010.4548
10.637759999999998 -6.56 -1.82 5000010.7296
10.637759999999998 -6.58 -1.82 5000010.7296
10.637759999999998 -6.6 -1.82 5000010.7296
10.472879999999998 5.02 -1.84 5000010.4548
10.025244 3.6 -1.86 5000009.70874
10.025244 3.56 -1.86 5000009.70874
10.025244 3.54 -1.86 5000009.70874
10.025244 3.64 -1.88 5000009.70874
10.025244 2.78 -1.88 5000009.70874
10.025244 2.76 -1.88 5000009.70874
10.025244 2.74 -1.88 5000009.70874
10.025244 3.64 -1.9 5000009.70874
10.025244 3.62 -1.9 5000009.70874
9.889902000000001 3.44 -1.92 5000009.48317
9.889902000000001 3.48 -1.94 5000009.48317
9.760704 2.42 -1.96 5000009.26784
10.316220000000001 5.76 -1.98 5000010.1937
9.637241999999999 2.8 -2.0 5000009.06207
9.637241999999999 2.76 -2.0 5000009.06207
9.760704 5.92 -2.02 5000009.26784
9.51915 3.08 -2.02 5000008.86525
9.51915 4.18 -2.04 5000008.86525
9.406074 3.42 -2.04 5000008.67679
9.51915 3.08 -2.04 5000008.86525
9.51915 3.08 -2.06 5000008.86525
9.51915 3.06 -2.06 5000008.86525
9.406074 4.66 -2.08 5000008.67679
9.51915 5.22 -2.1 5000008.86525
9.51915 5.2 -2.1 5000008.86525
9.297708 3.18 -2.12 5000008.49618
9.297708 3.16 -2.12 5000008.49618
9.093966 5.36 -2.14 5000008.15661
9.093966 5.34 -2.14 5000008.15661
9.297708 4.86 -2.14 5000008.49618
9.760704 -3.2 -2.14 5000009.26784
9.760704 -3.26 -2.14 5000009.26784
9.760704 -3.28 -2.14 5000009.26784
9.637241999999999 -3.3 -2.14 5000009.06207
9.637241999999999 -3.32 -2.14 5000009.06207
9.637241999999999 -3.34 -2.14 5000009.06207
9.637241999999999 -3.36 -2.14 5000009.06207
9.093966 5.82 -2.16 5000008.15661
9.093966 4.96 -2.16 5000008.15661
9.093966 4.94 -2.16 5000008.15661
9.760704 -3.22 -2.16 5000009.26784
9.760704 -3.24 -2.16 5000009.26784
9.760704 -3.26 -2.16 5000009.26784
9.760704 -3.28 -2.16 5000009.26784
9.637241999999999 -3.32 -2.16 5000009.06207
9.637241999999999 -3.34 -2.16 5000009.06207
9.637241999999999 -3.36 -2.16 5000009.06207
9.093966 5.82 -2.18 5000008.15661
9.093966 5.78 -2.18 5000008.15661
9.093966 4.96 -2.18 5000008.15661
9.093966 4.94 -2.18 5000008.15661
9.093966 3.82 -2.18 5000008.15661
8.905884 4.74 -2.2 5000007.84314
9.093966 3.82 -2.2 5000008.15661
9.093966 2.72 -2.2 5000008.15661
8.99808 5.9 -2.22 5000007.9968
8.905884 4.74 -2.22 5000007.84314
8.905884 4.72 -2.22 5000007.84314
8.905884 3.88 -2.22 5000007.84314
8.817162000000001 3.48 -2.22 5000007.69527
9.297708 2.18 -2.22 5000008.49618
8.905884 4.74 -2.24 5000007.84314
8.905884 4.72 -2.24 5000007.84314
8.905884 3.26 -2.24 5000007.84314
8.905884 3.24 -2.24 5000007.84314
8.817162000000001 4.84 -2.26 5000007.69527
8.817162000000001 4.82 -2.26 5000007.69527
8.817162000000001 4.8 -2.26 5000007.69527
8.905884 3.24 -2.26 5000007.84314
8.817162000000001 4.82 -2.28 5000007.69527
8.817162000000001 4.8 -2.28 5000007.69527
8.817162000000001 4.78 -2.28 5000007.69527
8.905884 4.76 -2.28 5000007.84314
8.731722000000001 4.0 -2.28 5000007.55287
9.093966 2.06 -2.28 5000008.15661
8.731722000000001 3.4 -2.32 5000007.55287
8.731722000000001 3.38 -2.32 5000007.55287
8.569992 4.44 -2.36 5000007.28332
8.493384 3.96 -2.36 5000007.15564
8.569992 3.88 -2.36 5000007.28332
8.493384 4.5 -2.38 5000007.15564
8.493384 4.02 -2.38 5000007.15564
8.493384 4.0 -2.38 5000007.15564
8.493384 4.5 -2.4 5000007.15564
8.493384 4.02 -2.4 5000007.15564
8.493384 4.48 -2.42 5000007.15564
8.569992 3.06 -2.42 5000007.28332
8.419410000000001 3.52 -2.44 5000007.03235
8.419410000000001 3.5 -2.44 5000007.03235
8.569992 3.08 -2.44 5000007.28332
8.419410000000001 5.54 -2.46 5000007.03235
8.64939 5.5 -2.46 5000007.41565
8.27886 4.22 -2.46 5000006.7981
8.212038 4.2 -2.46 5000006.68673
8.493384 3.98 -2.46 5000007.15564
8.419410000000001 3.52 -2.46 5000007.03235
8.419410000000001 3.5 -2.46 5000007.03235
8.419410000000001 3.48 -2.46 5000007.03235
8.64939 5.58 -2.48 5000007.41565
8.347944 4.8 -2.48 5000006.91324
8.419410000000001 4.28 -2.48 5000007.03235
8.27886 4.22 -2.48 5000006.7981
8.493384 3.98 -2.48 5000007.15564
8.419410000000001 3.22 -2.48 5000007.03235
8.347944 4.8 -2.5 5000006.91324
8.347944 4.78 -2.5 5000006.91324
8.347944 4.26 -2.5 5000006.91324
8.347944 4.78 -2.54 5000006.91324
8.347944 5.1 -2.56 5000006.91324
8.212038 5.08 -2.56 5000006.68673
8.212038 5.06 -2.56 5000006.68673
8.212038 5.04 -2.56 5000006.68673
8.212038 5.0 -2.56 5000006.68673
8.347944 4.8 -2.56 5000006.91324
8.212038 4.6 -2.56 5000006.68673
8.212038 4.58 -2.56 5000006.68673
8.347944 4.18 -2.56 5000006.91324
8.347944 4.14 -2.56 5000006.91324
8.212038 5.04 -2.58 5000006.68673
8.212038 4.96 -2.58 5000006.68673
8.212038 4.94 -2.58 5000006.68673
8.147369999999999 4.06 -2.6 5000006.57895
8.084754 4.78 -2.62 5000006.47459
8.147369999999999 4.06 -2.62 5000006.57895
8.147369999999999 4.04 -2.62 5000006.57895
8.147369999999999 4.04 -2.64 5000006.57895
8.024094 3.84 -2.64 5000006.37349
8.024094 5.66 -2.66 5000006.37349
8.147369999999999 5.22 -2.66 5000006.57895
8.147369999999999 5.2 -2.66 5000006.57895
8.147369999999999 5.18 -2.66 5000006.57895
8.024094 4.88 -2.66 5000006.37349
8.084754 4.78 -2.66 5000006.47459
8.084754 4.76 -2.66 5000006.47459
8.084754 4.2 -2.66 5000006.47459
8.084754 4.18 -2.66 5000006.47459
8.024094 3.84 -2.66 5000006.37349
8.024094 3.82 -2.66 5000006.37349
8.084754 3.52 -2.66 5000006.47459
8.084754 4.82 -2.68 5000006.47459
8.084754 4.78 -2.68 5000006.47459
8.084754 4.2 -2.68 5000006.47459
8.024094 4.18 -2.68 5000006.37349
8.024094 4.16 -2.68 5000006.37349
8.024094 3.82 -2.68 5000006.37349
8.024094 3.8 -2.68 5000006.37349
8.024094 3.56 -2.68 5000006.37349
