VERSION .7
FIELDS x y z rgb
SIZE 4 4 4 4
TYPE F F F F
COUNT 1 1 1 1
WIDTH 1575
HEIGHT 1
VIEWPOINT 0 0 0 1 0 0 0
POINTS 1575
DATA ascii
26.38116 -5.92 1.52 36.9686
26.38116 -5.94 1.52 36.9686
26.38116 -6.1 1.52 36.9686
24.53898 -6.62 1.52 33.8983
26.38116 5.3 1.5 36.9686
24.53898 4.48 1.5 33.8983
11.394240000000002 1.76 1.5 11.9904
34.65684 -2.52 1.5 50.7614
34.65684 -2.54 1.5 50.7614
34.65684 -4.0 1.5 50.7614
26.38116 -5.92 1.5 36.9686
26.38116 -5.94 1.5 36.9686
24.53898 -6.62 1.5 33.8983
26.38116 4.26 1.48 36.9686
11.394240000000002 1.76 1.48 11.9904
44.74056 -0.92 1.48 67.5676
34.65684 -2.54 1.48 50.7614
26.38116 -5.92 1.48 36.9686
28.590239999999998 4.66 1.46 40.6504
26.38116 4.28 1.46 36.9686
28.590239999999998 3.92 1.46 40.6504
11.394240000000002 1.76 1.46 11.9904
38.9826 -0.92 1.46 57.971
34.65684 -2.54 1.46 50.7614
34.65684 -4.12 1.46 50.7614
26.38116 -5.92 1.46 36.9686
26.38116 4.28 1.44 36.9686
11.394240000000002 1.76 1.44 11.9904
44.74056 -0.92 1.44 67.5676
24.53898 -3.18 1.44 33.8983
24.53898 -3.2 1.44 33.8983
24.53898 -3.22 1.44 33.8983
20.4822 -3.28 1.44 27.137
34.65684 -4.12 1.44 50.7614
17.06172 -5.0 1.44 21.4362
24.53898 -6.62 1.44 33.8983
28.590239999999998 5.18 1.42 40.6504
24.53898 -6.62 1.42 33.8983
26.38116 5.42 1.4 36.9686
26.38116 5.4 1.4 36.9686
26.38116 4.64 1.4 36.9686
44.74056 -0.92 1.4 67.5676
26.38116 5.42 1.38 36.9686
31.28802 -2.54 1.38 45.1467
52.78302 0.86 1.36 80.9717
22.97934 -3.24 1.36 31.2989
22.97934 -3.26 1.36 31.2989
22.97934 -3.28 1.36 31.2989
22.97934 -3.26 1.34 31.2989
22.97934 -3.28 1.34 31.2989
24.53898 -6.36 1.34 33.8983
28.590239999999998 4.32 1.32 40.6504
64.806 2.64 1.32 101.01
26.38116 4.5 1.3 36.9686
38.9826 -0.68 1.3 57.971
17.77464 -4.82 1.28 22.6244
28.590239999999998 -5.66 1.28 40.6504
24.53898 -6.12 1.28 33.8983
44.74056 -0.94 1.26 67.5676
17.77464 -4.82 1.26 22.6244
17.77464 -1.16 1.24 22.6244
24.53898 -6.12 1.24 33.8983
28.590239999999998 5.32 1.22 40.6504
26.38116 4.98 1.22 36.9686
28.590239999999998 3.78 1.22 40.6504
26.38116 -6.1 1.22 36.9686
26.38116 5.44 1.2 36.9686
44.74056 -0.96 1.2 67.5676
44.74056 -3.1 1.2 67.5676
28.590239999999998 -5.72 1.2 40.6504
28.590239999999998 -5.74 1.2 40.6504
26.38116 5.44 1.18 36.9686
26.38116 4.58 1.18 36.9686
28.590239999999998 4.08 1.18 40.6504
26.38116 5.44 1.16 36.9686
17.77464 -4.72 1.16 22.6244
26.38116 5.44 1.14 36.9686
11.18892 1.88 1.14 11.6482
24.53898 -1.08 1.14 33.8983
26.38116 5.44 1.12 36.9686
26.38116 4.9 1.12 36.9686
26.38116 5.44 1.1 36.9686
11.18892 1.88 1.1 11.6482
44.74056 -1.0 1.1 67.5676
28.590239999999998 4.58 1.08 40.6504
11.394240000000002 1.88 1.08 11.9904
26.38116 -1.08 1.08 36.9686
11.394240000000002 1.88 1.06 11.9904
38.9826 -1.0 1.06 57.971
44.74056 -5.32 1.06 67.5676
11.394240000000002 1.88 1.04 11.9904
44.74056 -1.02 1.04 67.5676
44.74056 -5.32 1.04 67.5676
26.38116 5.4 1.0 36.9686
26.38116 5.24 1.0 36.9686
38.9826 -1.02 1.0 57.971
38.9826 -1.04 1.0 57.971
44.74056 -1.6 1.0 67.5676
26.38116 5.4 0.98 36.9686
26.38116 5.4 0.96 36.9686
24.53898 -3.36 0.96 33.8983
24.53898 -3.38 0.96 33.8983
26.38116 5.4 0.94 36.9686
26.38116 4.6 0.94 36.9686
44.74056 -1.04 0.94 67.5676
28.590239999999998 -3.32 0.94 40.6504
26.38116 4.6 0.92 36.9686
34.65684 -5.26 0.92 50.7614
34.65684 -5.3 0.92 50.7614
26.38116 -1.12 0.9 36.9686
34.65684 -4.06 0.9 50.7614
26.38116 5.38 0.88 36.9686
38.9826 -0.72 0.88 57.971
26.38116 5.38 0.86 36.9686
11.18892 1.88 0.86 11.6482
38.9826 -1.04 0.86 57.971
26.38116 -1.12 0.86 36.9686
22.97934 -3.48 0.86 31.2989
24.53898 -6.52 0.86 33.8983
24.53898 -6.7 0.86 33.8983
26.38116 5.38 0.84 36.9686
38.9826 -1.04 0.84 57.971
24.53898 -6.52 0.84 33.8983
24.53898 -6.54 0.84 33.8983
24.53898 -6.7 0.84 33.8983
24.53898 -6.72 0.84 33.8983
26.38116 5.62 0.82 36.9686
26.38116 5.38 0.82 36.9686
84.7368 0.4 0.82 134.228
34.65684 -5.26 0.82 50.7614
24.53898 -6.52 0.82 33.8983
24.53898 -6.7 0.82 33.8983
44.74056 -1.26 0.8 67.5676
44.74056 -1.28 0.8 67.5676
34.65684 -5.26 0.8 50.7614
24.53898 -6.52 0.8 33.8983
26.38116 5.36 0.78 36.9686
11.394240000000002 1.88 0.78 11.9904
17.77464 -4.68 0.78 22.6244
24.53898 -6.26 0.78 33.8983
24.53898 -6.28 0.78 33.8983
24.53898 -6.42 0.78 33.8983
24.53898 -6.44 0.78 33.8983
26.38116 5.36 0.76 36.9686
11.18892 1.88 0.76 11.6482
52.78302 -2.46 0.76 80.9717
24.53898 -6.24 0.76 33.8983
24.53898 -6.26 0.76 33.8983
24.53898 -6.28 0.76 33.8983
24.53898 -6.42 0.76 33.8983
24.53898 -6.44 0.76 33.8983
52.78302 -1.6 0.74 80.9717
24.53898 -6.26 0.74 33.8983
11.18892 1.88 0.72 11.6482
11.18892 1.86 0.72 11.6482
24.53898 -6.18 0.72 33.8983
11.18892 1.88 0.7 11.6482
26.38116 -6.0 0.7 36.9686
26.38116 -6.02 0.7 36.9686
26.38116 -6.04 0.7 36.9686
24.53898 -6.16 0.7 33.8983
24.53898 -6.18 0.7 33.8983
11.18892 1.88 0.68 11.6482
26.38116 -6.02 0.68 36.9686
24.53898 -6.16 0.68 33.8983
24.53898 -6.18 0.68 33.8983
21.64188 -6.72 0.68 29.0698
21.64188 -6.74 0.68 29.0698
11.18892 1.88 0.66 11.6482
22.97934 -6.7 0.66 31.2989
21.64188 -6.72 0.66 29.0698
21.64188 -6.74 0.66 29.0698
26.38116 5.32 0.64 36.9686
28.590239999999998 4.56 0.64 40.6504
11.18892 1.88 0.64 11.6482
44.74056 -1.62 0.64 67.5676
26.38116 -5.84 0.64 36.9686
11.18892 1.86 0.62 11.6482
28.590239999999998 -5.72 0.62 40.6504
28.590239999999998 -5.74 0.62 40.6504
24.53898 -6.64 0.62 33.8983
24.53898 -6.66 0.62 33.8983
26.38116 5.32 0.6 36.9686
11.18892 1.86 0.6 11.6482
28.590239999999998 -5.72 0.6 40.6504
28.590239999999998 -5.74 0.6 40.6504
24.53898 -6.42 0.6 33.8983
24.53898 -6.44 0.6 33.8983
24.53898 -6.46 0.6 33.8983
24.53898 -6.64 0.6 33.8983
24.53898 -6.66 0.6 33.8983
26.38116 5.32 0.58 36.9686
84.7368 0.46 0.58 134.228
24.53898 -6.3 0.58 33.8983
26.38116 5.32 0.56 36.9686
11.18892 1.88 0.56 11.6482
84.7368 0.46 0.56 134.228
24.53898 -6.3 0.56 33.8983
26.38116 5.32 0.54 36.9686
11.18892 1.88 0.54 11.6482
11.18892 1.86 0.54 11.6482
84.7368 0.46 0.54 134.228
24.53898 -6.16 0.54 33.8983
24.53898 -6.18 0.54 33.8983
24.53898 -6.2 0.54 33.8983
24.53898 -6.36 0.54 33.8983
24.53898 -6.38 0.54 33.8983
24.53898 -6.4 0.54 33.8983
11.18892 1.88 0.52 11.6482
84.7368 0.46 0.52 134.228
24.53898 -6.18 0.52 33.8983
24.53898 -6.38 0.52 33.8983
28.590239999999998 4.52 0.5 40.6504
11.18892 1.88 0.5 11.6482
84.7368 0.46 0.5 134.228
22.97934 -3.5 0.5 31.2989
17.77464 -4.8 0.5 22.6244
17.77464 -4.82 0.5 22.6244
22.97934 -6.66 0.5 31.2989
28.590239999999998 4.54 0.48 40.6504
26.38116 -5.94 0.48 36.9686
26.38116 -5.96 0.48 36.9686
24.53898 -6.38 0.48 33.8983
22.97934 -6.64 0.48 31.2989
22.97934 -6.66 0.48 31.2989
11.18892 1.94 0.46 11.6482
34.65684 -5.24 0.46 50.7614
26.38116 -5.94 0.46 36.9686
24.53898 -6.14 0.46 33.8983
24.53898 -6.38 0.46 33.8983
28.590239999999998 4.74 0.44 40.6504
11.18892 1.96 0.44 11.6482
84.7368 0.9 0.44 134.228
24.53898 -6.12 0.44 33.8983
24.53898 -6.14 0.44 33.8983
24.53898 -6.38 0.44 33.8983
11.18892 1.98 0.42 11.6482
11.18892 1.96 0.42 11.6482
34.65684 -5.24 0.42 50.7614
24.53898 -6.38 0.42 33.8983
24.53898 -6.4 0.42 33.8983
11.18892 1.98 0.4 11.6482
24.53898 -6.64 0.4 33.8983
24.53898 -6.66 0.4 33.8983
11.18892 1.98 0.38 11.6482
124.19999999999999 -0.84 0.38 200.0
31.28802 -3.9 0.38 45.1467
31.28802 -3.92 0.38 45.1467
24.53898 -6.14 0.38 33.8983
22.97934 -6.64 0.38 31.2989
22.97934 -6.66 0.38 31.2989
26.38116 4.84 0.36 36.9686
26.38116 4.76 0.36 36.9686
11.18892 1.98 0.36 11.6482
24.53898 5.46 0.34 33.8983
26.38116 4.84 0.34 36.9686
11.18892 1.98 0.34 11.6482
22.97934 -6.66 0.34 31.2989
24.53898 5.46 0.32 33.8983
10.995 1.98 0.32 11.325
52.78302 0.8 0.32 80.9717
52.78302 -1.6 0.32 80.9717
24.53898 -6.38 0.32 33.8983
24.53898 -6.4 0.32 33.8983
22.97934 -6.66 0.32 31.2989
24.53898 5.46 0.3 33.8983
10.995 2.0 0.3 11.325
10.995 1.98 0.3 11.325
84.7368 0.1 0.3 134.228
44.74056 -1.0 0.3 67.5676
52.78302 -1.6 0.3 80.9717
26.38116 -1.7 0.3 36.9686
124.19999999999999 -1.96 0.3 200.0
24.53898 -6.14 0.3 33.8983
22.97934 -6.66 0.3 31.2989
24.53898 5.46 0.28 33.8983
10.995 1.98 0.28 11.325
44.74056 -1.6 0.28 67.5676
26.38116 -1.68 0.28 36.9686
26.38116 -1.7 0.28 36.9686
52.78302 -2.64 0.28 80.9717
52.78302 -2.66 0.28 80.9717
24.53898 -6.14 0.28 33.8983
24.53898 -6.38 0.28 33.8983
24.53898 5.46 0.26 33.8983
84.7368 0.1 0.26 134.228
52.78302 -1.6 0.26 80.9717
44.74056 -2.74 0.26 67.5676
44.74056 -2.76 0.26 67.5676
38.9826 -2.78 0.26 57.971
24.53898 -6.38 0.26 33.8983
24.53898 5.72 0.24 33.8983
22.97934 5.54 0.24 31.2989
26.38116 4.44 0.24 36.9686
10.995 2.0 0.24 11.325
10.995 1.98 0.24 11.325
44.74056 -1.6 0.24 67.5676
52.78302 -2.7 0.24 80.9717
52.78302 -2.72 0.24 80.9717
44.74056 -2.74 0.24 67.5676
44.74056 -2.76 0.24 67.5676
44.74056 -2.78 0.24 67.5676
38.9826 -2.8 0.24 57.971
34.65684 -2.82 0.24 50.7614
31.28802 -2.84 0.24 45.1467
24.53898 5.74 0.22 33.8983
22.97934 5.54 0.22 31.2989
24.53898 5.14 0.22 33.8983
26.38116 4.44 0.22 36.9686
84.7368 -0.3 0.22 134.228
44.74056 -2.74 0.22 67.5676
44.74056 -2.76 0.22 67.5676
44.74056 -2.78 0.22 67.5676
31.28802 -4.22 0.22 45.1467
38.9826 -4.28 0.22 57.971
22.97934 5.52 0.2 31.2989
24.53898 5.14 0.2 33.8983
26.38116 4.44 0.2 36.9686
20.4822 -0.84 0.2 27.137
44.74056 -2.76 0.2 67.5676
26.38116 4.44 0.18 36.9686
24.53898 5.54 0.16 33.8983
26.38116 4.9 0.16 36.9686
11.18892 1.82 0.16 11.6482
84.7368 -0.3 0.16 134.228
52.78302 -2.96 0.16 80.9717
52.78302 -2.98 0.16 80.9717
17.77464 -4.72 0.16 22.6244
17.77464 -4.74 0.16 22.6244
17.77464 -4.88 0.16 22.6244
24.53898 5.52 0.14 33.8983
26.38116 4.9 0.14 36.9686
84.7368 -2.3 0.14 134.228
84.7368 -2.32 0.14 134.228
64.806 -2.92 0.14 101.01
52.78302 -2.94 0.14 80.9717
52.78302 -2.96 0.14 80.9717
52.78302 -2.98 0.14 80.9717
44.74056 -3.0 0.14 67.5676
38.9826 -3.02 0.14 57.971
20.4822 -3.04 0.14 27.137
19.467180000000003 -3.06 0.14 25.4453
17.77464 -4.72 0.14 22.6244
17.77464 -4.74 0.14 22.6244
24.53898 5.52 0.12 33.8983
64.806 -2.76 0.12 101.01
64.806 -2.78 0.12 101.01
64.806 -2.8 0.12 101.01
52.78302 -2.82 0.12 80.9717
52.78302 -2.94 0.12 80.9717
52.78302 -2.96 0.12 80.9717
52.78302 -2.98 0.12 80.9717
10.995 1.98 0.1 11.325
64.806 -2.76 0.1 101.01
64.806 -2.78 0.1 101.01
64.806 -2.8 0.1 101.01
52.78302 -2.82 0.1 80.9717
24.53898 5.54 0.08 33.8983
22.97934 5.52 0.06 31.2989
22.97934 5.52 0.04 31.2989
84.7368 0.16 0.02 134.228
19.467180000000003 -3.74 0.02 25.4453
24.53898 5.24 0.0 33.8983
84.7368 -0.2 0.0 134.228
19.467180000000003 -3.72 0.0 25.4453
19.467180000000003 -3.74 0.0 25.4453
19.467180000000003 -3.76 0.0 25.4453
84.7368 0.72 -0.02 134.228
84.7368 -0.2 -0.02 134.228
19.467180000000003 -3.76 -0.02 25.4453
26.38116 4.9 -0.04 36.9686
84.7368 0.72 -0.04 134.228
20.4822 -3.18 -0.04 27.137
24.53898 5.22 -0.06 33.8983
26.38116 4.9 -0.06 36.9686
84.7368 0.72 -0.06 134.228
84.7368 -1.52 -0.06 134.228
20.4822 -3.16 -0.06 27.137
20.4822 -3.18 -0.06 27.137
21.64188 -3.46 -0.06 29.0698
21.64188 -3.48 -0.06 29.0698
24.53898 5.22 -0.08 33.8983
84.7368 0.72 -0.08 134.228
84.7368 -0.2 -0.08 134.228
84.7368 -1.52 -0.08 134.228
19.467180000000003 -3.16 -0.08 25.4453
84.7368 -1.54 -0.1 134.228
19.467180000000003 -3.16 -0.12 25.4453
22.97934 5.68 -0.14 31.2989
24.53898 5.58 -0.14 33.8983
52.78302 -1.58 -0.14 80.9717
19.467180000000003 -3.16 -0.14 25.4453
22.97934 5.68 -0.16 31.2989
24.53898 5.58 -0.16 33.8983
26.38116 5.06 -0.16 36.9686
11.394240000000002 1.86 -0.16 11.9904
64.806 0.9 -0.16 101.01
19.467180000000003 -3.16 -0.16 25.4453
21.64188 -3.3 -0.16 29.0698
21.64188 -3.32 -0.16 29.0698
17.77464 -4.88 -0.16 22.6244
22.97934 5.68 -0.18 31.2989
24.53898 5.58 -0.18 33.8983
24.53898 5.42 -0.18 33.8983
11.394240000000002 1.86 -0.18 11.9904
52.78302 -1.56 -0.18 80.9717
19.467180000000003 -3.16 -0.18 25.4453
21.64188 -3.3 -0.18 29.0698
21.64188 -3.32 -0.18 29.0698
22.97934 5.68 -0.2 31.2989
24.53898 5.2 -0.2 33.8983
52.78302 -1.56 -0.2 80.9717
52.78302 -1.58 -0.2 80.9717
19.467180000000003 -3.14 -0.2 25.4453
19.467180000000003 -3.16 -0.2 25.4453
21.64188 -3.3 -0.2 29.0698
21.64188 -3.32 -0.2 29.0698
24.53898 5.2 -0.22 33.8983
52.78302 -1.56 -0.22 80.9717
28.590239999999998 -2.42 -0.22 40.6504
28.590239999999998 -2.44 -0.22 40.6504
22.97934 -2.7 -0.22 31.2989
19.467180000000003 -3.14 -0.22 25.4453
19.467180000000003 -3.16 -0.22 25.4453
21.64188 -3.3 -0.22 29.0698
20.4822 -3.8 -0.22 27.137
22.97934 5.72 -0.24 31.2989
24.53898 5.2 -0.24 33.8983
22.97934 5.72 -0.26 31.2989
24.53898 5.38 -0.26 33.8983
24.53898 5.06 -0.26 33.8983
84.7368 -1.72 -0.26 134.228
84.7368 -1.74 -0.26 134.228
84.7368 -1.82 -0.26 134.228
84.7368 -1.86 -0.26 134.228
22.97934 5.72 -0.28 31.2989
24.53898 5.38 -0.28 33.8983
24.53898 5.06 -0.28 33.8983
11.18892 1.86 -0.28 11.6482
84.7368 -1.72 -0.28 134.228
84.7368 -1.82 -0.28 134.228
84.7368 -1.86 -0.28 134.228
64.806 -1.9 -0.28 101.01
26.38116 -2.5 -0.28 36.9686
26.38116 -2.52 -0.28 36.9686
22.97934 5.72 -0.3 31.2989
24.53898 5.36 -0.3 33.8983
24.53898 5.06 -0.3 33.8983
11.18892 1.86 -0.3 11.6482
84.7368 1.06 -0.3 134.228
84.7368 -1.86 -0.3 134.228
26.38116 -2.5 -0.3 36.9686
26.38116 -2.52 -0.3 36.9686
15.3111 -4.24 -0.3 18.5185
15.3111 -4.26 -0.3 18.5185
14.386740000000001 -4.54 -0.3 16.9779
14.386740000000001 -4.56 -0.3 16.9779
14.82888 -5.16 -0.3 17.7148
14.82888 -5.18 -0.3 17.7148
14.82888 -5.2 -0.3 17.7148
14.386740000000001 -5.22 -0.3 16.9779
22.97934 5.72 -0.32 31.2989
11.18892 1.86 -0.32 11.6482
14.386740000000001 -4.54 -0.32 16.9779
14.386740000000001 -4.56 -0.32 16.9779
14.386740000000001 -4.58 -0.32 16.9779
17.06172 -4.74 -0.32 21.4362
14.82888 -5.18 -0.32 17.7148
14.82888 -5.2 -0.32 17.7148
14.386740000000001 -5.22 -0.32 16.9779
14.386740000000001 -5.24 -0.32 16.9779
13.979940000000001 -5.26 -0.32 16.2999
26.38116 4.64 -0.34 36.9686
11.18892 1.86 -0.34 11.6482
14.386740000000001 -4.82 -0.34 16.9779
13.979940000000001 -5.26 -0.34 16.2999
11.61198 -6.14 -0.34 12.3533
11.394240000000002 -6.16 -0.34 11.9904
11.394240000000002 -6.18 -0.34 11.9904
11.394240000000002 -6.2 -0.34 11.9904
11.18892 -6.22 -0.34 11.6482
24.53898 5.72 -0.36 33.8983
11.18892 1.86 -0.36 11.6482
20.4822 -3.06 -0.36 27.137
20.4822 -3.08 -0.36 27.137
11.61198 -6.08 -0.36 12.3533
11.61198 -6.1 -0.36 12.3533
11.61198 -6.12 -0.36 12.3533
11.18892 1.86 -0.38 11.6482
14.386740000000001 -4.58 -0.38 16.9779
14.386740000000001 -4.6 -0.38 16.9779
14.386740000000001 -4.62 -0.38 16.9779
15.3111 -5.1 -0.38 18.5185
15.3111 -5.12 -0.38 18.5185
15.3111 -5.14 -0.38 18.5185
15.3111 -5.16 -0.38 18.5185
11.843340000000001 -6.04 -0.38 12.7389
11.843340000000001 -6.06 -0.38 12.7389
22.97934 5.66 -0.4 31.2989
11.18892 1.86 -0.4 11.6482
26.38116 -2.44 -0.4 36.9686
26.38116 -2.46 -0.4 36.9686
14.386740000000001 -4.6 -0.4 16.9779
14.386740000000001 -4.62 -0.4 16.9779
15.3111 -5.12 -0.4 18.5185
15.3111 -5.14 -0.4 18.5185
14.82888 -5.18 -0.4 17.7148
11.394240000000002 -6.3 -0.4 11.9904
22.97934 5.66 -0.42 31.2989
11.18892 1.86 -0.42 11.6482
26.38116 -2.44 -0.42 36.9686
26.38116 -2.46 -0.42 36.9686
14.386740000000001 -4.6 -0.42 16.9779
14.386740000000001 -4.62 -0.42 16.9779
22.97934 5.66 -0.44 31.2989
24.53898 5.14 -0.44 33.8983
26.38116 4.52 -0.44 36.9686
14.386740000000001 -4.6 -0.44 16.9779
14.386740000000001 -4.62 -0.44 16.9779
14.386740000000001 -4.64 -0.44 16.9779
11.843340000000001 -5.96 -0.44 12.7389
11.394240000000002 -6.26 -0.44 11.9904
11.394240000000002 -6.28 -0.44 11.9904
22.97934 5.66 -0.46 31.2989
24.53898 5.14 -0.46 33.8983
19.467180000000003 -3.08 -0.46 25.4453
14.386740000000001 -4.62 -0.46 16.9779
11.843340000000001 -5.94 -0.46 12.7389
22.97934 5.72 -0.48 31.2989
24.53898 5.14 -0.48 33.8983
21.64188 -2.76 -0.48 29.0698
19.467180000000003 -3.08 -0.48 25.4453
14.386740000000001 -4.6 -0.48 16.9779
14.386740000000001 -4.62 -0.48 16.9779
14.386740000000001 -4.64 -0.48 16.9779
15.3111 -5.16 -0.48 18.5185
15.3111 -5.18 -0.48 18.5185
11.394240000000002 -6.26 -0.48 11.9904
10.995 -6.7 -0.48 11.325
10.995 -6.72 -0.48 11.325
10.811580000000001 -6.74 -0.48 11.0193
22.97934 5.72 -0.5 31.2989
28.590239999999998 -2.2 -0.5 40.6504
28.590239999999998 -2.22 -0.5 40.6504
22.97934 -2.28 -0.5 31.2989
20.4822 -2.96 -0.5 27.137
17.06172 -3.68 -0.5 21.4362
14.386740000000001 -4.6 -0.5 16.9779
14.386740000000001 -4.62 -0.5 16.9779
14.386740000000001 -4.64 -0.5 16.9779
15.3111 -5.16 -0.5 18.5185
10.995 -6.68 -0.5 11.325
10.995 -6.7 -0.5 11.325
10.995 -6.72 -0.5 11.325
10.811580000000001 -6.74 -0.5 11.0193
28.590239999999998 -2.22 -0.52 40.6504
28.590239999999998 -2.34 -0.52 40.6504
20.4822 -2.96 -0.52 27.137
17.77464 -3.02 -0.52 22.6244
17.06172 -3.68 -0.52 21.4362
17.06172 -3.7 -0.52 21.4362
14.386740000000001 -4.48 -0.52 16.9779
14.386740000000001 -4.62 -0.52 16.9779
14.386740000000001 -4.64 -0.52 16.9779
13.979940000000001 -4.66 -0.52 16.2999
14.386740000000001 -5.02 -0.52 16.9779
14.386740000000001 -5.04 -0.52 16.9779
14.386740000000001 -5.42 -0.52 16.9779
14.386740000000001 -5.44 -0.52 16.9779
11.394240000000002 -6.24 -0.52 11.9904
10.995 -6.68 -0.52 11.325
10.995 -6.7 -0.52 11.325
10.995 -6.72 -0.52 11.325
28.590239999999998 -2.34 -0.54 40.6504
20.4822 -2.96 -0.54 27.137
17.77464 -3.02 -0.54 22.6244
20.4822 -3.08 -0.54 27.137
17.06172 -3.68 -0.54 21.4362
17.06172 -3.7 -0.54 21.4362
13.6044 -3.86 -0.54 15.674
14.386740000000001 -5.44 -0.54 16.9779
13.979940000000001 -5.46 -0.54 16.2999
20.4822 -2.96 -0.56 27.137
17.06172 -3.68 -0.56 21.4362
17.06172 -3.7 -0.56 21.4362
14.386740000000001 -5.42 -0.56 16.9779
14.386740000000001 -5.44 -0.56 16.9779
13.979940000000001 -5.46 -0.56 16.2999
13.979940000000001 -5.48 -0.56 16.2999
13.6044 -5.5 -0.56 15.674
13.25658 -5.52 -0.56 15.0943
12.933599999999998 -5.54 -0.56 14.556
12.08952 -6.48 -0.56 13.1492
22.97934 5.72 -0.58 31.2989
26.38116 -2.48 -0.58 36.9686
24.53898 -2.62 -0.58 33.8983
20.4822 -2.96 -0.58 27.137
17.06172 -3.7 -0.58 21.4362
13.25658 -5.96 -0.58 15.0943
11.394240000000002 -6.3 -0.58 11.9904
12.08952 -6.44 -0.58 13.1492
12.08952 -6.46 -0.58 13.1492
12.08952 -6.48 -0.58 13.1492
10.995 -6.58 -0.58 11.325
24.53898 5.66 -0.6 33.8983
24.53898 -2.62 -0.6 33.8983
24.53898 -2.64 -0.6 33.8983
20.4822 -2.96 -0.6 27.137
20.4822 -2.98 -0.6 27.137
17.06172 -3.7 -0.6 21.4362
17.06172 -3.72 -0.6 21.4362
14.82888 -3.82 -0.6 17.7148
14.386740000000001 -3.84 -0.6 16.9779
13.979940000000001 -5.34 -0.6 16.2999
13.979940000000001 -5.36 -0.6 16.2999
13.25658 -5.94 -0.6 15.0943
13.25658 -5.96 -0.6 15.0943
11.394240000000002 -6.3 -0.6 11.9904
12.933599999999998 -6.36 -0.6 14.556
12.933599999999998 -6.38 -0.6 14.556
12.933599999999998 -6.4 -0.6 14.556
10.995 -6.54 -0.6 11.325
10.995 -6.56 -0.6 11.325
24.53898 -2.62 -0.62 33.8983
19.467180000000003 -3.16 -0.62 25.4453
19.467180000000003 -3.18 -0.62 25.4453
17.06172 -3.7 -0.62 21.4362
17.06172 -3.72 -0.62 21.4362
16.419959999999996 -3.78 -0.62 20.3666
15.83916 -3.8 -0.62 19.3986
14.386740000000001 -4.48 -0.62 16.9779
14.386740000000001 -4.5 -0.62 16.9779
13.979940000000001 -5.32 -0.62 16.2999
13.979940000000001 -5.34 -0.62 16.2999
13.979940000000001 -5.36 -0.62 16.2999
11.843340000000001 -5.76 -0.62 12.7389
11.843340000000001 -5.78 -0.62 12.7389
11.843340000000001 -5.8 -0.62 12.7389
13.25658 -5.9 -0.62 15.0943
13.25658 -5.92 -0.62 15.0943
22.97934 5.66 -0.64 31.2989
16.419959999999996 -3.78 -0.64 20.3666
14.386740000000001 -4.48 -0.64 16.9779
13.979940000000001 -5.34 -0.64 16.2999
22.97934 5.72 -0.66 31.2989
22.97934 5.66 -0.66 31.2989
17.77464 -3.46 -0.66 22.6244
17.77464 -3.48 -0.66 22.6244
15.83916 -3.54 -0.66 19.3986
16.419959999999996 -3.76 -0.66 20.3666
16.419959999999996 -3.78 -0.66 20.3666
14.386740000000001 -3.86 -0.66 16.9779
14.386740000000001 -3.88 -0.66 16.9779
14.386740000000001 -4.48 -0.66 16.9779
14.386740000000001 -4.5 -0.66 16.9779
22.97934 5.72 -0.68 31.2989
24.53898 -1.56 -0.68 33.8983
22.97934 -2.74 -0.68 31.2989
22.97934 -2.76 -0.68 31.2989
22.97934 -2.78 -0.68 31.2989
18.57126 -2.84 -0.68 23.9521
18.57126 -2.86 -0.68 23.9521
20.4822 -3.02 -0.68 27.137
17.77464 -3.48 -0.68 22.6244
13.979940000000001 -4.84 -0.68 16.2999
13.979940000000001 -4.86 -0.68 16.2999
13.979940000000001 -4.88 -0.68 16.2999
14.386740000000001 -5.44 -0.68 16.9779
12.08952 -5.74 -0.68 13.1492
12.08952 -5.76 -0.68 13.1492
12.08952 -5.78 -0.68 13.1492
12.08952 -5.8 -0.68 13.1492
11.843340000000001 -5.88 -0.68 12.7389
22.97934 -2.76 -0.7 31.2989
22.97934 -2.78 -0.7 31.2989
20.4822 -3.02 -0.7 27.137
20.4822 -3.04 -0.7 27.137
13.979940000000001 -4.84 -0.7 16.2999
13.979940000000001 -4.86 -0.7 16.2999
13.979940000000001 -4.88 -0.7 16.2999
14.386740000000001 -5.28 -0.7 16.9779
14.386740000000001 -5.3 -0.7 16.9779
14.386740000000001 -5.44 -0.7 16.9779
12.3522 -5.7 -0.7 13.587
12.08952 -5.74 -0.7 13.1492
12.08952 -5.76 -0.7 13.1492
11.843340000000001 -5.84 -0.7 12.7389
11.843340000000001 -5.86 -0.7 12.7389
11.843340000000001 -5.88 -0.7 12.7389
11.843340000000001 -5.9 -0.7 12.7389
22.97934 5.72 -0.72 31.2989
22.97934 5.66 -0.72 31.2989
15.83916 -3.8 -0.72 19.3986
15.83916 -3.82 -0.72 19.3986
13.979940000000001 -4.88 -0.72 16.2999
14.386740000000001 -5.28 -0.72 16.9779
14.386740000000001 -5.3 -0.72 16.9779
22.97934 5.66 -0.74 31.2989
15.83916 -3.82 -0.74 19.3986
15.83916 -3.84 -0.74 19.3986
13.979940000000001 -4.88 -0.74 16.2999
14.386740000000001 -5.24 -0.74 16.9779
14.386740000000001 -5.28 -0.74 16.9779
14.386740000000001 -5.3 -0.74 16.9779
11.843340000000001 -5.96 -0.74 12.7389
11.843340000000001 -5.98 -0.74 12.7389
22.97934 5.72 -0.76 31.2989
22.97934 5.66 -0.76 31.2989
17.06172 -3.54 -0.76 21.4362
17.06172 -3.56 -0.76 21.4362
11.843340000000001 -5.82 -0.76 12.7389
11.843340000000001 -5.98 -0.76 12.7389
11.843340000000001 -6.0 -0.76 12.7389
20.4822 -3.0 -0.78 27.137
17.06172 -3.54 -0.78 21.4362
17.06172 -3.56 -0.78 21.4362
15.83916 -3.84 -0.78 19.3986
17.06172 -3.56 -0.8 21.4362
15.83916 -3.82 -0.8 19.3986
15.83916 -3.84 -0.8 19.3986
15.83916 -3.86 -0.8 19.3986
14.82888 -4.26 -0.8 17.7148
14.82888 -4.28 -0.8 17.7148
14.82888 -4.3 -0.8 17.7148
14.386740000000001 -4.34 -0.8 16.9779
14.386740000000001 -4.36 -0.8 16.9779
14.386740000000001 -4.38 -0.8 16.9779
13.979940000000001 -4.74 -0.8 16.2999
19.467180000000003 -3.2 -0.82 25.4453
19.467180000000003 -3.22 -0.82 25.4453
17.06172 -3.54 -0.82 21.4362
17.06172 -3.56 -0.82 21.4362
14.82888 -4.26 -0.82 17.7148
14.82888 -4.28 -0.82 17.7148
14.82888 -4.3 -0.82 17.7148
14.386740000000001 -4.36 -0.82 16.9779
14.386740000000001 -4.38 -0.82 16.9779
13.979940000000001 -4.4 -0.82 16.2999
19.467180000000003 -1.62 -0.84 25.4453
19.467180000000003 -3.18 -0.84 25.4453
19.467180000000003 -3.2 -0.84 25.4453
19.467180000000003 -3.22 -0.84 25.4453
18.57126 -3.28 -0.84 23.9521
18.57126 -3.3 -0.84 23.9521
17.06172 -3.54 -0.84 21.4362
17.06172 -3.56 -0.84 21.4362
14.82888 -4.26 -0.84 17.7148
14.82888 -4.28 -0.84 17.7148
12.3522 -5.56 -0.84 13.587
19.467180000000003 -3.18 -0.86 25.4453
19.467180000000003 -3.2 -0.86 25.4453
19.467180000000003 -3.22 -0.86 25.4453
17.77464 -3.54 -0.86 22.6244
17.77464 -3.56 -0.86 22.6244
15.83916 -3.86 -0.86 19.3986
14.82888 -4.26 -0.86 17.7148
14.82888 -4.28 -0.86 17.7148
12.3522 -5.54 -0.86 13.587
12.3522 -5.56 -0.86 13.587
12.3522 -5.58 -0.86 13.587
17.06172 -3.54 -0.88 21.4362
17.06172 -3.56 -0.88 21.4362
15.83916 -3.84 -0.88 19.3986
15.83916 -3.86 -0.88 19.3986
14.82888 -4.26 -0.88 17.7148
12.3522 -5.52 -0.88 13.587
12.08952 -5.64 -0.88 13.1492
12.08952 -5.66 -0.88 13.1492
17.06172 -3.54 -0.9 21.4362
15.83916 -3.86 -0.9 19.3986
15.83916 -3.88 -0.9 19.3986
14.82888 -4.26 -0.9 17.7148
12.08952 -5.62 -0.9 13.1492
12.08952 -5.64 -0.9 13.1492
12.08952 -5.66 -0.9 13.1492
17.06172 -3.54 -0.92 21.4362
17.06172 -3.56 -0.92 21.4362
15.83916 -3.86 -0.92 19.3986
15.83916 -3.88 -0.92 19.3986
14.82888 -4.24 -0.92 17.7148
14.82888 -4.26 -0.92 17.7148
17.06172 -3.54 -0.94 21.4362
14.82888 -4.24 -0.94 17.7148
14.82888 -4.26 -0.94 17.7148
14.82888 -4.28 -0.94 17.7148
13.25658 -4.36 -0.94 15.0943
12.63288 -5.54 -0.94 14.0548
12.63288 -5.56 -0.94 14.0548
14.386740000000001 -4.24 -0.96 16.9779
14.386740000000001 -4.26 -0.96 16.9779
14.386740000000001 -4.28 -0.96 16.9779
14.386740000000001 -4.42 -0.96 16.9779
14.386740000000001 -4.44 -0.96 16.9779
14.386740000000001 -4.26 -0.98 16.9779
12.3522 -5.44 -0.98 13.587
12.3522 -5.46 -0.98 13.587
16.419959999999996 -3.72 -1.0 20.3666
16.419959999999996 -3.74 -1.0 20.3666
14.386740000000001 -4.28 -1.0 16.9779
14.386740000000001 -4.44 -1.0 16.9779
12.3522 -5.42 -1.0 13.587
12.3522 -5.44 -1.0 13.587
12.3522 -5.46 -1.0 13.587
16.419959999999996 -3.72 -1.02 20.3666
16.419959999999996 -3.74 -1.02 20.3666
16.419959999999996 -3.76 -1.02 20.3666
15.83916 -4.0 -1.02 19.3986
14.386740000000001 -4.44 -1.02 16.9779
14.386740000000001 -4.46 -1.02 16.9779
12.3522 -5.4 -1.02 13.587
12.3522 -5.42 -1.02 13.587
12.3522 -5.44 -1.02 13.587
12.08952 -5.54 -1.02 13.1492
16.419959999999996 -3.74 -1.04 20.3666
16.419959999999996 -3.76 -1.04 20.3666
15.83916 -3.78 -1.04 19.3986
14.386740000000001 -4.6 -1.04 16.9779
14.386740000000001 -4.62 -1.04 16.9779
14.386740000000001 -4.64 -1.04 16.9779
13.979940000000001 -4.66 -1.04 16.2999
12.3522 -5.4 -1.04 13.587
12.3522 -5.42 -1.04 13.587
11.18892 -6.56 -1.04 11.6482
11.18892 -6.58 -1.04 11.6482
16.419959999999996 -1.84 -1.06 20.3666
14.386740000000001 -4.36 -1.06 16.9779
14.386740000000001 -4.38 -1.06 16.9779
14.386740000000001 -4.58 -1.06 16.9779
14.386740000000001 -4.6 -1.06 16.9779
14.386740000000001 -4.62 -1.06 16.9779
14.386740000000001 -4.64 -1.06 16.9779
11.18892 -6.56 -1.06 11.6482
11.18892 -6.58 -1.06 11.6482
10.637759999999998 -6.64 -1.06 10.7296
16.419959999999996 -1.84 -1.08 20.3666
14.386740000000001 -4.36 -1.08 16.9779
14.386740000000001 -4.38 -1.08 16.9779
14.386740000000001 -4.6 -1.08 16.9779
14.82888 -4.28 -1.1 17.7148
14.386740000000001 -4.36 -1.1 16.9779
14.386740000000001 -5.1 -1.1 16.9779
14.386740000000001 -5.12 -1.1 16.9779
12.63288 -5.36 -1.1 14.0548
14.386740000000001 -4.4 -1.14 16.9779
14.386740000000001 -4.36 -1.16 16.9779
14.386740000000001 -4.38 -1.16 16.9779
14.386740000000001 -4.4 -1.16 16.9779
13.979940000000001 -5.26 -1.16 16.2999
13.979940000000001 -5.28 -1.16 16.2999
12.933599999999998 -5.34 -1.16 14.556
12.933599999999998 -5.36 -1.16 14.556
10.995 -6.54 -1.16 11.325
10.811580000000001 -6.56 -1.16 11.0193
10.811580000000001 -6.58 -1.16 11.0193
14.386740000000001 -4.36 -1.18 16.9779
14.386740000000001 -4.38 -1.18 16.9779
14.386740000000001 -4.4 -1.18 16.9779
10.995 -6.5 -1.18 11.325
10.995 -6.52 -1.18 11.325
10.995 -6.54 -1.18 11.325
10.811580000000001 -6.56 -1.18 11.0193
10.811580000000001 -6.72 -1.18 11.0193
10.995 -6.52 -1.2 11.325
10.995 -6.48 -1.22 11.325
10.995 -6.5 -1.22 11.325
10.995 -6.52 -1.22 11.325
12.08952 -5.58 -1.24 13.1492
10.995 -6.5 -1.24 11.325
10.995 -6.48 -1.26 11.325
12.63288 -5.36 -1.28 14.0548
12.63288 -5.38 -1.28 14.0548
10.995 -6.48 -1.28 11.325
12.63288 -5.34 -1.3 14.0548
12.63288 -5.36 -1.3 14.0548
12.63288 -5.38 -1.3 14.0548
10.995 -6.48 -1.3 11.325
13.25658 2.72 -1.32 15.0943
12.63288 -5.36 -1.32 14.0548
12.63288 -5.38 -1.32 14.0548
10.995 -6.46 -1.32 11.325
10.995 -6.48 -1.32 11.325
12.3522 -5.36 -1.34 13.587
12.3522 -5.38 -1.34 13.587
10.995 -6.48 -1.34 11.325
12.3522 -5.36 -1.36 13.587
12.3522 -5.38 -1.36 13.587
12.3522 -5.4 -1.36 13.587
10.995 -6.46 -1.36 11.325
10.995 -6.48 -1.36 11.325
12.3522 -5.38 -1.38 13.587
10.995 -6.48 -1.38 11.325
12.3522 -5.38 -1.4 13.587
12.3522 -5.4 -1.4 13.587
12.3522 -5.74 -1.4 13.587
12.08952 -5.76 -1.4 13.1492
12.08952 -5.78 -1.4 13.1492
12.08952 -5.8 -1.4 13.1492
10.995 -6.48 -1.4 11.325
12.3522 -5.4 -1.42 13.587
12.3522 -5.42 -1.42 13.587
12.3522 -5.74 -1.42 13.587
12.08952 -5.76 -1.42 13.1492
12.08952 -5.78 -1.42 13.1492
10.811580000000001 -6.7 -1.42 11.0193
10.811580000000001 -6.72 -1.42 11.0193
12.3522 3.32 -1.44 13.587
12.3522 -5.4 -1.44 13.587
12.3522 -5.42 -1.44 13.587
10.811580000000001 -5.94 -1.44 11.0193
10.811580000000001 -5.96 -1.44 11.0193
10.811580000000001 -6.7 -1.44 11.0193
10.811580000000001 -6.72 -1.44 11.0193
12.3522 -5.42 -1.46 13.587
12.3522 -5.44 -1.46 13.587
12.08952 -5.46 -1.46 13.1492
10.811580000000001 -6.72 -1.46 11.0193
12.63288 -2.38 -1.48 14.0548
12.63288 -2.4 -1.48 14.0548
12.63288 -2.36 -1.5 14.0548
12.63288 -2.38 -1.5 14.0548
12.63288 -2.4 -1.5 14.0548
12.08952 -5.64 -1.5 13.1492
10.995 -6.66 -1.5 11.325
10.811580000000001 -6.68 -1.5 11.0193
11.843340000000001 3.18 -1.52 12.7389
10.995 -6.5 -1.52 11.325
10.995 -6.5 -1.54 11.325
10.995 -6.52 -1.54 11.325
13.25658 5.32 -1.56 15.0943
11.61198 3.84 -1.56 12.3533
12.08952 -5.7 -1.56 13.1492
12.08952 -5.72 -1.56 13.1492
10.995 -6.5 -1.56 11.325
11.61198 3.4 -1.58 12.3533
10.995 -6.52 -1.58 11.325
11.18892 2.66 -1.6 11.6482
10.995 -6.52 -1.6 11.325
10.472879999999998 -6.6 -1.6 10.4548
11.394240000000002 -6.06 -1.62 11.9904
11.394240000000002 -6.08 -1.62 11.9904
10.995 -6.52 -1.62 11.325
11.394240000000002 1.5 -1.64 11.9904
11.394240000000002 -6.06 -1.64 11.9904
10.811580000000001 4.22 -1.68 11.0193
10.811580000000001 4.2 -1.7 11.0193
10.811580000000001 2.78 -1.7 11.0193
10.811580000000001 4.18 -1.72 11.0193
10.995 4.04 -1.72 11.325
10.811580000000001 -6.74 -1.72 11.0193
10.811580000000001 4.4 -1.74 11.0193
10.637759999999998 2.36 -1.74 10.7296
10.995 -6.58 -1.74 11.325
10.995 -6.6 -1.74 11.325
10.637759999999998 4.6 -1.76 10.7296
10.811580000000001 4.38 -1.76 11.0193
10.472879999999998 2.42 -1.76 10.4548
10.811580000000001 4.38 -1.78 11.0193
10.316220000000001 3.5 -1.78 10.1937
10.316220000000001 3.48 -1.78 10.1937
10.472879999999998 2.42 -1.78 10.4548
10.637759999999998 2.4 -1.78 10.7296
10.472879999999998 1.96 -1.78 10.4548
10.472879999999998 1.84 -1.78 10.4548
10.472879999999998 4.14 -1.8 10.4548
10.472879999999998 2.86 -1.8 10.4548
10.811580000000001 -5.06 -1.8 11.0193
10.811580000000001 -5.08 -1.8 11.0193
10.637759999999998 4.94 -1.82 10.7296
10.316220000000001 5.06 -1.86 10.1937
10.16718 3.0 -1.86 9.9453
9.889902000000001 3.98 -1.9 9.48317
9.889902000000001 3.34 -1.9 9.48317
9.889902000000001 5.54 -1.98 9.48317
9.760704 4.98 -1.98 9.26784
9.889902000000001 2.0 -1.98 9.48317
9.889902000000001 1.98 -1.98 9.48317
9.889902000000001 5.54 -2.0 9.48317
9.889902000000001 5.52 -2.0 9.48317
9.637241999999999 4.8 -2.0 9.06207
9.760704 5.82 -2.04 9.26784
9.889902000000001 5.48 -2.04 9.48317
9.406074 3.96 -2.04 8.67679
9.406074 3.94 -2.04 8.67679
9.51915 4.84 -2.06 8.86525
9.406074 3.96 -2.06 8.67679
9.406074 3.08 -2.06 8.67679
9.297708 3.06 -2.06 8.49618
9.297708 2.94 -2.06 8.49618
9.406074 2.82 -2.06 8.67679
9.297708 4.06 -2.08 8.49618
9.297708 4.04 -2.08 8.49618
9.297708 4.02 -2.08 8.49618
9.297708 3.06 -2.08 8.49618
9.297708 3.04 -2.08 8.49618
9.297708 3.02 -2.08 8.49618
9.406074 5.3 -2.1 8.67679
9.297708 4.04 -2.1 8.49618
9.297708 3.0 -2.1 8.49618
9.193757999999999 3.96 -2.12 8.32293
9.093966 3.84 -2.12 8.15661
9.297708 4.98 -2.14 8.49618
9.193757999999999 4.9 -2.14 8.32293
9.193757999999999 4.52 -2.14 8.32293
9.093966 3.88 -2.14 8.15661
9.297708 4.98 -2.16 8.49618
9.093966 3.88 -2.16 8.15661
9.193757999999999 3.08 -2.16 8.32293
9.093966 2.72 -2.16 8.15661
9.093966 2.7 -2.16 8.15661
9.093966 3.24 -2.18 8.15661
9.093966 3.22 -2.18 8.15661
9.093966 2.7 -2.18 8.15661
9.093966 2.68 -2.18 8.15661
9.093966 5.18 -2.2 8.15661
8.905884 4.4 -2.2 7.84314
8.99808 4.5 -2.22 7.9968
8.99808 4.48 -2.22 7.9968
8.905884 4.38 -2.22 7.84314
8.905884 3.14 -2.22 7.84314
8.905884 3.12 -2.22 7.84314
9.193757999999999 1.86 -2.22 8.32293
8.99808 4.56 -2.24 7.9968
8.905884 4.36 -2.24 7.84314
8.905884 4.28 -2.24 7.84314
8.905884 3.8 -2.24 7.84314
8.905884 3.46 -2.24 7.84314
8.905884 3.44 -2.24 7.84314
8.99808 4.54 -2.26 7.9968
8.905884 4.36 -2.26 7.84314
8.817162000000001 3.86 -2.26 7.69527
8.817162000000001 3.46 -2.26 7.69527
8.905884 2.78 -2.26 7.84314
8.817162000000001 4.72 -2.28 7.69527
8.817162000000001 3.86 -2.28 7.69527
8.905884 3.84 -2.28 7.84314
8.817162000000001 3.46 -2.28 7.69527
8.905884 5.26 -2.3 7.84314
8.817162000000001 5.24 -2.3 7.69527
8.817162000000001 3.46 -2.3 7.69527
8.817162000000001 3.44 -2.3 7.69527
9.093966 5.3 -2.32 8.15661
8.817162000000001 5.24 -2.32 7.69527
8.64939 2.88 -2.34 7.41565
8.569992 3.6 -2.36 7.28332
8.64939 5.14 -2.38 7.41565
8.569992 4.76 -2.38 7.28332
8.569992 4.74 -2.38 7.28332
8.493384 4.36 -2.38 7.15564
8.569992 3.72 -2.38 7.28332
8.569992 3.6 -2.38 7.28332
8.569992 3.58 -2.38 7.28332
8.569992 3.52 -2.38 7.28332
8.569992 3.34 -2.38 7.28332
9.193757999999999 -3.56 -2.38 8.32293
9.193757999999999 -3.58 -2.38 8.32293
9.193757999999999 -3.6 -2.38 8.32293
8.99808 -3.62 -2.38 7.9968
8.99808 -3.64 -2.38 7.9968
8.817162000000001 -3.7 -2.38 7.69527
8.731722000000001 -3.72 -2.38 7.55287
8.731722000000001 -3.74 -2.38 7.55287
8.731722000000001 -3.76 -2.38 7.55287
8.569992 5.12 -2.4 7.28332
8.569992 4.8 -2.4 7.28332
8.569992 4.78 -2.4 7.28332
8.64939 3.8 -2.4 7.41565
8.569992 3.72 -2.4 7.28332
8.569992 3.02 -2.4 7.28332
9.193757999999999 -3.6 -2.4 8.32293
8.99808 -3.62 -2.4 7.9968
8.99808 -3.64 -2.4 7.9968
8.99808 -3.66 -2.4 7.9968
8.905884 -3.68 -2.4 7.84314
8.817162000000001 -3.7 -2.4 7.69527
8.731722000000001 -3.72 -2.4 7.55287
8.731722000000001 -3.74 -2.4 7.55287
8.731722000000001 -3.76 -2.4 7.55287
8.731722000000001 -3.78 -2.4 7.55287
8.493384 5.62 -2.42 7.15564
8.493384 5.6 -2.42 7.15564
8.569992 5.08 -2.42 7.28332
8.419410000000001 4.98 -2.42 7.03235
8.569992 4.8 -2.42 7.28332
8.569992 4.08 -2.42 7.28332
8.493384 3.0 -2.42 7.15564
8.731722000000001 2.38 -2.42 7.55287
8.493384 5.6 -2.44 7.15564
8.419410000000001 5.34 -2.46 7.03235
8.347944 5.32 -2.46 6.91324
8.347944 5.3 -2.46 6.91324
8.27886 4.38 -2.46 6.7981
8.347944 3.44 -2.46 6.91324
8.419410000000001 3.12 -2.46 7.03235
8.493384 3.02 -2.46 7.15564
8.493384 3.0 -2.46 7.15564
8.347944 5.4 -2.48 6.91324
8.347944 5.38 -2.48 6.91324
8.347944 4.64 -2.48 6.91324
8.27886 4.42 -2.48 6.7981
8.27886 4.38 -2.48 6.7981
8.27886 4.36 -2.48 6.7981
8.27886 4.34 -2.48 6.7981
8.419410000000001 3.1 -2.48 7.03235
8.493384 2.86 -2.48 7.15564
8.347944 5.4 -2.5 6.91324
8.347944 5.38 -2.5 6.91324
8.347944 4.98 -2.5 6.91324
8.212038 4.44 -2.5 6.68673
8.347944 4.0 -2.5 6.91324
8.493384 2.46 -2.5 7.15564
8.493384 2.44 -2.5 7.15564
8.347944 5.4 -2.52 6.91324
8.27886 4.42 -2.52 6.7981
8.347944 3.98 -2.52 6.91324
8.347944 2.98 -2.52 6.91324
8.27886 4.16 -2.54 6.7981
8.212038 3.74 -2.54 6.68673
8.212038 3.72 -2.54 6.68673
8.212038 3.7 -2.54 6.68673
8.147369999999999 5.52 -2.56 6.57895
8.147369999999999 5.5 -2.56 6.57895
8.147369999999999 5.48 -2.56 6.57895
8.147369999999999 4.62 -2.56 6.57895
8.212038 3.7 -2.56 6.68673
8.493384 2.36 -2.56 7.15564
8.493384 2.34 -2.56 7.15564
8.147369999999999 5.5 -2.58 6.57895
8.147369999999999 5.48 -2.58 6.57895
8.147369999999999 4.62 -2.58 6.57895
8.147369999999999 4.6 -2.58 6.57895
8.493384 2.34 -2.58 7.15564
8.493384 2.32 -2.58 7.15564
8.147369999999999 4.6 -2.6 6.57895
8.147369999999999 3.94 -2.6 6.57895
8.147369999999999 3.76 -2.6 6.57895
8.024094 4.1 -2.62 6.37349
8.147369999999999 3.94 -2.62 6.57895
8.147369999999999 3.92 -2.62 6.57895
8.147369999999999 3.76 -2.62 6.57895
8.024094 4.08 -2.64 6.37349
8.084754 3.92 -2.64 6.47459
8.212038 2.96 -2.64 6.68673
8.27886 2.68 -2.64 6.7981
8.024094 4.54 -2.66 6.37349
7.965294 4.42 -2.66 6.27549
8.024094 5.12 -2.68 6.37349
7.908282 4.62 -2.68 6.18047
8.024094 4.5 -2.68 6.37349
8.024094 4.48 -2.68 6.37349
8.024094 3.98 -2.68 6.37349
8.084754 3.9 -2.68 6.47459
7.908282 4.66 -2.7 6.18047
8.084754 4.58 -2.7 6.47459
8.27886 2.56 -2.7 6.7981
7.8529680000000015 4.68 -2.72 6.08828
7.908282 4.66 -2.72 6.18047
7.908282 4.64 -2.72 6.18047
8.024094 3.96 -2.72 6.37349
7.908282 5.2 -2.74 6.18047
7.8529680000000015 4.68 -2.74 6.08828
7.965294 4.36 -2.74 6.27549
7.965294 3.54 -2.74 6.27549
7.908282 5.2 -2.76 6.18047
7.908282 5.18 -2.76 6.18047
7.8529680000000015 4.58 -2.76 6.08828
7.965294 3.54 -2.76 6.27549
7.965294 5.26 -2.78 6.27549
7.908282 5.18 -2.78 6.18047
7.8529680000000015 4.7 -2.78 6.08828
7.8529680000000015 4.56 -2.78 6.08828
7.8529680000000015 4.2 -2.78 6.08828
7.8529680000000015 4.18 -2.78 6.08828
7.8529680000000015 4.08 -2.78 6.08828
7.8529680000000015 4.06 -2.78 6.08828
7.8529680000000015 4.0 -2.78 6.08828
7.965294 3.58 -2.78 6.27549
8.084754 2.66 -2.78 6.47459
7.908282 5.22 -2.8 6.18047
7.8529680000000015 4.7 -2.8 6.08828
7.8529680000000015 4.64 -2.8 6.08828
7.8529680000000015 4.62 -2.8 6.08828
7.8529680000000015 4.08 -2.8 6.08828
7.8529680000000015 4.06 -2.8 6.08828
7.8529680000000015 4.0 -2.8 6.08828
7.8529680000000015 3.48 -2.8 6.08828
7.7992799999999995 5.4 -2.82 5.9988
7.7992799999999995 4.98 -2.82 5.9988
7.696506 4.92 -2.82 5.82751
7.8529680000000015 4.62 -2.82 6.08828
7.8529680000000015 4.6 -2.82 6.08828
7.8529680000000015 4.08 -2.82 6.08828
7.8529680000000015 4.06 -2.82 6.08828
7.747145999999999 5.6 -2.84 5.91191
7.7992799999999995 5.0 -2.84 5.9988
7.747145999999999 4.98 -2.84 5.91191
7.696506 4.94 -2.84 5.82751
7.696506 4.92 -2.84 5.82751
7.696506 4.9 -2.84 5.82751
7.7992799999999995 4.08 -2.84 5.9988
7.7992799999999995 4.06 -2.84 5.9988
7.747145999999999 5.6 -2.86 5.91191
7.747145999999999 5.58 -2.86 5.91191
7.7992799999999995 5.02 -2.86 5.9988
7.7992799999999995 5.0 -2.86 5.9988
7.696506 4.92 -2.86 5.82751
7.696506 4.66 -2.86 5.82751
7.747145999999999 4.26 -2.86 5.91191
7.965294 3.3 -2.86 6.27549
7.747145999999999 5.58 -2.88 5.91191
7.747145999999999 4.96 -2.88 5.91191
7.696506 4.8 -2.88 5.82751
7.552889999999999 4.46 -2.88 5.58815
7.965294 3.28 -2.88 6.27549
7.965294 3.04 -2.88 6.27549
7.965294 2.82 -2.88 6.27549
7.965294 2.8 -2.88 6.27549
7.696506 4.8 -2.9 5.82751
7.696506 4.62 -2.9 5.82751
7.552889999999999 4.52 -2.9 5.58815
7.552889999999999 4.5 -2.9 5.58815
7.7992799999999995 5.94 -2.92 5.9988
7.7992799999999995 5.92 -2.92 5.9988
7.6472880000000005 5.54 -2.94 5.74548
7.507607999999999 5.42 -2.94 5.51268
7.599432 5.2 -2.94 5.66572
7.552889999999999 5.02 -2.94 5.58815
7.552889999999999 5.0 -2.94 5.58815
7.6472880000000005 3.96 -2.94 5.74548
7.6472880000000005 3.94 -2.94 5.74548
7.7992799999999995 3.34 -2.94 5.9988
7.599432 5.94 -2.96 5.66572
7.599432 5.92 -2.96 5.66572
7.6472880000000005 5.82 -2.96 5.74548
7.507607999999999 5.4 -2.96 5.51268
7.696506 4.92 -2.96 5.82751
7.552889999999999 4.88 -2.96 5.58815
7.552889999999999 4.86 -2.96 5.58815
7.6472880000000005 3.94 -2.96 5.74548
7.6472880000000005 3.92 -2.96 5.74548
7.7992799999999995 3.32 -2.96 5.9988
7.552889999999999 5.94 -2.98 5.58815
7.552889999999999 5.82 -2.98 5.58815
7.507607999999999 5.4 -2.98 5.51268
7.6472880000000005 3.78 -2.98 5.74548
7.552889999999999 4.52 -3.0 5.58815
7.507607999999999 4.42 -3.0 5.51268
7.507607999999999 4.4 -3.0 5.51268
7.552889999999999 5.8 -3.02 5.58815
7.507607999999999 4.8 -3.02 5.51268
7.507607999999999 4.78 -3.02 5.51268
7.552889999999999 4.52 -3.02 5.58815
7.908282 2.8 -3.02 6.18047
7.747145999999999 4.88 -3.04 5.91191
7.747145999999999 4.86 -3.04 5.91191
7.507607999999999 4.78 -3.04 5.51268
7.507607999999999 4.76 -3.04 5.51268
7.463532 5.64 -3.06 5.43922
7.463532 4.96 -3.06 5.43922
7.507607999999999 4.76 -3.06 5.51268
7.599432 3.6 -3.06 5.66572
7.599432 3.58 -3.06 5.66572
7.463532 5.64 -3.08 5.43922
7.463532 4.96 -3.08 5.43922
7.463532 4.94 -3.08 5.43922
7.463532 4.76 -3.08 5.43922
7.420614 4.54 -3.08 5.36769
7.7992799999999995 4.3 -3.08 5.9988
7.420614 4.16 -3.08 5.36769
7.463532 5.68 -3.1 5.43922
7.463532 4.96 -3.1 5.43922
7.463532 4.94 -3.1 5.43922
7.420614 4.54 -3.1 5.36769
7.420614 4.52 -3.1 5.36769
7.463532 4.4 -3.1 5.43922
7.463532 4.22 -3.1 5.43922
7.420614 4.2 -3.1 5.36769
7.420614 4.16 -3.1 5.36769
7.463532 5.68 -3.12 5.43922
7.463532 4.94 -3.12 5.43922
7.463532 4.92 -3.12 5.43922
7.420614 4.52 -3.12 5.36769
7.420614 4.5 -3.12 5.36769
7.463532 4.4 -3.12 5.43922
7.420614 4.22 -3.12 5.36769
7.420614 4.2 -3.12 5.36769
7.420614 4.14 -3.12 5.36769
7.7992799999999995 2.82 -3.12 5.9988
7.7992799999999995 2.8 -3.12 5.9988
7.463532 4.94 -3.14 5.43922
7.463532 4.92 -3.14 5.43922
7.420614 4.58 -3.14 5.36769
7.463532 4.4 -3.14 5.43922
7.463532 4.38 -3.14 5.43922
7.463532 4.36 -3.14 5.43922
7.420614 4.2 -3.14 5.36769
7.378806 5.74 -3.16 5.29801
7.420614 4.92 -3.16 5.36769
7.420614 4.9 -3.16 5.36769
7.420614 4.74 -3.16 5.36769
7.420614 4.72 -3.16 5.36769
7.378806 4.7 -3.16 5.29801
7.378806 4.68 -3.16 5.29801
7.420614 4.56 -3.16 5.36769
7.420614 4.54 -3.16 5.36769
7.420614 4.2 -3.16 5.36769
7.420614 4.18 -3.16 5.36769
7.338077999999999 5.12 -3.18 5.23013
7.420614 4.9 -3.18 5.36769
7.420614 4.88 -3.18 5.36769
7.378806 4.7 -3.18 5.29801
7.378806 4.68 -3.18 5.29801
7.378806 4.66 -3.18 5.29801
7.378806 4.64 -3.18 5.29801
7.420614 4.18 -3.18 5.36769
7.463532 4.08 -3.18 5.43922
7.338077999999999 5.34 -3.2 5.23013
7.338077999999999 5.44 -3.22 5.23013
7.338077999999999 5.42 -3.22 5.23013
7.298376 5.4 -3.22 5.16396
7.259664000000001 5.04 -3.22 5.09944
7.338077999999999 4.56 -3.22 5.23013
7.463532 3.5 -3.22 5.43922
7.463532 3.48 -3.22 5.43922
7.463532 3.46 -3.22 5.43922
7.463532 3.4 -3.22 5.43922
7.338077999999999 5.44 -3.24 5.23013
7.338077999999999 5.42 -3.24 5.23013
7.298376 5.4 -3.24 5.16396
7.338077999999999 5.38 -3.24 5.23013
7.338077999999999 4.36 -3.24 5.23013
7.298376 4.32 -3.24 5.16396
7.338077999999999 4.3 -3.24 5.23013
7.298376 5.38 -3.26 5.16396
7.298376 5.36 -3.26 5.16396
7.298376 5.22 -3.26 5.16396
7.259664000000001 5.0 -3.26 5.09944
7.463532 3.64 -3.26 5.43922
7.463532 3.54 -3.26 5.43922
7.420614 3.34 -3.26 5.36769
7.420614 3.32 -3.26 5.36769
7.298376 5.22 -3.28 5.16396
7.298376 5.18 -3.28 5.16396
7.298376 5.16 -3.28 5.16396
7.298376 5.14 -3.28 5.16396
7.463532 3.64 -3.28 5.43922
7.420614 3.32 -3.28 5.36769
7.298376 5.2 -3.3 5.16396
7.298376 5.16 -3.3 5.16396
7.298376 5.14 -3.3 5.16396
7.298376 5.12 -3.3 5.16396
7.298376 5.1 -3.3 5.16396
7.298376 5.08 -3.32 5.16396
7.378806 3.76 -3.32 5.29801
7.378806 3.74 -3.32 5.29801
7.185072 5.32 -3.34 4.97512
7.185072 5.06 -3.34 4.97512
7.185072 5.32 -3.36 4.97512
7.185072 5.3 -3.36 4.97512
7.221906000000001 5.44 -3.38 5.03651
7.221906000000001 5.42 -3.38 5.03651
7.463532 3.3 -3.38 5.43922
7.221906000000001 5.44 -3.4 5.03651
7.221906000000001 5.42 -3.4 5.03651
7.221906000000001 5.4 -3.4 5.03651
7.221906000000001 4.42 -3.4 5.03651
7.463532 3.3 -3.4 5.43922
7.463532 3.28 -3.4 5.43922
7.221906000000001 5.4 -3.42 5.03651
7.463532 3.3 -3.42 5.43922
7.463532 3.28 -3.42 5.43922
7.046298 5.32 -3.44 4.74383
7.046298 5.32 -3.46 4.74383
7.046298 5.3 -3.46 4.74383
7.185072 4.64 -3.46 4.97512
7.149126 4.58 -3.46 4.91521
7.149126 4.56 -3.46 4.91521
7.259664000000001 4.9 -3.48 5.09944
7.259664000000001 4.88 -3.48 5.09944
7.046298 5.4 -3.5 4.74383
7.259664000000001 4.9 -3.5 5.09944
7.259664000000001 4.88 -3.5 5.09944
7.149126 4.74 -3.5 4.91521
7.149126 4.72 -3.5 4.91521
7.149126 4.26 -3.5 4.91521
7.149126 5.76 -3.52 4.91521
7.259664000000001 4.88 -3.52 5.09944
7.259664000000001 4.86 -3.52 5.09944
7.149126 4.72 -3.52 4.91521
7.114037999999999 4.7 -3.52 4.85673
7.420614 4.44 -3.52 5.36769
7.149126 4.24 -3.52 4.91521
7.149126 5.78 -3.54 4.91521
7.149126 5.76 -3.54 4.91521
7.046298 4.98 -3.54 4.74383
7.046298 4.96 -3.54 4.74383
7.079772 4.36 -3.54 4.79962
7.079772 4.34 -3.54 4.79962
7.338077999999999 3.4 -3.54 5.23013
7.079772 5.82 -3.56 4.79962
7.079772 5.8 -3.56 4.79962
7.114037999999999 5.78 -3.56 4.85673
7.079772 5.68 -3.56 4.79962
7.046298 4.98 -3.56 4.74383
7.046298 4.96 -3.56 4.74383
7.046298 4.94 -3.56 4.74383
7.079772 4.66 -3.56 4.79962
7.079772 4.34 -3.56 4.79962
7.079772 5.84 -3.58 4.79962
7.079772 5.82 -3.58 4.79962
7.079772 5.8 -3.58 4.79962
7.079772 5.7 -3.58 4.79962
7.079772 5.68 -3.58 4.79962
7.079772 4.66 -3.58 4.79962
7.013598 4.56 -3.58 4.68933
7.079772 5.82 -3.6 4.79962
7.079772 5.8 -3.6 4.79962
7.079772 5.66 -3.6 4.79962
6.981642 5.28 -3.6 4.63607
7.046298 4.84 -3.6 4.74383
7.013598 4.56 -3.6 4.68933
7.013598 4.54 -3.6 4.68933
7.046298 4.42 -3.6 4.74383
7.149126 3.8 -3.6 4.91521
7.221906000000001 -5.32 -3.6 5.03651
7.221906000000001 -5.34 -3.6 5.03651
7.221906000000001 -5.36 -3.6 5.03651
7.221906000000001 -5.38 -3.6 5.03651
7.185072 -5.4 -3.6 4.97512
7.149126 -5.42 -3.6 4.91521
7.221906000000001 -5.52 -3.6 5.03651
7.221906000000001 -5.54 -3.6 5.03651
7.221906000000001 -5.56 -3.6 5.03651
7.221906000000001 -5.58 -3.6 5.03651
7.185072 -5.6 -3.6 4.97512
7.149126 -5.62 -3.6 4.91521
7.114037999999999 -5.64 -3.6 4.85673
7.114037999999999 -5.66 -3.6 4.85673
6.981642 5.28 -3.62 4.63607
6.981642 5.26 -3.62 4.63607
6.981642 5.14 -3.62 4.63607
7.013598 4.56 -3.62 4.68933
7.013598 4.54 -3.62 4.68933
7.149126 3.8 -3.62 4.91521
7.221906000000001 -5.34 -3.62 5.03651
7.221906000000001 -5.36 -3.62 5.03651
7.221906000000001 -5.38 -3.62 5.03651
7.185072 -5.4 -3.62 4.97512
7.149126 -5.42 -3.62 4.91521
7.149126 -5.44 -3.62 4.91521
7.221906000000001 -5.58 -3.62 5.03651
7.185072 -5.6 -3.62 4.97512
7.149126 -5.62 -3.62 4.91521
7.114037999999999 -5.64 -3.62 4.85673
7.114037999999999 -5.66 -3.62 4.85673
7.114037999999999 -5.68 -3.62 4.85673
6.981642 5.26 -3.64 4.63607
6.981642 5.14 -3.64 4.63607
6.981642 5.12 -3.64 4.63607
7.013598 4.74 -3.64 4.68933
7.046298 5.68 -3.66 4.74383
7.259664000000001 5.32 -3.66 5.09944
6.981642 5.12 -3.66 4.63607
7.221906000000001 3.54 -3.66 5.03651
7.046298 5.68 -3.68 4.74383
6.981642 5.24 -3.68 4.63607
6.981642 5.12 -3.68 4.63607
7.046298 3.96 -3.68 4.74383
7.046298 3.94 -3.68 4.74383
6.981642 5.26 -3.7 4.63607
6.981642 5.24 -3.7 4.63607
7.013598 4.24 -3.7 4.68933
7.013598 4.2 -3.7 4.68933
7.114037999999999 4.0 -3.7 4.85673
7.046298 3.94 -3.7 4.74383
7.046298 3.92 -3.7 4.74383
7.221906000000001 3.58 -3.7 5.03651
7.221906000000001 3.56 -3.7 5.03651
6.981642 5.24 -3.72 4.63607
6.981642 5.22 -3.72 4.63607
6.981642 5.22 -3.74 4.63607
6.981642 5.2 -3.74 4.63607
6.9504 4.36 -3.74 4.584
6.981642 4.26 -3.74 4.63607
7.013598 4.24 -3.74 4.68933
6.832158 5.5 -3.76 4.38693
6.88998 5.34 -3.76 4.4833
7.013598 3.96 -3.76 4.68933
6.832158 5.5 -3.78 4.38693
6.9504 5.4 -3.78 4.584
6.9504 5.38 -3.78 4.584
6.9504 4.62 -3.78 4.584
6.9504 4.34 -3.78 4.584
6.9504 4.32 -3.78 4.584
7.013598 3.96 -3.78 4.68933
6.832158 5.84 -3.8 4.38693
6.832158 5.5 -3.8 4.38693
6.9504 5.38 -3.8 4.584
6.88998 5.2 -3.8 4.4833
6.981642 5.08 -3.8 4.63607
6.981642 5.06 -3.8 4.63607
7.013598 3.96 -3.8 4.68933
6.804168 5.86 -3.82 4.34028
6.804168 5.84 -3.82 4.34028
6.88998 5.2 -3.82 4.4833
6.88998 5.18 -3.82 4.4833
6.981642 5.06 -3.82 4.63607
6.981642 5.04 -3.82 4.63607
6.9504 4.14 -3.82 4.584
7.079772 3.76 -3.82 4.79962
6.804168 5.84 -3.84 4.34028
6.88998 5.18 -3.84 4.4833
7.013598 3.96 -3.84 4.68933
7.079772 3.82 -3.84 4.79962
7.079772 3.8 -3.84 4.79962
7.013598 -4.28 -3.84 4.68933
6.804168 5.84 -3.86 4.34028
7.079772 3.8 -3.86 4.79962
6.88998 4.24 -3.88 4.4833
7.013598 3.94 -3.88 4.68933
6.804168 5.78 -3.9 4.34028
6.860754 5.56 -3.9 4.43459
6.981642 -4.36 -3.9 4.63607
6.804168 5.8 -3.92 4.34028
6.804168 5.78 -3.92 4.34028
6.919854 5.54 -3.92 4.53309
6.832158 5.38 -3.92 4.38693
7.013598 3.94 -3.92 4.68933
6.981642 -3.14 -3.92 4.63607
6.981642 -3.16 -3.92 4.63607
6.981642 -3.18 -3.92 4.63607
6.981642 -4.36 -3.92 4.63607
6.981642 -4.38 -3.92 4.63607
6.832158 5.62 -3.94 4.38693
6.832158 5.6 -3.94 4.38693
6.832158 5.38 -3.94 4.38693
6.832158 5.36 -3.94 4.38693
6.832158 4.98 -3.94 4.38693
6.981642 -3.18 -3.94 4.63607
6.832158 5.62 -3.96 4.38693
6.832158 5.6 -3.96 4.38693
6.832158 5.24 -3.96 4.38693
6.804168 4.8 -3.98 4.34028
6.804168 4.78 -3.98 4.34028
6.804168 4.76 -3.98 4.34028
6.919854 -4.64 -3.98 4.53309
6.860754 5.78 -4.0 4.43459
6.804168 5.16 -4.0 4.34028
6.88998 4.16 -4.0 4.4833
6.88998 4.14 -4.0 4.4833
6.919854 -2.54 -4.0 4.53309
6.88998 4.14 -4.02 4.4833
6.919854 -4.3 -4.02 4.53309
6.804168 5.72 -4.04 4.34028
6.832158 5.46 -4.04 4.38693
6.832158 5.44 -4.04 4.38693
6.7499340000000005 5.22 -4.04 4.24989
6.88998 4.2 -4.04 4.4833
6.88998 -2.9 -4.04 4.4833
6.7499340000000005 5.22 -4.06 4.24989
6.7499340000000005 5.2 -4.06 4.24989
6.7499340000000005 4.46 -4.06 4.24989
6.860754 4.2 -4.06 4.43459
6.88998 4.18 -4.06 4.4833
6.7499340000000005 4.92 -4.08 4.24989
6.7499340000000005 4.6 -4.08 4.24989
6.7499340000000005 4.44 -4.08 4.24989
6.832158 -2.34 -4.08 4.38693
6.860754 -4.36 -4.08 4.43459
6.860754 -3.18 -4.1 4.43459
6.860754 -3.2 -4.1 4.43459
6.832158 -4.7 -4.1 4.38693
6.860754 4.06 -4.12 4.43459
6.776765999999999 -4.46 -4.14 4.29461
6.72366 -4.52 -4.14 4.2061
6.72366 -4.54 -4.14 4.2061
