VERSION .7
FIELDS x y z rgb
SIZE 4 4 4 4
TYPE F F F F
COUNT 1 1 1 1
WIDTH 1575
HEIGHT 1
VIEWPOINT 0 0 0 1 0 0 0
POINTS 1575
DATA ascii
21.64188 -3.78 2.82 29.0698
10.811580000000001 1.96 2.8 11.0193
10.811580000000001 1.94 2.8 11.0193
22.97934 -3.42 2.8 31.2989
17.06172 -5.28 2.8 21.4362
10.811580000000001 1.96 2.78 11.0193
10.811580000000001 1.94 2.78 11.0193
22.97934 -3.4 2.78 31.2989
22.97934 -3.42 2.78 31.2989
22.97934 -3.44 2.78 31.2989
17.77464 -4.54 2.78 22.6244
17.06172 -5.28 2.78 21.4362
28.590239999999998 -5.84 2.78 40.6504
12.08952 2.04 2.76 13.1492
10.811580000000001 1.96 2.76 11.0193
16.419959999999996 -4.62 2.76 20.3666
17.06172 -5.28 2.76 21.4362
10.811580000000001 1.96 2.74 11.0193
10.811580000000001 1.94 2.74 11.0193
22.97934 -3.44 2.74 31.2989
17.77464 -4.54 2.74 22.6244
17.77464 -4.56 2.74 22.6244
16.419959999999996 -4.62 2.74 20.3666
24.53898 -6.34 2.74 33.8983
10.811580000000001 1.96 2.72 11.0193
17.06172 -5.26 2.72 21.4362
26.38116 -5.86 2.72 36.9686
24.53898 -6.32 2.72 33.8983
12.3522 -6.7 2.72 13.587
12.08952 -6.74 2.72 13.1492
12.08952 2.04 2.7 13.1492
10.811580000000001 1.96 2.7 11.0193
10.811580000000001 1.94 2.7 11.0193
64.806 -3.3 2.7 101.01
22.97934 -3.68 2.7 31.2989
18.57126 -5.24 2.7 23.9521
17.06172 -5.32 2.7 21.4362
17.06172 -5.34 2.7 21.4362
12.08952 -6.72 2.7 13.1492
10.811580000000001 1.96 2.68 11.0193
10.811580000000001 1.94 2.68 11.0193
17.06172 -5.32 2.68 21.4362
17.06172 -5.34 2.68 21.4362
26.38116 -5.86 2.68 36.9686
10.811580000000001 1.96 2.66 11.0193
10.811580000000001 1.94 2.66 11.0193
24.53898 -3.48 2.66 33.8983
17.77464 -4.54 2.66 22.6244
28.590239999999998 -5.84 2.66 40.6504
28.590239999999998 -5.86 2.66 40.6504
12.3522 -6.74 2.66 13.587
10.811580000000001 1.96 2.64 11.0193
10.811580000000001 1.94 2.64 11.0193
22.97934 -3.8 2.64 31.2989
28.590239999999998 -5.84 2.64 40.6504
12.3522 -6.74 2.64 13.587
10.811580000000001 1.96 2.62 11.0193
10.811580000000001 1.94 2.62 11.0193
22.97934 -3.8 2.62 31.2989
14.82888 -4.62 2.62 17.7148
17.06172 -5.3 2.62 21.4362
17.06172 -5.32 2.62 21.4362
10.811580000000001 1.96 2.6 11.0193
10.811580000000001 1.94 2.6 11.0193
22.97934 -3.4 2.6 31.2989
17.06172 -4.48 2.6 21.4362
17.06172 -4.5 2.6 21.4362
17.06172 -4.52 2.6 21.4362
26.38116 -6.06 2.6 36.9686
26.38116 -6.08 2.6 36.9686
10.811580000000001 1.96 2.58 11.0193
10.811580000000001 1.94 2.58 11.0193
17.06172 -4.5 2.58 21.4362
17.06172 -4.52 2.58 21.4362
26.38116 -6.06 2.58 36.9686
26.38116 -6.08 2.58 36.9686
24.53898 -6.52 2.58 33.8983
24.53898 -6.54 2.58 33.8983
26.38116 3.08 2.56 36.9686
10.811580000000001 1.96 2.56 11.0193
10.811580000000001 1.94 2.56 11.0193
17.06172 -4.48 2.56 21.4362
17.06172 -4.5 2.56 21.4362
17.06172 -5.28 2.56 21.4362
17.06172 -5.3 2.56 21.4362
10.811580000000001 1.96 2.54 11.0193
10.811580000000001 1.94 2.54 11.0193
22.97934 -3.44 2.54 31.2989
17.06172 -4.5 2.54 21.4362
17.06172 -4.52 2.54 21.4362
14.82888 -4.64 2.54 17.7148
17.06172 -5.28 2.54 21.4362
17.06172 -5.3 2.54 21.4362
12.63288 -6.74 2.54 14.0548
10.811580000000001 1.96 2.52 11.0193
10.811580000000001 1.94 2.52 11.0193
22.97934 -3.54 2.52 31.2989
17.06172 -4.52 2.52 21.4362
17.06172 -4.54 2.52 21.4362
28.590239999999998 -5.72 2.52 40.6504
10.811580000000001 1.96 2.5 11.0193
10.811580000000001 1.94 2.5 11.0193
17.06172 -4.5 2.5 21.4362
17.06172 -4.52 2.5 21.4362
17.06172 -4.54 2.5 21.4362
17.06172 -5.28 2.5 21.4362
17.06172 -5.3 2.5 21.4362
28.590239999999998 -5.7 2.5 40.6504
28.590239999999998 -5.72 2.5 40.6504
10.811580000000001 1.96 2.48 11.0193
10.811580000000001 1.94 2.48 11.0193
17.06172 -4.54 2.48 21.4362
17.06172 -5.28 2.48 21.4362
17.06172 -5.3 2.48 21.4362
28.590239999999998 -5.7 2.48 40.6504
10.811580000000001 1.96 2.46 11.0193
10.811580000000001 1.94 2.46 11.0193
22.97934 -3.5 2.46 31.2989
17.06172 -4.52 2.46 21.4362
28.590239999999998 -5.7 2.46 40.6504
10.811580000000001 1.96 2.44 11.0193
10.811580000000001 1.94 2.44 11.0193
28.590239999999998 -5.68 2.44 40.6504
10.811580000000001 1.96 2.42 11.0193
10.811580000000001 1.94 2.42 11.0193
10.811580000000001 1.96 2.4 11.0193
10.811580000000001 1.94 2.4 11.0193
17.06172 -5.24 2.4 21.4362
17.06172 -5.26 2.4 21.4362
28.590239999999998 -5.68 2.4 40.6504
10.811580000000001 1.94 2.38 11.0193
17.06172 -4.48 2.38 21.4362
17.06172 -4.5 2.38 21.4362
17.06172 -4.52 2.38 21.4362
17.06172 -5.24 2.38 21.4362
17.06172 -5.26 2.38 21.4362
28.590239999999998 -5.66 2.38 40.6504
10.811580000000001 1.94 2.36 11.0193
17.06172 -5.24 2.36 21.4362
28.590239999999998 -5.66 2.36 40.6504
28.590239999999998 -5.68 2.36 40.6504
10.811580000000001 1.94 2.34 11.0193
16.419959999999996 -5.34 2.34 20.3666
28.590239999999998 -5.66 2.34 40.6504
10.811580000000001 1.94 2.32 11.0193
24.53898 -3.56 2.32 33.8983
19.467180000000003 -3.62 2.32 25.4453
16.419959999999996 -5.34 2.32 20.3666
28.590239999999998 -5.66 2.32 40.6504
10.811580000000001 1.94 2.3 11.0193
24.53898 -3.54 2.3 33.8983
24.53898 -3.56 2.3 33.8983
19.467180000000003 -3.62 2.3 25.4453
14.82888 -4.6 2.3 17.7148
17.06172 -5.24 2.3 21.4362
17.06172 -5.26 2.3 21.4362
28.590239999999998 -5.68 2.3 40.6504
24.53898 -3.54 2.28 33.8983
17.06172 -5.26 2.28 21.4362
28.590239999999998 -5.68 2.28 40.6504
17.77464 -4.5 2.26 22.6244
17.77464 -4.52 2.26 22.6244
17.77464 -4.5 2.24 22.6244
17.77464 -4.52 2.24 22.6244
22.97934 -3.8 2.22 31.2989
17.77464 -4.5 2.22 22.6244
17.06172 -5.24 2.22 21.4362
17.06172 -5.34 2.22 21.4362
17.06172 -5.36 2.22 21.4362
31.28802 -5.72 2.22 45.1467
31.28802 -5.76 2.2 45.1467
26.38116 5.24 2.16 36.9686
17.06172 -5.32 2.16 21.4362
17.06172 -5.34 2.16 21.4362
26.38116 4.84 2.14 36.9686
22.97934 -3.4 2.14 31.2989
17.06172 -5.34 2.14 21.4362
26.38116 2.92 2.12 36.9686
26.38116 2.92 2.1 36.9686
10.811580000000001 1.94 2.1 11.0193
16.419959999999996 -5.24 2.1 20.3666
17.06172 -5.32 2.1 21.4362
10.811580000000001 1.94 2.08 11.0193
17.77464 -5.16 2.08 22.6244
17.77464 -5.18 2.08 22.6244
17.06172 -5.2 2.08 21.4362
16.419959999999996 -5.22 2.08 20.3666
17.06172 -5.32 2.08 21.4362
26.38116 4.76 2.06 36.9686
28.590239999999998 2.94 2.06 40.6504
10.811580000000001 1.94 2.06 11.0193
22.97934 -3.74 2.06 31.2989
17.77464 -4.88 2.06 22.6244
17.77464 -4.9 2.06 22.6244
18.57126 -5.14 2.06 23.9521
17.77464 -5.16 2.06 22.6244
28.590239999999998 4.42 2.04 40.6504
28.590239999999998 2.94 2.04 40.6504
10.811580000000001 1.94 2.04 11.0193
26.38116 4.94 2.02 36.9686
10.811580000000001 1.94 2.02 11.0193
22.97934 -3.32 2.02 31.2989
22.97934 -3.34 2.02 31.2989
18.57126 -5.2 2.02 23.9521
26.38116 5.12 2.0 36.9686
26.38116 4.96 2.0 36.9686
26.38116 4.94 2.0 36.9686
28.590239999999998 4.46 2.0 40.6504
10.811580000000001 1.94 2.0 11.0193
28.590239999999998 -4.28 2.0 40.6504
17.77464 -4.44 2.0 22.6244
26.38116 5.28 1.98 36.9686
10.811580000000001 1.94 1.98 11.0193
16.419959999999996 -5.34 1.98 20.3666
26.38116 -5.88 1.98 36.9686
26.38116 4.38 1.96 36.9686
10.811580000000001 1.94 1.96 11.0193
26.38116 5.02 1.94 36.9686
26.38116 4.4 1.94 36.9686
26.38116 2.98 1.94 36.9686
10.995 2.06 1.94 11.325
10.811580000000001 1.94 1.94 11.0193
28.590239999999998 4.54 1.92 40.6504
10.811580000000001 1.94 1.92 11.0193
21.64188 -3.3 1.92 29.0698
17.77464 -4.38 1.92 22.6244
17.06172 -4.62 1.92 21.4362
24.53898 -6.42 1.92 33.8983
24.53898 -6.44 1.92 33.8983
28.590239999999998 4.54 1.9 40.6504
28.590239999999998 2.86 1.9 40.6504
10.811580000000001 1.94 1.9 11.0193
17.06172 -4.5 1.9 21.4362
17.06172 -4.52 1.9 21.4362
10.811580000000001 1.94 1.88 11.0193
34.65684 -4.16 1.88 50.7614
17.06172 -4.48 1.88 21.4362
17.06172 -4.5 1.88 21.4362
24.53898 -6.42 1.88 33.8983
24.53898 -6.44 1.88 33.8983
26.38116 4.14 1.86 36.9686
28.590239999999998 2.9 1.86 40.6504
10.811580000000001 1.94 1.86 11.0193
22.97934 -3.28 1.86 31.2989
22.97934 -3.3 1.86 31.2989
19.467180000000003 -3.36 1.86 25.4453
26.38116 5.42 1.84 36.9686
24.53898 5.22 1.84 33.8983
26.38116 4.16 1.84 36.9686
10.811580000000001 1.94 1.84 11.0193
22.97934 -3.3 1.84 31.2989
26.38116 5.42 1.82 36.9686
10.811580000000001 1.94 1.82 11.0193
22.97934 -3.78 1.82 31.2989
17.77464 -4.44 1.82 22.6244
17.77464 -4.46 1.82 22.6244
26.38116 5.14 1.8 36.9686
26.38116 5.12 1.8 36.9686
10.811580000000001 1.94 1.8 11.0193
38.9826 -0.86 1.8 57.971
24.53898 -6.18 1.8 33.8983
10.811580000000001 1.94 1.78 11.0193
38.9826 -2.18 1.78 57.971
31.28802 -4.26 1.78 45.1467
31.28802 -4.28 1.78 45.1467
17.77464 -4.48 1.78 22.6244
34.65684 -5.38 1.78 50.7614
34.65684 -5.4 1.78 50.7614
34.65684 -5.42 1.78 50.7614
24.53898 -6.16 1.78 33.8983
24.53898 -6.18 1.78 33.8983
24.53898 -6.62 1.78 33.8983
26.38116 3.28 1.76 36.9686
10.811580000000001 1.94 1.76 11.0193
22.97934 -3.82 1.76 31.2989
17.06172 -4.56 1.76 21.4362
17.06172 -4.58 1.76 21.4362
24.53898 -6.6 1.76 33.8983
24.53898 -6.62 1.76 33.8983
26.38116 5.2 1.74 36.9686
26.38116 5.18 1.74 36.9686
26.38116 4.64 1.74 36.9686
28.590239999999998 2.9 1.74 40.6504
10.811580000000001 1.94 1.74 11.0193
31.28802 -2.7 1.74 45.1467
22.97934 -3.82 1.74 31.2989
17.77464 -4.52 1.74 22.6244
17.06172 -4.58 1.74 21.4362
34.65684 -5.4 1.74 50.7614
24.53898 -6.58 1.74 33.8983
24.53898 -6.6 1.74 33.8983
24.53898 -6.62 1.74 33.8983
10.811580000000001 1.94 1.72 11.0193
22.97934 -3.82 1.72 31.2989
17.06172 -4.56 1.72 21.4362
17.06172 -4.58 1.72 21.4362
17.06172 -4.6 1.72 21.4362
26.38116 4.28 1.7 36.9686
10.811580000000001 1.94 1.7 11.0193
26.38116 -4.34 1.7 36.9686
10.811580000000001 1.94 1.68 11.0193
10.811580000000001 1.92 1.68 11.0193
31.28802 -4.28 1.68 45.1467
24.53898 -6.54 1.68 33.8983
24.53898 -6.56 1.68 33.8983
10.811580000000001 1.94 1.66 11.0193
22.97934 -3.32 1.66 31.2989
17.06172 -4.8 1.66 21.4362
17.06172 -4.82 1.66 21.4362
24.53898 -6.34 1.66 33.8983
24.53898 -6.36 1.66 33.8983
26.38116 5.14 1.64 36.9686
26.38116 5.12 1.64 36.9686
10.811580000000001 1.94 1.64 11.0193
10.811580000000001 1.92 1.64 11.0193
17.06172 -4.88 1.64 21.4362
24.53898 -6.34 1.64 33.8983
24.53898 -6.36 1.64 33.8983
24.53898 -6.54 1.64 33.8983
26.38116 5.58 1.62 36.9686
26.38116 5.12 1.62 36.9686
10.811580000000001 1.94 1.62 11.0193
10.811580000000001 1.92 1.62 11.0193
22.97934 -3.8 1.62 31.2989
34.65684 -4.1 1.62 50.7614
34.65684 -4.12 1.62 50.7614
28.590239999999998 -5.86 1.62 40.6504
28.590239999999998 -5.88 1.62 40.6504
24.53898 -6.32 1.62 33.8983
24.53898 -6.34 1.62 33.8983
26.38116 5.58 1.6 36.9686
10.811580000000001 1.92 1.6 11.0193
22.97934 -3.8 1.6 31.2989
34.65684 -4.1 1.6 50.7614
28.590239999999998 -5.86 1.6 40.6504
24.53898 5.02 1.58 33.8983
10.811580000000001 1.94 1.58 11.0193
10.811580000000001 1.92 1.58 11.0193
24.53898 -6.54 1.58 33.8983
26.38116 4.72 1.56 36.9686
26.38116 4.1 1.56 36.9686
10.811580000000001 1.94 1.56 11.0193
10.811580000000001 1.92 1.56 11.0193
38.9826 -0.94 1.56 57.971
22.97934 -3.88 1.56 31.2989
22.97934 -3.9 1.56 31.2989
24.53898 -6.54 1.56 33.8983
24.53898 5.42 1.54 33.8983
26.38116 5.34 1.54 36.9686
24.53898 4.58 1.54 33.8983
26.38116 4.3 1.54 36.9686
10.811580000000001 1.92 1.54 11.0193
26.38116 -6.08 1.54 36.9686
26.38116 5.58 1.52 36.9686
10.811580000000001 1.92 1.52 11.0193
34.65684 -4.1 1.52 50.7614
34.65684 -4.12 1.52 50.7614
26.38116 -6.1 1.52 36.9686
26.38116 -6.12 1.52 36.9686
26.38116 5.5 1.5 36.9686
26.38116 4.72 1.5 36.9686
26.38116 4.36 1.5 36.9686
26.38116 4.34 1.5 36.9686
38.9826 -0.96 1.5 57.971
26.38116 -6.1 1.5 36.9686
26.38116 4.36 1.48 36.9686
26.38116 3.32 1.48 36.9686
10.811580000000001 1.92 1.48 11.0193
38.9826 -0.96 1.48 57.971
24.53898 -3.3 1.48 33.8983
24.53898 -3.32 1.48 33.8983
19.467180000000003 -3.4 1.48 25.4453
24.53898 -6.54 1.48 33.8983
26.38116 4.36 1.46 36.9686
10.811580000000001 1.92 1.46 11.0193
38.9826 -0.96 1.46 57.971
24.53898 -3.32 1.46 33.8983
34.65684 -4.22 1.46 50.7614
24.53898 5.76 1.44 33.8983
24.53898 4.74 1.44 33.8983
26.38116 4.08 1.44 36.9686
10.811580000000001 1.92 1.44 11.0193
24.53898 5.76 1.42 33.8983
28.590239999999998 5.54 1.42 40.6504
28.590239999999998 5.52 1.42 40.6504
24.53898 4.74 1.42 33.8983
10.811580000000001 2.06 1.42 11.0193
24.53898 -1.06 1.42 33.8983
22.97934 -6.72 1.42 31.2989
24.53898 4.74 1.4 33.8983
10.811580000000001 2.06 1.4 11.0193
22.97934 -3.34 1.4 31.2989
22.97934 -3.36 1.4 31.2989
22.97934 -3.38 1.4 31.2989
31.28802 -4.28 1.4 45.1467
31.28802 -4.3 1.4 45.1467
17.06172 -4.66 1.4 21.4362
22.97934 -6.72 1.4 31.2989
24.53898 5.64 1.38 33.8983
26.38116 4.98 1.38 36.9686
10.811580000000001 2.06 1.38 11.0193
22.97934 -3.38 1.38 31.2989
22.97934 -6.72 1.38 31.2989
22.97934 -3.36 1.36 31.2989
22.97934 -3.38 1.36 31.2989
22.97934 -3.4 1.36 31.2989
24.53898 -6.3 1.36 33.8983
28.590239999999998 4.4 1.34 40.6504
24.53898 -6.3 1.34 33.8983
26.38116 5.32 1.32 36.9686
26.38116 4.58 1.32 36.9686
10.637759999999998 2.06 1.32 10.7296
17.06172 -5.04 1.32 21.4362
24.53898 5.68 1.3 33.8983
10.637759999999998 2.06 1.3 10.7296
17.06172 -5.04 1.3 21.4362
24.53898 -6.3 1.3 33.8983
24.53898 5.62 1.28 33.8983
10.637759999999998 2.06 1.28 10.7296
24.53898 -6.3 1.28 33.8983
24.53898 5.44 1.26 33.8983
24.53898 5.1 1.26 33.8983
10.637759999999998 2.06 1.26 10.7296
24.53898 -6.3 1.26 33.8983
24.53898 5.1 1.24 33.8983
10.637759999999998 2.06 1.24 10.7296
26.38116 -5.9 1.24 36.9686
24.53898 -6.3 1.24 33.8983
24.53898 5.56 1.22 33.8983
26.38116 4.66 1.22 36.9686
10.637759999999998 2.06 1.22 10.7296
44.74056 -3.2 1.22 67.5676
26.38116 -5.88 1.22 36.9686
26.38116 -5.9 1.22 36.9686
26.38116 5.56 1.2 36.9686
26.38116 4.68 1.2 36.9686
28.590239999999998 4.16 1.2 40.6504
10.811580000000001 2.06 1.2 11.0193
17.06172 -4.94 1.2 21.4362
24.53898 -6.34 1.2 33.8983
26.38116 5.56 1.18 36.9686
10.811580000000001 2.06 1.18 11.0193
26.38116 5.56 1.16 36.9686
10.811580000000001 2.06 1.16 11.0193
26.38116 5.56 1.14 36.9686
26.38116 5.0 1.14 36.9686
10.637759999999998 2.06 1.14 10.7296
10.637759999999998 2.06 1.12 10.7296
26.38116 4.68 1.1 36.9686
10.637759999999998 2.06 1.1 10.7296
10.811580000000001 2.06 1.08 11.0193
24.53898 5.34 1.06 33.8983
10.811580000000001 2.06 1.06 11.0193
44.74056 -1.9 1.06 67.5676
10.811580000000001 2.06 1.04 11.0193
34.65684 -5.62 1.04 50.7614
26.38116 5.52 1.02 36.9686
10.811580000000001 2.06 1.02 11.0193
26.38116 5.52 1.0 36.9686
24.53898 5.22 1.0 33.8983
10.811580000000001 2.06 1.0 11.0193
44.74056 -1.06 1.0 67.5676
44.74056 -1.08 1.0 67.5676
10.811580000000001 2.06 0.98 11.0193
26.38116 5.5 0.96 36.9686
26.38116 4.7 0.96 36.9686
26.38116 4.68 0.96 36.9686
10.811580000000001 2.06 0.96 11.0193
24.53898 -3.48 0.96 33.8983
24.53898 -3.5 0.96 33.8983
26.38116 5.5 0.94 36.9686
26.38116 4.7 0.94 36.9686
10.811580000000001 2.06 0.94 11.0193
10.811580000000001 2.06 0.92 11.0193
44.74056 -1.08 0.92 67.5676
24.53898 -3.56 0.92 33.8983
34.65684 -5.42 0.92 50.7614
26.38116 5.5 0.9 36.9686
10.811580000000001 2.06 0.9 11.0193
34.65684 -4.16 0.9 50.7614
34.65684 -5.38 0.9 50.7614
26.38116 5.5 0.88 36.9686
10.811580000000001 2.06 0.88 11.0193
24.53898 -3.6 0.88 33.8983
26.38116 5.5 0.86 36.9686
26.38116 5.48 0.86 36.9686
26.38116 4.8 0.86 36.9686
10.811580000000001 2.06 0.86 11.0193
44.74056 -1.08 0.86 67.5676
22.97934 -3.58 0.86 31.2989
22.97934 -3.6 0.86 31.2989
22.97934 -6.74 0.86 31.2989
26.38116 5.48 0.84 36.9686
28.590239999999998 5.14 0.84 40.6504
26.38116 4.8 0.84 36.9686
10.811580000000001 2.06 0.84 11.0193
84.7368 0.38 0.84 134.228
44.74056 -1.08 0.84 67.5676
22.97934 -6.72 0.84 31.2989
22.97934 -6.74 0.84 31.2989
26.38116 5.48 0.82 36.9686
26.38116 4.8 0.82 36.9686
10.811580000000001 2.06 0.82 11.0193
84.7368 0.38 0.82 134.228
22.97934 -6.74 0.82 31.2989
26.38116 5.48 0.8 36.9686
26.38116 4.62 0.8 36.9686
10.811580000000001 2.06 0.8 11.0193
84.7368 0.38 0.8 134.228
38.9826 -1.32 0.8 57.971
17.06172 -4.9 0.8 21.4362
22.97934 -6.64 0.8 31.2989
22.97934 -6.74 0.8 31.2989
26.38116 5.48 0.78 36.9686
10.811580000000001 2.06 0.78 11.0193
34.65684 -5.38 0.78 50.7614
24.53898 -6.46 0.78 33.8983
22.97934 -6.62 0.78 31.2989
22.97934 -6.64 0.78 31.2989
26.38116 5.46 0.76 36.9686
26.38116 4.4 0.76 36.9686
10.811580000000001 2.06 0.76 11.0193
24.53898 -6.46 0.76 33.8983
22.97934 -6.62 0.76 31.2989
22.97934 -6.64 0.76 31.2989
24.53898 5.56 0.74 33.8983
26.38116 4.4 0.74 36.9686
10.811580000000001 2.06 0.74 11.0193
22.97934 -3.64 0.74 31.2989
22.97934 -3.66 0.74 31.2989
24.53898 -6.36 0.74 33.8983
24.53898 5.56 0.72 33.8983
26.38116 5.46 0.72 36.9686
26.38116 5.2 0.72 36.9686
26.38116 4.96 0.72 36.9686
10.811580000000001 2.06 0.72 11.0193
24.53898 -6.2 0.72 33.8983
24.53898 -6.36 0.72 33.8983
28.590239999999998 4.46 0.7 40.6504
10.811580000000001 2.06 0.7 11.0193
44.74056 -1.8 0.7 67.5676
24.53898 -6.36 0.7 33.8983
24.53898 -6.38 0.7 33.8983
26.38116 4.82 0.68 36.9686
10.811580000000001 2.06 0.68 11.0193
124.19999999999999 -2.5 0.68 200.0
24.53898 -6.36 0.68 33.8983
26.38116 5.44 0.66 36.9686
28.590239999999998 4.64 0.66 40.6504
10.811580000000001 2.06 0.66 11.0193
10.811580000000001 2.04 0.66 11.0193
52.78302 -2.56 0.66 80.9717
26.38116 5.44 0.64 36.9686
26.38116 4.74 0.64 36.9686
28.590239999999998 4.66 0.64 40.6504
10.811580000000001 2.06 0.64 11.0193
26.38116 5.44 0.62 36.9686
26.38116 4.74 0.62 36.9686
10.811580000000001 2.06 0.62 11.0193
26.38116 -5.88 0.62 36.9686
26.38116 -5.9 0.62 36.9686
26.38116 -5.96 0.62 36.9686
26.38116 5.44 0.6 36.9686
10.811580000000001 2.06 0.6 11.0193
26.38116 -5.9 0.6 36.9686
26.38116 -5.96 0.6 36.9686
24.53898 -6.62 0.6 33.8983
24.53898 -6.64 0.6 33.8983
24.53898 -6.66 0.6 33.8983
22.97934 -6.68 0.6 31.2989
26.38116 5.44 0.58 36.9686
10.811580000000001 2.06 0.58 11.0193
26.38116 -5.96 0.58 36.9686
26.38116 5.44 0.56 36.9686
26.38116 4.84 0.56 36.9686
10.811580000000001 2.06 0.56 11.0193
24.53898 -6.5 0.56 33.8983
10.811580000000001 2.06 0.54 11.0193
10.811580000000001 2.04 0.54 11.0193
24.53898 -6.36 0.54 33.8983
24.53898 -6.38 0.54 33.8983
24.53898 -6.4 0.54 33.8983
24.53898 -6.58 0.54 33.8983
24.53898 -6.6 0.54 33.8983
26.38116 4.62 0.52 36.9686
10.811580000000001 2.1 0.52 11.0193
22.97934 -3.62 0.52 31.2989
34.65684 -5.54 0.52 50.7614
24.53898 -6.36 0.52 33.8983
26.38116 4.62 0.5 36.9686
10.637759999999998 2.14 0.5 10.7296
24.53898 -6.58 0.5 33.8983
10.637759999999998 2.16 0.48 10.7296
26.38116 -6.12 0.48 36.9686
26.38116 -6.14 0.48 36.9686
24.53898 -6.58 0.48 33.8983
26.38116 4.84 0.46 36.9686
10.637759999999998 2.18 0.46 10.7296
10.637759999999998 2.16 0.46 10.7296
26.38116 -6.12 0.46 36.9686
26.38116 -6.14 0.46 36.9686
24.53898 -6.32 0.46 33.8983
24.53898 -6.58 0.46 33.8983
26.38116 4.84 0.44 36.9686
10.637759999999998 2.18 0.44 10.7296
10.637759999999998 2.16 0.44 10.7296
26.38116 -6.12 0.44 36.9686
26.38116 -6.14 0.44 36.9686
24.53898 -6.32 0.44 33.8983
24.53898 -6.58 0.44 33.8983
24.53898 -6.6 0.44 33.8983
10.637759999999998 2.18 0.42 10.7296
24.53898 -6.58 0.42 33.8983
24.53898 -6.6 0.42 33.8983
10.637759999999998 2.18 0.4 10.7296
24.53898 -6.32 0.4 33.8983
26.38116 4.94 0.38 36.9686
10.637759999999998 2.18 0.38 10.7296
24.53898 -6.32 0.38 33.8983
26.38116 4.94 0.36 36.9686
26.38116 4.86 0.36 36.9686
10.637759999999998 2.2 0.36 10.7296
10.637759999999998 2.18 0.36 10.7296
38.9826 -2.88 0.36 57.971
24.53898 -6.32 0.36 33.8983
22.97934 5.82 0.34 31.2989
22.97934 5.6 0.34 31.2989
24.53898 5.36 0.34 33.8983
26.38116 4.94 0.34 36.9686
10.472879999999998 2.2 0.34 10.4548
10.472879999999998 2.18 0.34 10.4548
22.97934 -6.6 0.34 31.2989
22.97934 5.72 0.32 31.2989
22.97934 5.6 0.32 31.2989
24.53898 5.36 0.32 33.8983
10.472879999999998 2.2 0.32 10.4548
10.472879999999998 2.18 0.32 10.4548
22.97934 -6.58 0.32 31.2989
22.97934 -6.6 0.32 31.2989
22.97934 5.72 0.3 31.2989
22.97934 5.6 0.3 31.2989
24.53898 5.4 0.3 33.8983
24.53898 5.36 0.3 33.8983
28.590239999999998 4.72 0.3 40.6504
10.472879999999998 2.2 0.3 10.4548
10.472879999999998 2.18 0.3 10.4548
52.78302 -1.64 0.3 80.9717
52.78302 -1.66 0.3 80.9717
28.590239999999998 -1.76 0.3 40.6504
22.97934 5.72 0.28 31.2989
22.97934 5.6 0.28 31.2989
24.53898 5.36 0.28 33.8983
10.472879999999998 2.2 0.28 10.4548
10.472879999999998 2.18 0.28 10.4548
52.78302 -1.64 0.28 80.9717
52.78302 -1.66 0.28 80.9717
28.590239999999998 -1.74 0.28 40.6504
24.53898 -6.32 0.28 33.8983
24.53898 -6.58 0.28 33.8983
24.53898 -6.6 0.28 33.8983
22.97934 5.6 0.26 31.2989
24.53898 5.36 0.26 33.8983
10.472879999999998 2.2 0.26 10.4548
10.472879999999998 2.18 0.26 10.4548
52.78302 -1.64 0.26 80.9717
52.78302 -1.66 0.26 80.9717
24.53898 -6.32 0.26 33.8983
24.53898 -6.58 0.26 33.8983
24.53898 -6.6 0.26 33.8983
22.97934 5.88 0.24 31.2989
22.97934 5.68 0.24 31.2989
24.53898 5.4 0.24 33.8983
24.53898 5.36 0.24 33.8983
24.53898 5.26 0.24 33.8983
26.38116 4.52 0.24 36.9686
10.472879999999998 2.2 0.24 10.4548
52.78302 -1.64 0.24 80.9717
52.78302 -1.66 0.24 80.9717
44.74056 -2.8 0.24 67.5676
44.74056 -2.82 0.24 67.5676
38.9826 -2.84 0.24 57.971
38.9826 -2.86 0.24 57.971
34.65684 -2.88 0.24 50.7614
34.65684 -2.9 0.24 50.7614
24.53898 -6.58 0.24 33.8983
24.53898 -6.6 0.24 33.8983
22.97934 5.88 0.22 31.2989
22.97934 5.68 0.22 31.2989
24.53898 5.26 0.22 33.8983
26.38116 4.52 0.22 36.9686
84.7368 -2.76 0.22 134.228
52.78302 -2.78 0.22 80.9717
44.74056 -2.8 0.22 67.5676
44.74056 -2.82 0.22 67.5676
38.9826 -2.84 0.22 57.971
38.9826 -2.86 0.22 57.971
38.9826 -4.38 0.22 57.971
24.53898 -6.58 0.22 33.8983
22.97934 5.68 0.2 31.2989
22.97934 5.66 0.2 31.2989
24.53898 5.26 0.2 33.8983
26.38116 4.54 0.2 36.9686
26.38116 4.52 0.2 36.9686
44.74056 -2.82 0.2 67.5676
38.9826 -2.84 0.2 57.971
38.9826 -2.86 0.2 57.971
34.65684 -2.9 0.2 50.7614
22.97934 5.68 0.18 31.2989
24.53898 5.26 0.18 33.8983
26.38116 5.0 0.18 36.9686
26.38116 4.52 0.18 36.9686
10.637759999999998 2.0 0.18 10.7296
22.97934 5.68 0.16 31.2989
24.53898 5.26 0.16 33.8983
26.38116 5.0 0.16 36.9686
17.06172 -4.94 0.16 21.4362
17.06172 -4.96 0.16 21.4362
22.97934 5.66 0.14 31.2989
26.38116 5.0 0.14 36.9686
10.811580000000001 1.88 0.14 11.0193
124.19999999999999 -2.02 0.14 200.0
52.78302 -3.0 0.14 80.9717
52.78302 -3.02 0.14 80.9717
52.78302 -3.04 0.14 80.9717
44.74056 -3.06 0.14 67.5676
17.06172 -4.92 0.14 21.4362
17.06172 -4.94 0.14 21.4362
17.06172 -4.96 0.14 21.4362
22.97934 5.68 0.12 31.2989
22.97934 5.66 0.12 31.2989
24.53898 5.24 0.12 33.8983
26.38116 5.0 0.12 36.9686
26.38116 4.52 0.12 36.9686
10.637759999999998 2.18 0.12 10.7296
10.811580000000001 1.88 0.12 11.0193
64.806 -2.36 0.12 101.01
44.74056 -2.88 0.12 67.5676
64.806 -2.98 0.12 101.01
52.78302 -3.0 0.12 80.9717
52.78302 -3.02 0.12 80.9717
52.78302 -3.04 0.12 80.9717
44.74056 -3.06 0.12 67.5676
17.06172 -4.94 0.12 21.4362
22.97934 5.68 0.1 31.2989
22.97934 5.66 0.1 31.2989
10.637759999999998 2.18 0.1 10.7296
10.811580000000001 1.88 0.1 11.0193
52.78302 -2.84 0.1 80.9717
44.74056 -2.86 0.1 67.5676
44.74056 -2.88 0.1 67.5676
44.74056 -2.9 0.1 67.5676
22.97934 5.68 0.08 31.2989
24.53898 5.24 0.08 33.8983
10.811580000000001 1.88 0.08 11.0193
22.97934 5.68 0.06 31.2989
22.97934 5.66 0.06 31.2989
24.53898 5.24 0.06 33.8983
24.53898 5.0 0.06 33.8983
22.97934 5.66 0.04 31.2989
24.53898 5.24 0.04 33.8983
24.53898 5.0 0.04 33.8983
24.53898 5.24 0.02 33.8983
24.53898 5.16 0.02 33.8983
24.53898 5.0 0.02 33.8983
26.38116 4.62 0.02 36.9686
10.472879999999998 2.14 0.02 10.4548
52.78302 0.8 0.02 80.9717
22.97934 5.5 0.0 31.2989
24.53898 5.36 0.0 33.8983
24.53898 5.24 0.0 33.8983
24.53898 5.16 0.0 33.8983
26.38116 4.62 0.0 36.9686
84.7368 0.12 0.0 134.228
19.467180000000003 -3.86 0.0 25.4453
19.467180000000003 -3.88 0.0 25.4453
19.467180000000003 -3.9 0.0 25.4453
24.53898 5.36 -0.02 33.8983
24.53898 5.16 -0.02 33.8983
84.7368 0.12 -0.02 134.228
19.467180000000003 -3.88 -0.02 25.4453
19.467180000000003 -3.9 -0.02 25.4453
24.53898 5.0 -0.04 33.8983
19.467180000000003 -3.9 -0.04 25.4453
19.467180000000003 -3.92 -0.04 25.4453
24.53898 5.0 -0.06 33.8983
10.811580000000001 1.88 -0.06 11.0193
84.7368 0.12 -0.06 134.228
19.467180000000003 -3.3 -0.06 25.4453
19.467180000000003 -3.32 -0.06 25.4453
20.4822 -3.62 -0.06 27.137
24.53898 5.34 -0.08 33.8983
24.53898 5.0 -0.08 33.8983
10.637759999999998 2.04 -0.08 10.7296
10.811580000000001 1.88 -0.08 11.0193
84.7368 0.12 -0.08 134.228
19.467180000000003 -3.3 -0.08 25.4453
20.4822 -3.44 -0.08 27.137
20.4822 -3.6 -0.08 27.137
20.4822 -3.62 -0.08 27.137
19.467180000000003 -3.92 -0.08 25.4453
22.97934 5.88 -0.1 31.2989
24.53898 5.34 -0.1 33.8983
10.637759999999998 2.04 -0.1 10.7296
22.97934 5.88 -0.12 31.2989
28.590239999999998 4.28 -0.12 40.6504
10.637759999999998 2.04 -0.12 10.7296
18.57126 -3.3 -0.12 23.9521
17.06172 -4.96 -0.12 21.4362
17.06172 -4.98 -0.12 21.4362
22.97934 5.84 -0.14 31.2989
22.97934 5.72 -0.14 31.2989
24.53898 5.18 -0.14 33.8983
10.637759999999998 2.04 -0.14 10.7296
22.97934 5.84 -0.16 31.2989
22.97934 5.82 -0.16 31.2989
22.97934 5.72 -0.16 31.2989
22.97934 5.62 -0.16 31.2989
24.53898 5.18 -0.16 33.8983
10.637759999999998 2.04 -0.16 10.7296
44.74056 -1.62 -0.16 67.5676
28.590239999999998 -2.5 -0.16 40.6504
28.590239999999998 -2.52 -0.16 40.6504
18.57126 -3.3 -0.16 23.9521
20.4822 -3.44 -0.16 27.137
22.97934 5.84 -0.18 31.2989
22.97934 5.82 -0.18 31.2989
22.97934 5.72 -0.18 31.2989
24.53898 5.18 -0.18 33.8983
10.637759999999998 2.04 -0.18 10.7296
44.74056 -1.62 -0.18 67.5676
20.4822 -3.44 -0.18 27.137
20.4822 -3.46 -0.18 27.137
22.97934 5.82 -0.2 31.2989
22.97934 5.56 -0.2 31.2989
24.53898 5.18 -0.2 33.8983
26.38116 4.5 -0.2 36.9686
10.637759999999998 2.04 -0.2 10.7296
44.74056 -1.62 -0.2 67.5676
84.7368 -1.96 -0.2 134.228
19.467180000000003 -3.28 -0.2 25.4453
20.4822 -3.44 -0.2 27.137
24.53898 5.34 -0.22 33.8983
24.53898 5.32 -0.22 33.8983
10.637759999999998 2.04 -0.22 10.7296
84.7368 -1.94 -0.22 134.228
84.7368 -1.96 -0.22 134.228
19.467180000000003 -3.28 -0.22 25.4453
20.4822 -3.42 -0.22 27.137
20.4822 -3.44 -0.22 27.137
19.467180000000003 -3.9 -0.22 25.4453
19.467180000000003 -3.96 -0.22 25.4453
22.97934 5.88 -0.24 31.2989
24.53898 5.32 -0.24 33.8983
24.53898 5.18 -0.24 33.8983
26.38116 4.5 -0.24 36.9686
10.811580000000001 2.04 -0.24 11.0193
44.74056 -1.62 -0.24 67.5676
26.38116 -2.5 -0.24 36.9686
26.38116 -2.52 -0.24 36.9686
20.4822 -2.82 -0.24 27.137
19.467180000000003 -3.26 -0.24 25.4453
19.467180000000003 -3.28 -0.24 25.4453
19.467180000000003 -3.9 -0.24 25.4453
22.97934 5.88 -0.26 31.2989
24.53898 5.18 -0.26 33.8983
10.811580000000001 2.04 -0.26 11.0193
22.97934 5.88 -0.28 31.2989
22.97934 5.52 -0.28 31.2989
22.97934 5.5 -0.28 31.2989
24.53898 5.18 -0.28 33.8983
10.811580000000001 2.04 -0.28 11.0193
84.7368 -1.72 -0.28 134.228
64.806 -1.86 -0.28 101.01
64.806 -1.9 -0.28 101.01
22.97934 5.88 -0.3 31.2989
22.97934 5.5 -0.3 31.2989
24.53898 5.18 -0.3 33.8983
10.811580000000001 2.04 -0.3 11.0193
84.7368 -1.72 -0.3 134.228
84.7368 -1.74 -0.3 134.228
84.7368 -1.76 -0.3 134.228
64.806 -1.88 -0.3 101.01
64.806 -1.9 -0.3 101.01
19.467180000000003 -1.96 -0.3 25.4453
24.53898 -2.58 -0.3 33.8983
24.53898 -2.6 -0.3 33.8983
22.97934 5.88 -0.32 31.2989
24.53898 5.18 -0.32 33.8983
10.811580000000001 2.04 -0.32 11.0193
64.806 -1.88 -0.32 101.01
64.806 -1.9 -0.32 101.01
24.53898 -2.6 -0.32 33.8983
14.82888 -4.44 -0.32 17.7148
14.82888 -4.46 -0.32 17.7148
14.82888 -4.48 -0.32 17.7148
14.386740000000001 -4.5 -0.32 16.9779
24.53898 5.18 -0.34 33.8983
26.38116 4.74 -0.34 36.9686
26.38116 4.68 -0.34 36.9686
15.3111 -4.38 -0.34 18.5185
15.3111 -4.4 -0.34 18.5185
15.3111 -4.42 -0.34 18.5185
13.979940000000001 -4.8 -0.34 16.2999
13.979940000000001 -4.82 -0.34 16.2999
13.979940000000001 -4.84 -0.34 16.2999
14.386740000000001 -5.48 -0.34 16.9779
13.979940000000001 -5.5 -0.34 16.2999
13.979940000000001 -5.52 -0.34 16.2999
13.6044 -5.54 -0.34 15.674
13.6044 -5.56 -0.34 15.674
22.97934 5.88 -0.36 31.2989
10.637759999999998 2.04 -0.36 10.7296
14.386740000000001 -5.08 -0.36 16.9779
14.386740000000001 -5.1 -0.36 16.9779
13.979940000000001 -5.52 -0.36 16.2999
13.6044 -5.54 -0.36 15.674
13.6044 -5.56 -0.36 15.674
13.6044 -5.58 -0.36 15.674
22.97934 5.88 -0.38 31.2989
26.38116 5.14 -0.38 36.9686
10.637759999999998 2.04 -0.38 10.7296
20.4822 -3.18 -0.38 27.137
20.4822 -3.2 -0.38 27.137
22.97934 5.88 -0.4 31.2989
18.57126 -3.52 -0.4 23.9521
18.57126 -3.54 -0.4 23.9521
13.979940000000001 -4.84 -0.4 16.2999
13.6044 -4.86 -0.4 15.674
13.6044 -4.88 -0.4 15.674
13.6044 -4.9 -0.4 15.674
14.386740000000001 -5.42 -0.4 16.9779
14.386740000000001 -5.44 -0.4 16.9779
10.995 -6.58 -0.4 11.325
22.97934 5.82 -0.42 31.2989
10.637759999999998 2.04 -0.42 10.7296
13.6044 -4.86 -0.42 15.674
13.6044 -4.88 -0.42 15.674
13.6044 -4.9 -0.42 15.674
14.82888 -5.38 -0.42 17.7148
14.386740000000001 -5.4 -0.42 16.9779
14.386740000000001 -5.42 -0.42 16.9779
11.18892 -6.52 -0.42 11.6482
10.995 -6.54 -0.42 11.325
22.97934 5.88 -0.44 31.2989
22.97934 5.82 -0.44 31.2989
24.53898 5.46 -0.44 33.8983
24.53898 5.26 -0.44 33.8983
24.53898 5.0 -0.44 33.8983
26.38116 4.6 -0.44 36.9686
26.38116 -2.52 -0.44 36.9686
26.38116 -2.54 -0.44 36.9686
13.6044 -4.88 -0.44 15.674
13.6044 -4.9 -0.44 15.674
22.97934 5.88 -0.46 31.2989
24.53898 5.26 -0.46 33.8983
26.38116 4.6 -0.46 36.9686
10.637759999999998 2.04 -0.46 10.7296
19.467180000000003 -3.2 -0.46 25.4453
17.77464 -3.62 -0.46 22.6244
13.6044 -4.88 -0.46 15.674
13.6044 -4.9 -0.46 15.674
11.18892 -6.46 -0.46 11.6482
22.97934 5.88 -0.48 31.2989
24.53898 5.26 -0.48 33.8983
10.637759999999998 2.04 -0.48 10.7296
22.97934 -2.82 -0.48 31.2989
19.467180000000003 -3.2 -0.48 25.4453
13.6044 -4.88 -0.48 15.674
13.6044 -4.9 -0.48 15.674
22.97934 5.88 -0.5 31.2989
24.53898 5.26 -0.5 33.8983
10.637759999999998 2.04 -0.5 10.7296
13.6044 -4.9 -0.5 15.674
22.97934 5.88 -0.52 31.2989
28.590239999999998 -2.28 -0.52 40.6504
28.590239999999998 -2.3 -0.52 40.6504
26.38116 -2.42 -0.52 36.9686
20.4822 -2.88 -0.52 27.137
19.467180000000003 -3.2 -0.52 25.4453
13.6044 -4.86 -0.52 15.674
13.6044 -4.88 -0.52 15.674
13.6044 -4.9 -0.52 15.674
13.6044 -4.92 -0.52 15.674
14.82888 -5.42 -0.52 17.7148
14.82888 -5.44 -0.52 17.7148
14.82888 -5.46 -0.52 17.7148
28.590239999999998 -2.28 -0.54 40.6504
26.38116 -2.42 -0.54 36.9686
26.38116 -2.44 -0.54 36.9686
20.4822 -3.08 -0.54 27.137
17.77464 -3.14 -0.54 22.6244
16.419959999999996 -3.86 -0.54 20.3666
14.386740000000001 -4.38 -0.54 16.9779
13.6044 -4.88 -0.54 15.674
13.6044 -4.9 -0.54 15.674
13.6044 -4.92 -0.54 15.674
22.97934 5.88 -0.56 31.2989
24.53898 5.0 -0.56 33.8983
20.4822 -3.08 -0.56 27.137
17.77464 -3.14 -0.56 22.6244
16.419959999999996 -3.86 -0.56 20.3666
16.419959999999996 -3.88 -0.56 20.3666
13.6044 -4.9 -0.56 15.674
13.6044 -4.92 -0.56 15.674
13.25658 -4.94 -0.56 15.0943
13.6044 -5.76 -0.56 15.674
22.97934 5.88 -0.58 31.2989
17.77464 -3.14 -0.58 22.6244
19.467180000000003 -3.2 -0.58 25.4453
19.467180000000003 -3.22 -0.58 25.4453
17.06172 -3.58 -0.58 21.4362
16.419959999999996 -3.86 -0.58 20.3666
16.419959999999996 -3.88 -0.58 20.3666
13.6044 -5.78 -0.58 15.674
13.25658 -5.8 -0.58 15.0943
22.97934 5.88 -0.6 31.2989
26.38116 -2.56 -0.6 36.9686
22.97934 -2.72 -0.6 31.2989
20.4822 -3.08 -0.6 27.137
16.419959999999996 -3.86 -0.6 20.3666
16.419959999999996 -3.88 -0.6 20.3666
13.6044 -5.74 -0.6 15.674
13.6044 -5.76 -0.6 15.674
13.6044 -5.78 -0.6 15.674
13.25658 -5.8 -0.6 15.0943
13.25658 -5.82 -0.6 15.0943
13.25658 -5.84 -0.6 15.0943
22.97934 5.88 -0.62 31.2989
22.97934 5.82 -0.62 31.2989
22.97934 -2.72 -0.62 31.2989
22.97934 -2.74 -0.62 31.2989
20.4822 -3.08 -0.62 27.137
16.419959999999996 -3.86 -0.62 20.3666
16.419959999999996 -3.88 -0.62 20.3666
13.6044 -5.78 -0.62 15.674
13.25658 -5.8 -0.62 15.0943
13.25658 -5.82 -0.62 15.0943
22.97934 5.88 -0.64 31.2989
22.97934 -2.7 -0.64 31.2989
22.97934 -2.72 -0.64 31.2989
20.4822 -3.08 -0.64 27.137
18.57126 -3.3 -0.64 23.9521
18.57126 -3.32 -0.64 23.9521
16.419959999999996 -3.88 -0.64 20.3666
16.419959999999996 -3.9 -0.64 20.3666
13.6044 -5.66 -0.64 15.674
13.6044 -5.68 -0.64 15.674
22.97934 5.88 -0.66 31.2989
18.57126 -3.3 -0.66 23.9521
18.57126 -3.32 -0.66 23.9521
16.419959999999996 -3.86 -0.66 20.3666
16.419959999999996 -3.88 -0.66 20.3666
16.419959999999996 -3.9 -0.66 20.3666
15.83916 -4.0 -0.66 19.3986
13.979940000000001 -4.74 -0.66 16.2999
13.979940000000001 -4.76 -0.66 16.2999
13.6044 -5.64 -0.66 15.674
13.6044 -5.66 -0.66 15.674
13.6044 -5.68 -0.66 15.674
22.97934 5.88 -0.68 31.2989
22.97934 5.82 -0.68 31.2989
15.83916 -3.96 -0.68 19.3986
15.83916 -3.98 -0.68 19.3986
11.18892 -6.22 -0.68 11.6482
11.18892 -6.24 -0.68 11.6482
11.18892 -6.26 -0.68 11.6482
22.97934 5.88 -0.7 31.2989
24.53898 -1.64 -0.7 33.8983
21.64188 -2.86 -0.7 29.0698
21.64188 -2.88 -0.7 29.0698
21.64188 -2.94 -0.7 29.0698
17.06172 -3.62 -0.7 21.4362
17.06172 -3.64 -0.7 21.4362
17.06172 -3.66 -0.7 21.4362
15.3111 -3.7 -0.7 18.5185
15.3111 -3.72 -0.7 18.5185
15.83916 -3.94 -0.7 19.3986
15.83916 -3.96 -0.7 19.3986
13.979940000000001 -4.06 -0.7 16.2999
13.979940000000001 -4.08 -0.7 16.2999
13.979940000000001 -4.74 -0.7 16.2999
13.979940000000001 -4.76 -0.7 16.2999
22.97934 5.88 -0.72 31.2989
24.53898 -1.62 -0.72 33.8983
21.64188 -2.84 -0.72 29.0698
21.64188 -2.86 -0.72 29.0698
21.64188 -2.88 -0.72 29.0698
21.64188 -2.94 -0.72 29.0698
21.64188 -2.96 -0.72 29.0698
20.4822 -3.14 -0.72 27.137
20.4822 -3.16 -0.72 27.137
13.6044 -5.16 -0.72 15.674
13.6044 -5.18 -0.72 15.674
22.97934 5.88 -0.74 31.2989
22.97934 5.82 -0.74 31.2989
20.4822 -3.14 -0.74 27.137
20.4822 -3.16 -0.74 27.137
13.6044 -5.14 -0.74 15.674
13.6044 -5.16 -0.74 15.674
13.6044 -5.18 -0.74 15.674
13.6044 -5.62 -0.74 15.674
13.6044 -5.64 -0.74 15.674
11.394240000000002 -6.18 -0.74 11.9904
11.394240000000002 -6.2 -0.74 11.9904
11.394240000000002 -6.22 -0.74 11.9904
11.394240000000002 -6.24 -0.74 11.9904
11.394240000000002 -6.32 -0.74 11.9904
11.394240000000002 -6.34 -0.74 11.9904
22.97934 5.88 -0.76 31.2989
22.97934 5.82 -0.76 31.2989
24.53898 5.16 -0.76 33.8983
14.82888 -4.08 -0.76 17.7148
13.25658 -5.16 -0.76 15.0943
13.6044 -5.62 -0.76 15.674
11.394240000000002 -6.2 -0.76 11.9904
11.394240000000002 -6.3 -0.76 11.9904
11.394240000000002 -6.32 -0.76 11.9904
11.394240000000002 -6.34 -0.76 11.9904
22.97934 5.88 -0.78 31.2989
15.3111 -4.0 -0.78 18.5185
15.3111 -4.02 -0.78 18.5185
13.25658 -5.16 -0.78 15.0943
13.25658 -5.18 -0.78 15.0943
12.3522 -5.26 -0.78 13.587
13.6044 -5.58 -0.78 15.674
13.6044 -5.6 -0.78 15.674
13.6044 -5.62 -0.78 15.674
13.6044 -5.64 -0.78 15.674
16.419959999999996 -3.72 -0.8 20.3666
15.3111 -4.02 -0.8 18.5185
15.3111 -4.04 -0.8 18.5185
13.6044 -5.18 -0.8 15.674
13.6044 -5.58 -0.8 15.674
13.6044 -5.6 -0.8 15.674
13.6044 -5.62 -0.8 15.674
16.419959999999996 -3.72 -0.82 20.3666
12.63288 -5.78 -0.82 14.0548
11.394240000000002 -6.26 -0.82 11.9904
11.394240000000002 -6.28 -0.82 11.9904
11.18892 -6.44 -0.82 11.6482
11.18892 -6.46 -0.82 11.6482
15.3111 -4.02 -0.84 18.5185
15.3111 -4.04 -0.84 18.5185
13.979940000000001 -4.52 -0.84 16.2999
13.979940000000001 -4.54 -0.84 16.2999
13.979940000000001 -4.56 -0.84 16.2999
13.6044 -5.7 -0.84 15.674
13.6044 -5.72 -0.84 15.674
11.18892 -6.46 -0.84 11.6482
18.57126 -3.34 -0.86 23.9521
18.57126 -3.36 -0.86 23.9521
16.419959999999996 -3.72 -0.86 20.3666
16.419959999999996 -3.74 -0.86 20.3666
15.3111 -4.04 -0.86 18.5185
15.3111 -4.06 -0.86 18.5185
13.979940000000001 -4.52 -0.86 16.2999
13.979940000000001 -4.54 -0.86 16.2999
13.6044 -4.6 -0.86 15.674
12.63288 -4.62 -0.86 14.0548
12.63288 -4.64 -0.86 14.0548
19.467180000000003 -1.68 -0.88 25.4453
18.57126 -3.32 -0.88 23.9521
18.57126 -3.34 -0.88 23.9521
18.57126 -3.36 -0.88 23.9521
15.3111 -3.44 -0.88 18.5185
16.419959999999996 -3.72 -0.88 20.3666
13.979940000000001 -4.5 -0.88 16.2999
13.979940000000001 -4.52 -0.88 16.2999
13.979940000000001 -4.54 -0.88 16.2999
12.63288 -4.64 -0.88 14.0548
12.63288 -4.66 -0.88 14.0548
18.57126 -3.32 -0.9 23.9521
18.57126 -3.34 -0.9 23.9521
16.419959999999996 -3.7 -0.9 20.3666
16.419959999999996 -3.72 -0.9 20.3666
13.979940000000001 -4.5 -0.9 16.2999
13.979940000000001 -4.52 -0.9 16.2999
16.419959999999996 -3.7 -0.92 20.3666
16.419959999999996 -3.72 -0.92 20.3666
15.3111 -4.06 -0.92 18.5185
13.979940000000001 -4.52 -0.92 16.2999
11.394240000000002 -5.96 -0.92 11.9904
11.394240000000002 -5.98 -0.92 11.9904
11.61198 -6.0 -0.92 12.3533
17.06172 -3.7 -0.94 21.4362
17.06172 -3.72 -0.94 21.4362
15.3111 -4.04 -0.94 18.5185
15.3111 -4.06 -0.94 18.5185
15.3111 -4.08 -0.94 18.5185
13.979940000000001 -4.5 -0.94 16.2999
13.979940000000001 -4.52 -0.94 16.2999
13.6044 -4.66 -0.94 15.674
17.06172 -3.7 -0.96 21.4362
17.06172 -3.72 -0.96 21.4362
15.3111 -4.06 -0.96 18.5185
15.3111 -4.08 -0.96 18.5185
13.979940000000001 -4.5 -0.96 16.2999
13.979940000000001 -4.52 -0.96 16.2999
11.61198 -6.04 -0.96 12.3533
11.61198 -6.06 -0.96 12.3533
11.61198 -6.08 -0.96 12.3533
11.394240000000002 -6.1 -0.96 11.9904
10.811580000000001 1.86 -0.98 11.0193
17.06172 -3.7 -0.98 21.4362
17.06172 -3.72 -0.98 21.4362
15.3111 -4.06 -0.98 18.5185
15.3111 -4.08 -0.98 18.5185
13.979940000000001 -4.48 -0.98 16.2999
13.979940000000001 -4.5 -0.98 16.2999
13.979940000000001 -4.52 -0.98 16.2999
13.6044 -4.62 -0.98 15.674
11.61198 -6.06 -0.98 12.3533
11.61198 -6.08 -0.98 12.3533
13.979940000000001 -4.48 -1.0 16.2999
13.979940000000001 -4.5 -1.0 16.2999
13.979940000000001 -4.52 -1.0 16.2999
13.6044 -4.68 -1.0 15.674
12.08952 -5.96 -1.0 13.1492
12.08952 -5.98 -1.0 13.1492
13.979940000000001 -4.48 -1.02 16.2999
13.979940000000001 -4.5 -1.02 16.2999
13.979940000000001 -4.52 -1.02 16.2999
13.979940000000001 -4.5 -1.04 16.2999
13.979940000000001 -4.52 -1.04 16.2999
13.6044 -4.7 -1.04 15.674
15.83916 -3.9 -1.06 19.3986
15.83916 -3.92 -1.06 19.3986
13.6044 -4.7 -1.06 15.674
11.843340000000001 -5.8 -1.06 12.7389
11.843340000000001 -5.82 -1.06 12.7389
11.843340000000001 -5.84 -1.06 12.7389
11.61198 -5.86 -1.06 12.3533
15.83916 -3.92 -1.08 19.3986
15.83916 -3.94 -1.08 19.3986
15.3111 -3.96 -1.08 18.5185
11.843340000000001 -5.8 -1.08 12.7389
11.843340000000001 -5.82 -1.08 12.7389
11.843340000000001 -5.84 -1.08 12.7389
11.61198 -5.86 -1.08 12.3533
11.394240000000002 -5.88 -1.08 11.9904
15.83916 -3.94 -1.1 19.3986
15.3111 -3.96 -1.1 18.5185
15.3111 -3.98 -1.1 18.5185
13.6044 -4.72 -1.1 15.674
11.843340000000001 -5.8 -1.1 12.7389
11.843340000000001 -5.82 -1.1 12.7389
13.979940000000001 -4.62 -1.12 16.2999
13.6044 -4.88 -1.12 15.674
13.6044 -4.9 -1.12 15.674
13.6044 -4.92 -1.12 15.674
13.25658 -4.94 -1.12 15.0943
11.843340000000001 -5.8 -1.12 12.7389
11.61198 -5.82 -1.12 12.3533
15.3111 -1.94 -1.14 18.5185
13.979940000000001 -4.6 -1.14 16.2999
13.979940000000001 -4.62 -1.14 16.2999
13.979940000000001 -4.64 -1.14 16.2999
13.6044 -4.86 -1.14 15.674
13.6044 -4.88 -1.14 15.674
13.6044 -4.9 -1.14 15.674
11.61198 -5.86 -1.14 12.3533
11.18892 -5.88 -1.14 11.6482
13.979940000000001 -4.52 -1.16 16.2999
13.979940000000001 -4.62 -1.16 16.2999
11.61198 -5.78 -1.16 12.3533
11.61198 -5.8 -1.16 12.3533
13.6044 -4.64 -1.22 15.674
13.6044 -4.66 -1.22 15.674
13.6044 -4.68 -1.22 15.674
13.979940000000001 -5.52 -1.22 16.2999
13.6044 -5.54 -1.22 15.674
13.6044 -5.56 -1.22 15.674
13.6044 -5.58 -1.22 15.674
12.08952 -5.74 -1.22 13.1492
13.979940000000001 -4.6 -1.24 16.2999
13.979940000000001 -4.62 -1.24 16.2999
13.6044 -4.64 -1.24 15.674
13.6044 -4.66 -1.24 15.674
13.6044 -5.56 -1.24 15.674
13.6044 -5.58 -1.24 15.674
12.08952 -5.74 -1.24 13.1492
13.979940000000001 -4.62 -1.26 16.2999
13.6044 -4.64 -1.26 15.674
13.6044 -4.86 -1.3 15.674
11.61198 -5.98 -1.34 12.3533
11.61198 -6.0 -1.34 12.3533
11.394240000000002 -6.06 -1.34 11.9904
11.843340000000001 -5.74 -1.36 12.7389
11.843340000000001 -5.76 -1.36 12.7389
11.843340000000001 -5.72 -1.38 12.7389
11.843340000000001 -5.74 -1.38 12.7389
11.843340000000001 -5.76 -1.38 12.7389
12.63288 2.92 -1.4 14.0548
12.63288 1.5 -1.4 14.0548
11.843340000000001 -5.74 -1.4 12.7389
11.843340000000001 -5.76 -1.4 12.7389
11.843340000000001 -5.76 -1.42 12.7389
11.843340000000001 -5.74 -1.44 12.7389
11.843340000000001 -5.76 -1.44 12.7389
11.843340000000001 -5.78 -1.44 12.7389
12.08952 1.58 -1.46 13.1492
11.843340000000001 -5.76 -1.46 12.7389
11.843340000000001 -5.78 -1.46 12.7389
11.843340000000001 -5.76 -1.48 12.7389
11.843340000000001 -5.78 -1.48 12.7389
11.843340000000001 -5.78 -1.5 12.7389
11.61198 -6.18 -1.5 12.3533
11.61198 -6.2 -1.5 12.3533
11.61198 -6.22 -1.5 12.3533
11.843340000000001 -5.78 -1.52 12.7389
11.843340000000001 -5.8 -1.52 12.7389
11.61198 -6.16 -1.52 12.3533
11.61198 -6.18 -1.52 12.3533
11.61198 -6.2 -1.52 12.3533
11.61198 -6.22 -1.52 12.3533
11.843340000000001 3.6 -1.54 12.7389
11.843340000000001 -5.78 -1.54 12.7389
11.843340000000001 -5.8 -1.54 12.7389
11.61198 -6.18 -1.54 12.3533
11.843340000000001 3.58 -1.56 12.7389
11.61198 -5.8 -1.56 12.3533
11.61198 -5.82 -1.56 12.3533
11.61198 -5.84 -1.56 12.3533
10.811580000000001 -6.4 -1.56 11.0193
10.316220000000001 -6.42 -1.56 10.1937
10.16718 -6.46 -1.56 9.9453
10.16718 -6.48 -1.56 9.9453
11.18892 1.84 -1.58 11.6482
11.61198 -5.82 -1.58 12.3533
11.61198 -5.84 -1.58 12.3533
11.18892 1.56 -1.6 11.6482
12.933599999999998 -2.44 -1.6 14.556
12.63288 -2.46 -1.6 14.0548
12.08952 -2.5 -1.6 13.1492
11.843340000000001 -2.52 -1.6 12.7389
11.61198 -2.54 -1.6 12.3533
11.61198 -2.56 -1.6 12.3533
11.18892 2.54 -1.62 11.6482
12.63288 -2.46 -1.62 14.0548
12.3522 -2.48 -1.62 13.587
12.08952 -2.5 -1.62 13.1492
11.843340000000001 -2.52 -1.62 12.7389
11.61198 -2.54 -1.62 12.3533
11.61198 -2.56 -1.62 12.3533
11.61198 -2.58 -1.62 12.3533
11.394240000000002 -6.06 -1.62 11.9904
11.394240000000002 -6.08 -1.62 11.9904
11.18892 3.46 -1.64 11.6482
11.18892 2.52 -1.64 11.6482
11.394240000000002 -6.08 -1.64 11.9904
11.394240000000002 -6.1 -1.64 11.9904
11.18892 3.66 -1.66 11.6482
10.995 2.86 -1.66 11.325
11.18892 4.18 -1.68 11.6482
11.18892 3.72 -1.68 11.6482
11.18892 3.72 -1.7 11.6482
11.18892 -6.16 -1.7 11.6482
10.637759999999998 2.92 -1.74 10.7296
10.995 4.48 -1.76 11.325
10.811580000000001 1.66 -1.76 11.0193
10.811580000000001 1.64 -1.76 11.0193
10.995 -6.54 -1.78 11.325
10.995 -6.56 -1.78 11.325
10.316220000000001 4.64 -1.8 10.1937
10.316220000000001 4.64 -1.82 10.1937
10.316220000000001 4.62 -1.84 10.1937
10.16718 3.08 -1.84 9.9453
10.316220000000001 4.6 -1.86 10.1937
10.316220000000001 4.58 -1.86 10.1937
10.316220000000001 4.44 -1.86 10.1937
10.16718 3.08 -1.86 9.9453
10.16718 3.06 -1.86 9.9453
10.16718 1.92 -1.86 9.9453
10.16718 1.9 -1.86 9.9453
10.316220000000001 4.84 -1.88 10.1937
10.025244 2.64 -1.88 9.70874
10.316220000000001 4.98 -1.9 10.1937
10.316220000000001 4.82 -1.9 10.1937
10.025244 3.2 -1.9 9.70874
10.025244 2.62 -1.9 9.70874
10.16718 5.08 -1.92 9.9453
10.025244 2.7 -1.92 9.70874
10.025244 2.68 -1.92 9.70874
9.760704 3.9 -1.94 9.26784
9.760704 3.88 -1.94 9.26784
10.025244 2.68 -1.94 9.70874
10.025244 2.66 -1.94 9.70874
9.889902000000001 2.2 -1.94 9.48317
9.889902000000001 2.18 -1.94 9.48317
10.025244 5.34 -1.96 9.70874
10.025244 5.32 -1.96 9.70874
9.889902000000001 4.6 -1.96 9.48317
9.889902000000001 4.58 -1.96 9.48317
9.889902000000001 4.0 -1.96 9.48317
9.889902000000001 3.18 -1.96 9.48317
9.889902000000001 3.16 -1.96 9.48317
9.760704 2.04 -1.96 9.26784
10.472879999999998 -2.94 -1.96 10.4548
10.472879999999998 -2.96 -1.96 10.4548
9.51915 -3.06 -1.96 8.86525
10.025244 5.44 -1.98 9.70874
9.889902000000001 4.6 -1.98 9.48317
9.889902000000001 4.58 -1.98 9.48317
9.51915 -3.08 -1.98 8.86525
9.51915 -3.1 -1.98 8.86525
10.16718 -5.5 -1.98 9.9453
10.16718 -5.52 -1.98 9.9453
10.16718 -5.54 -1.98 9.9453
9.889902000000001 4.62 -2.0 9.48317
9.637241999999999 4.28 -2.0 9.06207
9.760704 5.64 -2.04 9.26784
9.760704 5.62 -2.04 9.26784
9.637241999999999 3.36 -2.04 9.06207
9.637241999999999 3.26 -2.04 9.06207
9.760704 1.9 -2.04 9.26784
9.51915 3.42 -2.06 8.86525
9.637241999999999 3.24 -2.06 9.06207
9.406074 4.46 -2.08 8.67679
9.297708 3.76 -2.08 8.49618
9.51915 3.38 -2.08 8.86525
9.297708 4.6 -2.1 8.49618
9.406074 3.42 -2.12 8.67679
9.193757999999999 3.82 -2.14 8.32293
9.193757999999999 4.32 -2.16 8.32293
9.193757999999999 5.6 -2.18 8.32293
9.193757999999999 5.58 -2.18 8.32293
9.193757999999999 2.38 -2.18 8.32293
9.297708 2.26 -2.18 8.49618
9.297708 2.24 -2.18 8.49618
9.406074 -6.64 -2.18 8.67679
9.093966 5.4 -2.22 8.15661
8.99808 4.44 -2.22 7.9968
8.905884 4.8 -2.26 7.84314
8.905884 4.48 -2.26 7.84314
8.817162000000001 5.0 -2.28 7.69527
8.905884 4.5 -2.28 7.84314
8.905884 4.48 -2.28 7.84314
8.817162000000001 4.98 -2.3 7.69527
8.731722000000001 4.58 -2.3 7.55287
9.193757999999999 3.54 -2.3 8.32293
8.817162000000001 3.5 -2.3 7.69527
8.731722000000001 3.48 -2.3 7.55287
8.731722000000001 3.36 -2.3 7.55287
8.817162000000001 3.22 -2.3 7.69527
8.817162000000001 3.2 -2.3 7.69527
8.817162000000001 5.02 -2.32 7.69527
8.731722000000001 4.6 -2.32 7.55287
8.731722000000001 4.58 -2.32 7.55287
8.731722000000001 3.6 -2.32 7.55287
8.731722000000001 3.48 -2.32 7.55287
8.731722000000001 3.46 -2.32 7.55287
8.64939 3.44 -2.32 7.41565
8.731722000000001 4.6 -2.34 7.55287
8.64939 3.42 -2.34 7.41565
8.731722000000001 4.6 -2.36 7.55287
8.64939 4.52 -2.36 7.41565
8.569992 4.4 -2.36 7.28332
8.569992 4.38 -2.36 7.28332
8.731722000000001 5.66 -2.38 7.55287
8.64939 5.16 -2.38 7.41565
8.569992 4.38 -2.38 7.28332
8.64939 3.86 -2.38 7.41565
8.731722000000001 5.66 -2.4 7.55287
8.569992 4.44 -2.4 7.28332
8.569992 4.42 -2.4 7.28332
8.64939 3.54 -2.4 7.41565
8.64939 3.52 -2.4 7.41565
8.569992 3.06 -2.4 7.28332
8.569992 4.42 -2.42 7.28332
8.493384 3.72 -2.42 7.15564
8.64939 3.52 -2.42 7.41565
8.64939 3.5 -2.42 7.41565
8.493384 3.12 -2.42 7.15564
8.569992 2.84 -2.42 7.28332
8.493384 3.74 -2.44 7.15564
8.493384 3.72 -2.44 7.15564
8.493384 3.7 -2.44 7.15564
8.493384 3.12 -2.44 7.15564
8.493384 3.1 -2.44 7.15564
8.493384 3.1 -2.46 7.15564
8.493384 3.08 -2.46 7.15564
8.419410000000001 5.04 -2.48 7.03235
8.419410000000001 5.02 -2.48 7.03235
8.27886 3.58 -2.48 6.7981
8.64939 2.14 -2.48 7.41565
8.347944 5.16 -2.5 6.91324
8.419410000000001 5.02 -2.5 7.03235
8.27886 3.62 -2.5 6.7981
8.27886 3.6 -2.5 6.7981
8.347944 5.24 -2.52 6.91324
8.347944 5.22 -2.52 6.91324
8.347944 4.92 -2.52 6.91324
8.419410000000001 4.4 -2.52 7.03235
8.419410000000001 4.38 -2.52 7.03235
8.347944 4.0 -2.52 6.91324
8.347944 5.22 -2.54 6.91324
8.347944 5.2 -2.54 6.91324
8.347944 4.9 -2.54 6.91324
8.347944 4.0 -2.54 6.91324
8.347944 3.98 -2.54 6.91324
8.347944 4.96 -2.56 6.91324
8.347944 4.46 -2.56 6.91324
8.347944 4.44 -2.56 6.91324
8.347944 4.42 -2.56 6.91324
8.347944 4.0 -2.56 6.91324
8.347944 4.46 -2.58 6.91324
8.27886 4.0 -2.58 6.7981
8.27886 3.98 -2.58 6.7981
8.147369999999999 5.42 -2.6 6.57895
8.64939 2.16 -2.6 7.41565
8.147369999999999 3.36 -2.64 6.57895
8.147369999999999 3.36 -2.66 6.57895
8.147369999999999 3.34 -2.66 6.57895
8.817162000000001 -3.92 -2.66 7.69527
8.024094 4.2 -2.68 6.37349
8.024094 4.18 -2.68 6.37349
8.212038 2.86 -2.68 6.68673
8.64939 -3.98 -2.68 7.41565
8.493384 -4.0 -2.68 7.15564
8.27886 -4.16 -2.68 6.7981
8.212038 -4.18 -2.68 6.68673
8.212038 -4.2 -2.68 6.68673
7.965294 5.54 -2.7 6.27549
7.965294 5.52 -2.7 6.27549
7.965294 4.36 -2.7 6.27549
8.024094 4.2 -2.7 6.37349
8.024094 4.18 -2.7 6.37349
8.024094 4.16 -2.7 6.37349
8.024094 4.14 -2.7 6.37349
8.024094 4.12 -2.7 6.37349
8.024094 4.1 -2.7 6.37349
8.024094 4.08 -2.7 6.37349
8.493384 -4.0 -2.7 7.15564
8.419410000000001 -4.02 -2.7 7.03235
8.419410000000001 -4.04 -2.7 7.03235
8.347944 -4.06 -2.7 6.91324
8.27886 -4.08 -2.7 6.7981
8.27886 -4.1 -2.7 6.7981
8.27886 -4.12 -2.7 6.7981
8.27886 -4.14 -2.7 6.7981
8.27886 -4.16 -2.7 6.7981
8.212038 -4.18 -2.7 6.68673
8.212038 -4.2 -2.7 6.68673
8.084754 -4.22 -2.7 6.47459
7.965294 5.6 -2.72 6.27549
7.965294 5.58 -2.72 6.27549
7.965294 5.52 -2.72 6.27549
7.908282 5.1 -2.72 6.18047
7.965294 4.36 -2.72 6.27549
7.965294 4.34 -2.72 6.27549
8.024094 4.08 -2.72 6.37349
8.347944 -4.06 -2.72 6.91324
8.27886 -4.08 -2.72 6.7981
8.27886 -4.1 -2.72 6.7981
8.27886 -4.12 -2.72 6.7981
8.27886 -4.14 -2.72 6.7981
8.27886 -4.16 -2.72 6.7981
8.212038 -4.18 -2.72 6.68673
8.212038 -4.2 -2.72 6.68673
8.084754 -4.22 -2.72 6.47459
8.084754 -4.24 -2.72 6.47459
7.965294 5.6 -2.74 6.27549
7.965294 5.58 -2.74 6.27549
7.965294 5.56 -2.74 6.27549
7.965294 4.78 -2.74 6.27549
7.965294 4.44 -2.74 6.27549
7.908282 3.54 -2.74 6.18047
8.147369999999999 2.8 -2.74 6.57895
7.965294 4.78 -2.76 6.27549
7.965294 4.76 -2.76 6.27549
7.965294 4.48 -2.76 6.27549
7.965294 4.46 -2.76 6.27549
7.965294 4.44 -2.76 6.27549
7.965294 4.42 -2.76 6.27549
7.908282 3.6 -2.76 6.18047
