VERSION .7
FIELDS x y z rgb
SIZE 4 4 4 4
TYPE F F F F
COUNT 1 1 1 1
WIDTH 857
HEIGHT 1
VIEWPOINT 0 0 0 1 0 0 0
POINTS 857
DATA ascii
9.68244 4.34 -4.08 5000004.2061
9.68244 4.32 -4.08 5000004.2061
9.699956 4.24 -4.08 5000004.24989
9.699956 4.22 -4.08 5000004.24989
9.813236 3.84 -4.08 5000004.53309
9.813236 3.82 -4.08 5000004.53309
9.813236 3.8 -4.08 5000004.53309
9.699956 4.3 -4.1 5000004.24989
9.699956 4.28 -4.1 5000004.24989
9.699956 4.22 -4.1 5000004.24989
9.813236 3.82 -4.1 5000004.53309
9.699956 4.26 -4.12 5000004.24989
9.699956 4.2 -4.12 5000004.24989
9.699956 4.18 -4.12 5000004.24989
9.66528 4.56 -4.14 5000004.1632
9.699956 4.26 -4.14 5000004.24989
9.631988 4.68 -4.16 5000004.07997
9.66528 4.56 -4.16 5000004.1632
9.699956 4.24 -4.16 5000004.24989
9.631988 4.68 -4.18 5000004.07997
9.631988 4.66 -4.18 5000004.07997
9.699956 4.24 -4.18 5000004.24989
9.736112 4.12 -4.18 5000004.34028
9.699956 4.24 -4.2 5000004.24989
9.754771999999999 3.98 -4.2 5000004.38693
9.754771999999999 3.98 -4.22 5000004.38693
9.754771999999999 3.96 -4.22 5000004.38693
9.717844 4.26 -4.24 5000004.29461
9.717844 4.24 -4.24 5000004.29461
9.631988 4.52 -4.26 5000004.07997
9.717844 4.24 -4.26 5000004.29461
9.736112 2.22 -4.26 5000004.34028
9.615836 4.66 -4.28 5000004.03959
9.631988 4.52 -4.28 5000004.07997
9.699956 4.24 -4.28 5000004.24989
9.699956 4.22 -4.28 5000004.24989
9.699956 4.22 -4.3 5000004.24989
9.699956 -4.68 -4.3 5000004.24989
9.699956 -4.7 -4.3 5000004.24989
9.615836 4.74 -4.32 5000004.03959
9.699956 4.22 -4.32 5000004.24989
9.717844 4.02 -4.32 5000004.29461
9.717844 3.4 -4.32 5000004.29461
9.717844 3.38 -4.32 5000004.29461
9.717844 1.06 -4.32 5000004.29461
9.717844 1.04 -4.32 5000004.29461
9.699956 -2.44 -4.32 5000004.24989
9.699956 -1.92 -4.36 5000004.24989
9.699956 -1.94 -4.36 5000004.24989
9.66528 1.96 -4.4 5000004.1632
9.66528 1.94 -4.4 5000004.1632
9.66528 1.92 -4.4 5000004.1632
9.68244 4.3 -4.42 5000004.2061
9.66528 4.3 -4.44 5000004.1632
9.648464 -0.46 -4.46 5000004.12116
9.648464 -0.48 -4.46 5000004.12116
9.615836 -5.46 -4.46 5000004.03959
9.773836 4.4 -4.48 5000004.43459
9.631988 4.28 -4.48 5000004.07997
9.66528 0.94 -4.48 5000004.1632
9.66528 0.92 -4.48 5000004.1632
9.631988 4.34 -4.5 5000004.07997
9.773836 4.44 -4.52 5000004.43459
9.631988 4.34 -4.52 5000004.07997
9.631988 4.32 -4.52 5000004.07997
9.631988 4.3 -4.52 5000004.07997
9.615836 -2.1 -4.52 5000004.03959
9.615836 1.18 -4.56 5000004.03959
9.615836 1.16 -4.56 5000004.03959
9.615836 0.14 -4.56 5000004.03959
9.615836 2.78 -4.58 5000004.03959
9.615836 0.14 -4.58 5000004.03959
9.615836 4.66 -4.66 5000004.03959
9.615836 4.68 -4.68 5000004.03959
0018.5185
10.617283333333333 -12.7 1.8 5000018.5185
10.678886666666667 -13.166666666666666 1.8 5000020.3666
10.678886666666667 -13.2 1.8 5000020.3666
10.590493333333333 -13.8 1.8 5000017.7148
10.522466666666666 -14.633333333333333 1.8 5000015.674
10.522466666666666 -14.666666666666666 1.8 5000015.674
10.522466666666666 -14.7 1.8 5000015.674
10.503143333333334 -14.733333333333333 1.8 5000015.0943
10.4852 -14.833333333333334 1.8 5000014.556
10.4852 -14.866666666666667 1.8 5000014.556
10.4852 -14.9 1.8 5000014.556
10.33151 -3.2333333333333334 1.7666666666666666 5000009.9453
10.754146666666667 -12.466666666666667 1.7666666666666666 5000022.6244
10.754146666666667 -12.5 1.7666666666666666 5000022.6244
10.754146666666667 -12.533333333333333 1.7666666666666666 5000022.6244
11.129943333333333 -12.866666666666667 1.7666666666666666 5000033.8983
10.678886666666667 -13.166666666666666 1.7666666666666666 5000020.3666
10.678886666666667 -13.2 1.7666666666666666 5000020.3666
10.522466666666666 -14.633333333333333 1.7666666666666666 5000015.674
10.522466666666666 -14.666666666666666 1.7666666666666666 5000015.674
10.522466666666666 -14.7 1.7666666666666666 5000015.674
10.503143333333334 -14.866666666666667 1.7666666666666666 5000015.0943
10.503143333333334 -14.9 1.7666666666666666 5000015.0943
10.33151 -3.2333333333333334 1.7333333333333334 5000009.9453
10.678886666666667 -13.033333333333333 1.7333333333333334 5000020.3666
10.678886666666667 -13.166666666666666 1.7333333333333334 5000020.3666
10.56593 -13.8 1.7333333333333334 5000016.9779
10.522466666666666 -14.633333333333333 1.7333333333333334 5000015.674
10.522466666666666 -14.666666666666666 1.7333333333333334 5000015.674
10.64662 -13.133333333333333 1.7 5000019.3986
10.64662 -13.166666666666666 1.7 5000019.3986
10.590493333333333 -13.8 1.7 5000017.7148
10.590493333333333 -13.833333333333334 1.7 5000017.7148
10.522466666666666 -14.633333333333333 1.7 5000015.674
10.522466666666666 -14.666666666666666 1.7 5000015.674
10.503143333333334 -14.9 1.7 5000015.0943
10.3775 -17.433333333333334 1.7 5000011.325
10.3775 -17.466666666666665 1.7 5000011.325
10.33151 -3.2333333333333334 1.6666666666666667 5000009.9453
10.64662 -13.133333333333333 1.6666666666666667 5000019.3986
10.64662 -13.166666666666666 1.6666666666666667 5000019.3986
10.64662 -13.2 1.6666666666666667 5000019.3986
10.590493333333333 -13.8 1.6666666666666667 5000017.7148
10.590493333333333 -13.833333333333334 1.6666666666666667 5000017.7148
10.590493333333333 -13.866666666666667 1.6666666666666667 5000017.7148
10.522466666666666 -14.633333333333333 1.6666666666666667 5000015.674
10.522466666666666 -14.666666666666666 1.6666666666666667 5000015.674
10.388273333333334 -17.366666666666667 1.6666666666666667 5000011.6482
10.3775 -17.4 1.6666666666666667 5000011.325
10.3775 -17.433333333333334 1.6666666666666667 5000011.325
10.33151 -3.2333333333333334 1.6333333333333333 5000009.9453
10.64662 -13.133333333333333 1.6333333333333333 5000019.3986
10.64662 -13.166666666666666 1.6333333333333333 5000019.3986
10.64662 -13.2 1.6333333333333333 5000019.3986
10.56593 -13.8 1.6333333333333333 5000016.9779
10.56593 -13.833333333333334 1.6333333333333333 5000016.9779
10.522466666666666 -14.633333333333333 1.6333333333333333 5000015.674
10.503143333333334 -14.933333333333334 1.6333333333333333 5000015.0943
10.33151 -3.2333333333333334 1.6 5000009.9453
10.64662 -13.133333333333333 1.6 5000019.3986
10.64662 -13.166666666666666 1.6 5000019.3986
10.522466666666666 -14.6 1.6 5000015.674
10.522466666666666 -14.633333333333333 1.6 5000015.674
10.503143333333334 -14.966666666666667 1.6 5000015.0943
10.3775 -17.566666666666666 1.6 5000011.325
10.3775 -17.6 1.6 5000011.325
10.3775 -17.633333333333333 1.6 5000011.325
10.33151 -3.2333333333333334 1.5666666666666667 5000009.9453
10.54333 -14.6 1.5666666666666667 5000016.2999
10.54333 -14.633333333333333 1.5666666666666667 5000016.2999
10.3775 -17.566666666666666 1.5666666666666667 5000011.325
10.3775 -17.6 1.5666666666666667 5000011.325
10.3775 -17.633333333333333 1.5666666666666667 5000011.325
10.36731 -17.666666666666668 1.5666666666666667 5000011.0193
10.33151 -3.2333333333333334 1.5333333333333334 5000009.9453
10.54333 -14.566666666666666 1.5333333333333334 5000016.2999
10.522466666666666 -14.6 1.5333333333333334 5000015.674
10.522466666666666 -14.633333333333333 1.5333333333333334 5000015.674
10.4852 -14.966666666666667 1.5333333333333334 5000014.556
10.4852 -15.0 1.5333333333333334 5000014.556
10.39968 -17.4 1.5333333333333334 5000011.9904
10.39968 -17.433333333333334 1.5333333333333334 5000011.9904
10.33151 -3.2333333333333334 1.5 5000009.9453
10.522466666666666 -14.6 1.5 5000015.674
10.522466666666666 -14.633333333333333 1.5 5000015.674
10.4852 -15.0 1.5 5000014.556
10.39968 -17.333333333333332 1.5 5000011.9904
10.39968 -17.366666666666667 1.5 5000011.9904
10.33151 -3.2333333333333334 1.4666666666666666 5000009.9453
10.617283333333333 -13.533333333333333 1.4666666666666666 5000018.5185
10.590493333333333 -13.566666666666666 1.4666666666666666 5000017.7148
10.522466666666666 -14.633333333333333 1.4666666666666666 5000015.674
10.522466666666666 -14.666666666666666 1.4666666666666666 5000015.674
10.33151 -3.2333333333333334 1.4333333333333333 5000009.9453
10.590493333333333 -13.566666666666666 1.4333333333333333 5000017.7148
10.590493333333333 -13.6 1.4333333333333333 5000017.7148
10.522466666666666 -14.633333333333333 1.4333333333333333 5000015.674
10.522466666666666 -14.666666666666666 1.4333333333333333 5000015.674
10.4852 -15.0 1.4333333333333333 5000014.556
10.4852 -15.033333333333333 1.4333333333333333 5000014.556
10.33151 -3.2333333333333334 1.4 5000009.9453
10.590493333333333 -13.566666666666666 1.4 5000017.7148
10.590493333333333 -13.6 1.4 5000017.7148
10.590493333333333 -13.633333333333333 1.4 5000017.7148
10.503143333333334 -15.033333333333333 1.4 5000015.0943
10.39968 -17.133333333333333 1.4 5000011.9904
10.388273333333334 -17.166666666666668 1.4 5000011.6482
10.388273333333334 -17.2 1.4 5000011.6482
10.3775 -17.233333333333334 1.4 5000011.325
10.36731 -17.266666666666666 1.4 5000011.0193
10.33151 -3.2333333333333334 1.3666666666666667 5000009.9453
10.590493333333333 -13.666666666666666 1.3666666666666667 5000017.7148
10.503143333333334 -15.033333333333333 1.3666666666666667 5000015.0943
10.4852 -15.4 1.3666666666666667 5000014.556
10.468493333333333 -15.433333333333334 1.3666666666666667 5000014.0548
10.4529 -15.5 1.3666666666666667 5000013.587
10.39968 -17.1 1.3666666666666667 5000011.9904
10.39968 -17.133333333333333 1.3666666666666667 5000011.9904
10.33151 -3.2333333333333334 1.3333333333333333 5000009.9453
10.617283333333333 -10.066666666666666 1.3333333333333333 5000018.5185
10.503143333333334 -14.866666666666667 1.3333333333333333 5000015.0943
10.4852 -15.333333333333334 1.3333333333333333 5000014.556
10.4852 -15.366666666666667 1.3333333333333333 5000014.556
10.4852 -15.4 1.3333333333333333 5000014.556
10.468493333333333 -15.433333333333334 1.3333333333333333 5000014.0548
10.39968 -17.066666666666666 1.3333333333333333 5000011.9904
10.39968 -17.1 1.3333333333333333 5000011.9904
10.39968 -17.133333333333333 1.3333333333333333 5000011.9904
10.503143333333334 -14.833333333333334 1.3 5000015.0943
10.503143333333334 -14.866666666666667 1.3 5000015.0943
10.503143333333334 -14.9 1.3 5000015.0943
10.503143333333334 -15.3 1.3 5000015.0943
10.4852 -15.333333333333334 1.3 5000014.556
10.39968 -17.066666666666666 1.3 5000011.9904
10.39968 -17.1 1.3 5000011.9904
10.522466666666666 -14.666666666666666 1.2666666666666666 5000015.674
10.503143333333334 -14.833333333333334 1.2666666666666666 5000015.0943
10.503143333333334 -14.866666666666667 1.2666666666666666 5000015.0943
10.411776666666666 -17.0 1.2666666666666666 5000012.3533
10.522466666666666 -14.7 1.2333333333333334 5000015.674
10.522466666666666 -16.433333333333334 1.1666666666666667 5000015.674
10.503143333333334 -16.466666666666665 1.1666666666666667 5000015.0943
10.503143333333334 -16.5 1.1666666666666667 5000015.0943
10.503143333333334 -16.533333333333335 1.1666666666666667 5000015.0943
10.503143333333334 -14.866666666666667 1.1333333333333333 5000015.0943
10.503143333333334 -14.9 1.1333333333333333 5000015.0943
10.503143333333334 -14.933333333333334 1.1333333333333333 5000015.0943
10.503143333333334 -16.466666666666665 1.1333333333333333 5000015.0943
10.503143333333334 -16.5 1.1333333333333333 5000015.0943
10.503143333333334 -16.533333333333335 1.1333333333333333 5000015.0943
10.503143333333334 -14.866666666666667 1.1 5000015.0943
10.503143333333334 -14.9 1.1 5000015.0943
10.33151 -2.933333333333333 1.0666666666666667 5000009.9453
10.33151 -2.933333333333333 1.0333333333333334 5000009.9453
10.33151 -2.933333333333333 1.0 5000009.9453
10.503143333333334 -15.266666666666667 1.0 5000015.0943
10.33151 -2.933333333333333 0.9666666666666667 5000009.9453
10.33151 -2.933333333333333 0.9333333333333333 5000009.9453
10.3775 -17.466666666666665 0.9333333333333333 5000011.325
10.33151 -2.933333333333333 0.9 5000009.9453
10.39968 -16.966666666666665 0.9 5000011.9904
10.39968 -17.0 0.9 5000011.9904
10.39968 -17.033333333333335 0.9 5000011.9904
10.388273333333334 -17.433333333333334 0.9 5000011.6482
10.3775 -17.466666666666665 0.9 5000011.325
10.4529 -1.4666666666666666 0.8666666666666667 5000013.587
10.323624666666667 -2.933333333333333 0.8666666666666667 5000009.70874
10.438306666666668 -3.966666666666667 0.8666666666666667 5000013.1492
10.39968 -17.0 0.8666666666666667 5000011.9904
10.39968 -17.033333333333335 0.8666666666666667 5000011.9904
10.4529 -1.4666666666666666 0.8333333333333334 5000013.587
10.39968 -17.0 0.8333333333333334 5000011.9904
10.39968 -17.033333333333335 0.8333333333333334 5000011.9904
10.388273333333334 -17.366666666666667 0.8333333333333334 5000011.6482
10.411776666666666 -3.7333333333333334 0.8 5000012.3533
10.388273333333334 -17.0 0.8 5000011.6482
10.388273333333334 -17.033333333333335 0.8 5000011.6482
10.39968 -3.8 0.7666666666666667 5000011.9904
10.388273333333334 -17.0 0.7666666666666667 5000011.6482
10.388273333333334 -17.033333333333335 0.7666666666666667 5000011.6482
10.39968 -3.8333333333333335 0.7333333333333333 5000011.9904
10.388273333333334 -17.0 0.7333333333333333 5000011.6482
10.388273333333334 -17.033333333333335 0.7333333333333333 5000011.6482
10.388273333333334 -17.066666666666666 0.7333333333333333 5000011.6482
10.388273333333334 -17.0 0.7 5000011.6482
10.388273333333334 -17.033333333333335 0.7 5000011.6482
10.388273333333334 -17.033333333333335 0.6666666666666666 5000011.6482
10.388273333333334 -17.066666666666666 0.6666666666666666 5000011.6482
10.388273333333334 -17.033333333333335 0.6333333333333333 5000011.6482
10.388273333333334 -17.066666666666666 0.6333333333333333 5000011.6482
10.388273333333334 -17.066666666666666 0.6 5000011.6482
10.3775 -17.833333333333332 0.6 5000011.325
10.3775 -17.866666666666667 0.6 5000011.325
10.3775 -17.9 0.6 5000011.325
10.388273333333334 -0.2 0.5666666666666667 5000011.6482
10.388273333333334 -17.066666666666666 0.5666666666666667 5000011.6482
10.388273333333334 -17.1 0.5666666666666667 5000011.6482
10.3775 -17.833333333333332 0.5666666666666667 5000011.325
10.3775 -17.866666666666667 0.5666666666666667 5000011.325
10.3775 -1.0666666666666667 0.5333333333333333 5000011.325
10.357653333333333 -3.2666666666666666 0.5333333333333333 5000010.7296
10.357653333333333 -3.3 0.5333333333333333 5000010.7296
10.388273333333334 -17.1 0.5333333333333333 5000011.6482
10.388273333333334 -17.133333333333333 0.5333333333333333 5000011.6482
10.357653333333333 -3.3 0.5 5000010.7296
10.36731 -3.8 0.5 5000011.0193
10.36731 -3.8 0.4666666666666667 5000011.0193
10.36731 -3.8333333333333335 0.4666666666666667 5000011.0193
10.411776666666666 -11.066666666666666 0.4666666666666667 5000012.3533
10.388273333333334 -11.233333333333333 0.4666666666666667 5000011.6482
10.3775 -11.266666666666667 0.4666666666666667 5000011.325
10.388273333333334 -17.166666666666668 0.4666666666666667 5000011.6482
10.3775 -17.2 0.4666666666666667 5000011.325
10.357653333333333 -2.033333333333333 0.43333333333333335 5000010.7296
10.411776666666666 -11.066666666666666 0.43333333333333335 5000012.3533
10.39968 -11.1 0.43333333333333335 5000011.9904
10.39968 -11.133333333333333 0.43333333333333335 5000011.9904
10.39968 -11.166666666666666 0.43333333333333335 5000011.9904
10.388273333333334 -11.2 0.43333333333333335 5000011.6482
10.388273333333334 -11.233333333333333 0.43333333333333335 5000011.6482
10.3775 -11.266666666666667 0.43333333333333335 5000011.325
10.36731 -11.3 0.43333333333333335 5000011.0193
10.357653333333333 -2.066666666666667 0.4 5000010.7296
10.36731 -11.3 0.4 5000011.0193
10.348493333333334 -11.333333333333334 0.4 5000010.4548
10.3775 -17.6 0.4 5000011.325
10.3775 -17.633333333333333 0.4 5000011.325
10.3775 -17.666666666666668 0.4 5000011.325
10.3775 -17.633333333333333 0.36666666666666664 5000011.325
10.3775 -17.666666666666668 0.36666666666666664 5000011.325
10.348493333333334 0.1 0.3333333333333333 5000010.4548
10.348493333333334 0.0 0.3333333333333333 5000010.4548
10.33979 -1.4333333333333333 0.3333333333333333 5000010.1937
10.33979 -3.2666666666666666 0.3333333333333333 5000010.1937
10.36731 -16.933333333333334 0.3333333333333333 5000011.0193
10.348493333333334 0.1 0.3 5000010.4548
10.33979 -1.3666666666666667 0.3 5000010.1937
10.33979 -0.8 0.26666666666666666 5000010.1937
10.33151 -0.9333333333333333 0.23333333333333334 5000009.9453
10.348493333333334 -4.3 0.23333333333333334 5000010.4548
10.33151 -0.1 0.2 5000009.9453
10.323624666666667 -1.3 0.2 5000009.70874
10.323624666666667 -1.3 0.16666666666666666 5000009.70874
10.33151 -3.6 0.16666666666666666 5000009.9453
10.323624666666667 -1.2 0.13333333333333333 5000009.70874
10.33151 -3.6 0.13333333333333333 5000009.9453
10.33151 -3.6333333333333333 0.13333333333333333 5000009.9453
10.323624666666667 -1.2 0.1 5000009.70874
10.316105666666667 -3.8 0.1 5000009.48317
10.302069 1.9 0.06666666666666667 5000009.06207
10.302069 1.9 0.03333333333333333 5000009.06207
10.308928 1.8666666666666667 0.03333333333333333 5000009.26784
10.302069 0.5 0.03333333333333333 5000009.06207
10.308928 -3.3666666666666667 0.03333333333333333 5000009.26784
10.308928 1.8666666666666667 0.0 5000009.26784
10.308928 1.8333333333333333 0.0 5000009.26784
10.316105666666667 1.5 0.0 5000009.48317
10.302069 0.4666666666666667 0.0 5000009.06207
10.308928 -3.033333333333333 0.0 5000009.26784
10.302069 -3.1666666666666665 0.0 5000009.06207
10.308928 2.2666666666666666 -0.03333333333333333 5000009.26784
10.308928 1.8 -0.03333333333333333 5000009.26784
10.316105666666667 1.5 -0.03333333333333333 5000009.48317
10.308928 -0.9666666666666667 -0.03333333333333333 5000009.26784
10.308928 -1.0 -0.03333333333333333 5000009.26784
10.308928 2.2666666666666666 -0.06666666666666667 5000009.26784
10.302069 -3.1333333333333333 -0.06666666666666667 5000009.06207
10.308928 2.533333333333333 -0.1 5000009.26784
10.308928 2.2333333333333334 -0.1 5000009.26784
10.289226333333334 -1.7666666666666666 -0.1 5000008.67679
10.302069 2.7 -0.13333333333333333 5000009.06207
10.308928 2.533333333333333 -0.13333333333333333 5000009.26784
10.302069 1.7 -0.13333333333333333 5000009.06207
10.295508333333334 -0.7 -0.13333333333333333 5000008.86525
10.295508333333334 -0.7333333333333333 -0.13333333333333333 5000008.86525
10.289226333333334 -1.7666666666666666 -0.13333333333333333 5000008.67679
10.289226333333334 -1.8 -0.13333333333333333 5000008.67679
10.289226333333334 -2.9 -0.13333333333333333 5000008.67679
10.302069 2.7 -0.16666666666666666 5000009.06207
10.295508333333334 1.8333333333333333 -0.16666666666666666 5000008.86525
10.277431 0.4666666666666667 -0.16666666666666666 5000008.32293
10.283206 -1.6333333333333333 -0.16666666666666666 5000008.49618
10.283206 -1.6666666666666667 -0.16666666666666666 5000008.49618
10.283206 -2.7 -0.16666666666666666 5000008.49618
10.283206 0.6 -0.2 5000008.49618
10.283206 0.5666666666666667 -0.2 5000008.49618
10.289226333333334 -0.8666666666666667 -0.2 5000008.67679
10.283206 -1.6333333333333333 -0.2 5000008.49618
10.283206 -1.6666666666666667 -0.2 5000008.49618
10.289226333333334 -1.7 -0.2 5000008.67679
10.289226333333334 -2.533333333333333 -0.2 5000008.67679
10.289226333333334 -2.566666666666667 -0.2 5000008.67679
10.283206 -2.7333333333333334 -0.2 5000008.49618
10.289226333333334 3.2 -0.23333333333333334 5000008.67679
10.289226333333334 0.8 -0.23333333333333334 5000008.67679
10.283206 0.6 -0.23333333333333334 5000008.49618
10.283206 0.5666666666666667 -0.23333333333333334 5000008.49618
10.277431 -0.4 -0.23333333333333334 5000008.32293
10.283206 -0.7333333333333333 -0.23333333333333334 5000008.49618
10.283206 -0.7666666666666667 -0.23333333333333334 5000008.49618
10.289226333333334 -2.566666666666667 -0.23333333333333334 5000008.67679
10.277431 1.9 -0.26666666666666666 5000008.32293
10.271887 1.8666666666666667 -0.26666666666666666 5000008.15661
10.283206 0.9 -0.26666666666666666 5000008.49618
10.277431 -0.4 -0.26666666666666666 5000008.32293
10.283206 -0.7666666666666667 -0.26666666666666666 5000008.49618
10.316105666666667 -12.0 -0.26666666666666666 5000009.48317
10.316105666666667 -12.033333333333333 -0.26666666666666666 5000009.48317
10.302069 -12.066666666666666 -0.26666666666666666 5000009.06207
10.295508333333334 -12.1 -0.26666666666666666 5000008.86525
10.295508333333334 -12.133333333333333 -0.26666666666666666 5000008.86525
10.295508333333334 -12.166666666666666 -0.26666666666666666 5000008.86525
10.271887 1.9666666666666666 -0.3 5000008.15661
10.277431 1.9333333333333333 -0.3 5000008.32293
10.277431 1.9 -0.3 5000008.32293
10.289226333333334 0.7666666666666667 -0.3 5000008.67679
10.283206 -3.4 -0.3 5000008.49618
10.295508333333334 -16.8 -0.3 5000008.86525
10.295508333333334 -16.833333333333332 -0.3 5000008.86525
10.295508333333334 -16.866666666666667 -0.3 5000008.86525
10.283206 2.1333333333333333 -0.3333333333333333 5000008.49618
10.277431 1.9333333333333333 -0.3333333333333333 5000008.32293
10.26656 1.3666666666666667 -0.3333333333333333 5000007.9968
10.295508333333334 -16.8 -0.3333333333333333 5000008.86525
10.295508333333334 -16.833333333333332 -0.3333333333333333 5000008.86525
10.261438 1.8 -0.36666666666666664 5000007.84314
10.26656 1.3666666666666667 -0.36666666666666664 5000007.9968
10.277431 -3.066666666666667 -0.36666666666666664 5000008.32293
10.26656 -0.23333333333333334 -0.4 5000007.9968
10.26656 -0.3333333333333333 -0.4 5000007.9968
10.271887 2.2333333333333334 -0.43333333333333335 5000008.15661
10.261438 1.5 -0.43333333333333335 5000007.84314
10.261438 -0.36666666666666664 -0.43333333333333335 5000007.84314
10.261438 -0.5333333333333333 -0.43333333333333335 5000007.84314
10.277431 -3.1 -0.43333333333333335 5000008.32293
10.261438 1.7333333333333334 -0.4666666666666667 5000007.84314
10.261438 -0.26666666666666666 -0.4666666666666667 5000007.84314
10.26656 -0.3 -0.4666666666666667 5000007.9968
10.261438 -0.4 -0.4666666666666667 5000007.84314
10.261438 -0.5666666666666667 -0.4666666666666667 5000007.84314
10.261438 -0.6 -0.4666666666666667 5000007.84314
10.261438 -0.9 -0.4666666666666667 5000007.84314
10.261438 -1.1666666666666667 -0.4666666666666667 5000007.84314
10.256509 -1.7 -0.4666666666666667 5000007.69527
10.256509 -1.7333333333333334 -0.4666666666666667 5000007.69527
10.261438 -2.7 -0.4666666666666667 5000007.84314
10.261438 -2.7333333333333334 -0.4666666666666667 5000007.84314
10.261438 2.433333333333333 -0.5 5000007.84314
10.256509 2.033333333333333 -0.5 5000007.69527
10.256509 2.0 -0.5 5000007.69527
10.261438 1.7333333333333334 -0.5 5000007.84314
10.251762333333334 0.4666666666666667 -0.5 5000007.55287
10.261438 -0.3 -0.5 5000007.84314
10.261438 -0.3333333333333333 -0.5 5000007.84314
10.256509 -1.7333333333333334 -0.5 5000007.69527
10.261438 -2.7333333333333334 -0.5 5000007.84314
10.261438 2.433333333333333 -0.5333333333333333 5000007.84314
10.256509 2.033333333333333 -0.5333333333333333 5000007.69527
10.256509 2.0 -0.5333333333333333 5000007.69527
10.251762333333334 0.43333333333333335 -0.5333333333333333 5000007.55287
10.251762333333334 0.4 -0.5333333333333333 5000007.55287
10.261438 -0.3333333333333333 -0.5333333333333333 5000007.84314
10.256509 -1.6666666666666667 -0.5666666666666667 5000007.69527
10.247188333333334 0.9666666666666667 -0.6 5000007.41565
10.251762333333334 -0.2 -0.6 5000007.55287
10.256509 -0.6333333333333333 -0.6 5000007.69527
10.261438 -3.2 -0.6 5000007.84314
10.261438 -3.2333333333333334 -0.6 5000007.84314
10.242777333333333 0.5666666666666667 -0.6333333333333333 5000007.28332
10.251762333333334 -0.13333333333333333 -0.6333333333333333 5000007.55287
10.247188333333334 -0.9666666666666667 -0.6333333333333333 5000007.41565
10.247188333333334 -1.0 -0.6333333333333333 5000007.41565
10.261438 -3.2333333333333334 -0.6333333333333333 5000007.84314
10.238521333333333 1.5333333333333334 -0.6666666666666666 5000007.15564
10.238521333333333 1.5 -0.6666666666666666 5000007.15564
10.242777333333333 0.5666666666666667 -0.6666666666666666 5000007.28332
10.247188333333334 -0.36666666666666664 -0.6666666666666666 5000007.41565
10.242777333333333 -1.4666666666666666 -0.6666666666666666 5000007.28332
10.242777333333333 -1.6333333333333333 -0.6666666666666666 5000007.28332
10.238521333333333 1.5 -0.7 5000007.15564
10.247188333333334 -2.1333333333333333 -0.7 5000007.41565
10.251762333333334 -2.3666666666666667 -0.7 5000007.55287
10.251762333333334 -2.4 -0.7 5000007.55287
10.234411666666666 1.9 -0.7333333333333333 5000007.03235
10.234411666666666 1.8666666666666667 -0.7333333333333333 5000007.03235
10.247188333333334 -2.1333333333333333 -0.7333333333333333 5000007.41565
10.247188333333334 -2.1666666666666665 -0.7333333333333333 5000007.41565
10.230441333333333 1.8333333333333333 -0.8 5000006.91324
10.230441333333333 1.8 -0.8 5000006.91324
10.234411666666666 0.8666666666666667 -0.8 5000007.03235
10.238521333333333 -2.033333333333333 -0.8 5000007.15564
10.230441333333333 1.9 -0.8333333333333334 5000006.91324
10.230441333333333 1.8 -0.8333333333333334 5000006.91324
10.234411666666666 -1.7333333333333334 -0.8333333333333334 5000007.03235
10.234411666666666 -1.7666666666666666 -0.8333333333333334 5000007.03235
10.261438 -3.6333333333333333 -0.8333333333333334 5000007.84314
10.222891 2.9 -0.9 5000006.68673
10.230441333333333 1.8666666666666667 -0.9 5000006.91324
10.222891 2.9 -0.9333333333333333 5000006.68673
10.226603333333333 2.2333333333333334 -0.9333333333333333 5000006.7981
10.219298333333333 2.0 -0.9333333333333333 5000006.57895
10.222891 0.9 -0.9333333333333333 5000006.68673
10.238521333333333 -2.7333333333333334 -0.9333333333333333 5000007.15564
10.238521333333333 -2.7666666666666666 -0.9333333333333333 5000007.15564
10.222891 2.9 -0.9666666666666667 5000006.68673
10.222891 2.8666666666666667 -0.9666666666666667 5000006.68673
10.219298333333333 1.9666666666666666 -0.9666666666666667 5000006.57895
10.238521333333333 0.13333333333333333 -0.9666666666666667 5000007.15564
10.222891 0.03333333333333333 -0.9666666666666667 5000006.68673
10.219298333333333 -0.2 -0.9666666666666667 5000006.57895
10.226603333333333 -0.4666666666666667 -0.9666666666666667 5000006.7981
10.226603333333333 -0.5 -0.9666666666666667 5000006.7981
10.226603333333333 -1.4333333333333333 -0.9666666666666667 5000006.7981
10.222891 2.966666666666667 -1.0 5000006.68673
10.222891 2.1666666666666665 -1.0 5000006.68673
10.222891 2.1333333333333333 -1.0 5000006.68673
10.219298333333333 1.7333333333333334 -1.0 5000006.57895
10.215819666666667 1.6 -1.0 5000006.47459
10.238521333333333 0.13333333333333333 -1.0 5000007.15564
10.222891 0.06666666666666667 -1.0 5000006.68673
10.222891 0.03333333333333333 -1.0 5000006.68673
10.219298333333333 0.0 -1.0 5000006.57895
10.219298333333333 -0.2 -1.0 5000006.57895
10.219298333333333 -0.23333333333333334 -1.0 5000006.57895
10.226603333333333 -0.5 -1.0 5000006.7981
10.226603333333333 -1.4333333333333333 -1.0 5000006.7981
10.219298333333333 2.1666666666666665 -1.0333333333333334 5000006.57895
10.219298333333333 2.1333333333333333 -1.0333333333333334 5000006.57895
10.222891 0.23333333333333334 -1.0333333333333334 5000006.68673
10.238521333333333 0.2 -1.0333333333333334 5000007.15564
10.219298333333333 0.0 -1.0333333333333334 5000006.57895
10.219298333333333 -0.03333333333333333 -1.0333333333333334 5000006.57895
10.219298333333333 -0.06666666666666667 -1.0333333333333334 5000006.57895
10.215819666666667 1.8666666666666667 -1.0666666666666667 5000006.47459
10.219298333333333 1.2666666666666666 -1.0666666666666667 5000006.57895
10.219298333333333 -0.06666666666666667 -1.0666666666666667 5000006.57895
10.219298333333333 -0.1 -1.0666666666666667 5000006.57895
10.219298333333333 -0.8333333333333334 -1.0666666666666667 5000006.57895
10.219298333333333 2.2 -1.1 5000006.57895
10.219298333333333 1.2333333333333334 -1.1 5000006.57895
10.219298333333333 1.1 -1.1 5000006.57895
10.212449666666666 -0.6333333333333333 -1.1 5000006.37349
10.212449666666666 2.3333333333333335 -1.1333333333333333 5000006.37349
10.215819666666667 2.2 -1.1333333333333333 5000006.47459
10.215819666666667 2.1666666666666665 -1.1333333333333333 5000006.47459
10.215819666666667 2.033333333333333 -1.1333333333333333 5000006.47459
10.212449666666666 1.8 -1.1333333333333333 5000006.37349
10.215819666666667 0.8 -1.1333333333333333 5000006.47459
10.219298333333333 0.7 -1.1333333333333333 5000006.57895
10.219298333333333 0.6666666666666666 -1.1333333333333333 5000006.57895
10.212449666666666 -0.6666666666666666 -1.1333333333333333 5000006.37349
10.212449666666666 2.433333333333333 -1.1666666666666667 5000006.37349
10.212449666666666 1.9 -1.1666666666666667 5000006.37349
10.212449666666666 1.8666666666666667 -1.1666666666666667 5000006.37349
10.212449666666666 1.8333333333333333 -1.1666666666666667 5000006.37349
10.212449666666666 1.8 -1.1666666666666667 5000006.37349
10.212449666666666 1.7666666666666666 -1.1666666666666667 5000006.37349
10.212449666666666 1.6 -1.1666666666666667 5000006.37349
10.212449666666666 0.03333333333333333 -1.1666666666666667 5000006.37349
10.212449666666666 0.0 -1.1666666666666667 5000006.37349
10.212449666666666 -0.6 -1.1666666666666667 5000006.37349
16.666666666666668 3.033333333333333 -1.2 5000200.0
10.212449666666666 2.1 -1.2 5000006.37349
10.212449666666666 1.9 -1.2 5000006.37349
10.212449666666666 1.8666666666666667 -1.2 5000006.37349
10.212449666666666 0.16666666666666666 -1.2 5000006.37349
10.212449666666666 0.0 -1.2 5000006.37349
10.212449666666666 -0.16666666666666666 -1.2 5000006.37349
10.209183 -0.6666666666666666 -1.2 5000006.27549
10.209183 2.1333333333333333 -1.2333333333333334 5000006.27549
10.209183 2.1 -1.2333333333333334 5000006.27549
10.212449666666666 1.9 -1.2333333333333334 5000006.37349
10.212449666666666 1.8666666666666667 -1.2333333333333334 5000006.37349
10.209183 0.43333333333333335 -1.2333333333333334 5000006.27549
10.212449666666666 0.16666666666666666 -1.2333333333333334 5000006.37349
10.212449666666666 0.13333333333333333 -1.2333333333333334 5000006.37349
10.212449666666666 0.1 -1.2333333333333334 5000006.37349
10.209183 -0.5666666666666667 -1.2333333333333334 5000006.27549
10.206015666666667 -0.6 -1.2333333333333334 5000006.18047
10.212449666666666 -1.0 -1.2333333333333334 5000006.37349
10.212449666666666 -1.1666666666666667 -1.2333333333333334 5000006.37349
10.212449666666666 -1.2 -1.2333333333333334 5000006.37349
10.191516 2.0 -1.2666666666666666 5000005.74548
10.212449666666666 1.2333333333333334 -1.2666666666666666 5000006.37349
10.209183 0.6666666666666666 -1.2666666666666666 5000006.27549
10.209183 0.5333333333333333 -1.2666666666666666 5000006.27549
10.209183 0.5 -1.2666666666666666 5000006.27549
10.206015666666667 -0.6 -1.2666666666666666 5000006.18047
10.206015666666667 -0.6333333333333333 -1.2666666666666666 5000006.18047
10.212449666666666 -1.0333333333333334 -1.2666666666666666 5000006.37349
10.212449666666666 -1.2 -1.2666666666666666 5000006.37349
10.209183 0.5333333333333333 -1.3 5000006.27549
10.209183 0.5 -1.3 5000006.27549
10.206015666666667 -0.6 -1.3 5000006.18047
10.206015666666667 -0.6333333333333333 -1.3 5000006.18047
10.206015666666667 -0.6666666666666666 -1.3 5000006.18047
10.206015666666667 -0.6333333333333333 -1.3333333333333333 5000006.18047
10.206015666666667 -0.6666666666666666 -1.3333333333333333 5000006.18047
10.206015666666667 3.1 -1.3666666666666667 5000006.18047
10.197063666666667 0.3333333333333333 -1.3666666666666667 5000005.91191
10.202942666666667 0.03333333333333333 -1.3666666666666667 5000006.08828
10.215819666666667 -2.5 -1.3666666666666667 5000006.47459
10.206015666666667 3.1 -1.4 5000006.18047
10.19996 1.7 -1.4 5000005.9988
10.202942666666667 0.26666666666666666 -1.4 5000006.08828
10.19996 0.23333333333333334 -1.4 5000005.9988
10.19996 0.2 -1.4 5000005.9988
10.19996 0.16666666666666666 -1.4 5000005.9988
10.202942666666667 0.03333333333333333 -1.4 5000006.08828
10.202942666666667 0.0 -1.4 5000006.08828
10.19996 2.933333333333333 -1.4333333333333333 5000005.9988
10.19996 1.8666666666666667 -1.4333333333333333 5000005.9988
10.197063666666667 0.9333333333333333 -1.4333333333333333 5000005.91191
10.194250333333333 0.43333333333333335 -1.4333333333333333 5000005.82751
10.194250333333333 0.4 -1.4333333333333333 5000005.82751
10.197063666666667 2.933333333333333 -1.4666666666666666 5000005.91191
10.19996 2.9 -1.4666666666666666 5000005.9988
10.19996 1.8666666666666667 -1.4666666666666666 5000005.9988
10.19996 1.8333333333333333 -1.4666666666666666 5000005.9988
10.19996 2.9 -1.5 5000005.9988
10.19996 1.9666666666666666 -1.5 5000005.9988
10.19996 1.9 -1.5 5000005.9988
10.19996 1.3 -1.5 5000005.9988
10.197063666666667 1.1666666666666667 -1.5 5000005.91191
10.197063666666667 1.1333333333333333 -1.5 5000005.91191
10.197063666666667 1.1 -1.5 5000005.91191
10.197063666666667 3.0 -1.5333333333333334 5000005.91191
10.19996 2.0 -1.5333333333333334 5000005.9988
10.19996 1.9666666666666666 -1.5333333333333334 5000005.9988
10.194250333333333 -0.23333333333333334 -1.5333333333333334 5000005.82751
10.194250333333333 1.1666666666666667 -1.5666666666666667 5000005.82751
10.215819666666667 -2.466666666666667 -1.5666666666666667 5000006.47459
10.191516 1.1666666666666667 -1.6 5000005.74548
10.191516 1.1333333333333333 -1.6 5000005.74548
10.188857333333333 0.23333333333333334 -1.6 5000005.66572
10.215819666666667 -2.466666666666667 -1.6 5000006.47459
10.215819666666667 -2.5 -1.6 5000006.47459
10.191516 1.1666666666666667 -1.6333333333333333 5000005.74548
10.191516 1.1333333333333333 -1.6333333333333333 5000005.74548
10.191516 0.6666666666666666 -1.6333333333333333 5000005.74548
10.215819666666667 -2.5 -1.6333333333333333 5000006.47459
10.191516 0.6333333333333333 -1.6666666666666667 5000005.74548
10.188857333333333 0.5333333333333333 -1.6666666666666667 5000005.66572
10.186271666666666 -0.13333333333333333 -1.7 5000005.58815
10.194250333333333 -0.9666666666666667 -1.7 5000005.82751
10.186271666666666 1.2 -1.7333333333333334 5000005.58815
10.186271666666666 -0.03333333333333333 -1.7333333333333334 5000005.58815
10.186271666666666 -0.06666666666666667 -1.7333333333333334 5000005.58815
10.181307333333333 1.8 -1.7666666666666666 5000005.43922
10.181307333333333 1.7666666666666666 -1.7666666666666666 5000005.43922
10.197063666666667 1.4666666666666666 -1.7666666666666666 5000005.91191
10.186271666666666 1.2 -1.7666666666666666 5000005.58815
10.186271666666666 -0.03333333333333333 -1.7666666666666666 5000005.58815
10.186271666666666 -0.06666666666666667 -1.7666666666666666 5000005.58815
10.191516 -0.6 -1.7666666666666666 5000005.74548
10.191516 -0.6333333333333333 -1.7666666666666666 5000005.74548
10.181307333333333 1.3666666666666667 -1.8 5000005.43922
10.186271666666666 1.2 -1.8 5000005.58815
10.183756 0.26666666666666666 -1.8 5000005.51268
10.183756 0.23333333333333334 -1.8 5000005.51268
10.186271666666666 -0.06666666666666667 -1.8 5000005.58815
10.191516 -0.6666666666666666 -1.8 5000005.74548
10.19996 -14.6 -1.8 5000005.9988
10.19996 -14.633333333333333 -1.8 5000005.9988
10.197063666666667 -14.666666666666666 -1.8 5000005.91191
10.178923 1.6 -1.8333333333333333 5000005.36769
10.178923 1.5666666666666667 -1.8333333333333333 5000005.36769
10.181307333333333 1.4666666666666666 -1.8333333333333333 5000005.43922
10.183756 1.2666666666666666 -1.8333333333333333 5000005.51268
10.183756 0.23333333333333334 -1.8333333333333333 5000005.51268
10.183756 0.2 -1.8333333333333333 5000005.51268
10.186271666666666 -0.9666666666666667 -1.8333333333333333 5000005.58815
10.186271666666666 -1.0 -1.8333333333333333 5000005.58815
10.206015666666667 -14.266666666666667 -1.8333333333333333 5000006.18047
10.206015666666667 -14.3 -1.8333333333333333 5000006.18047
10.202942666666667 -14.333333333333334 -1.8333333333333333 5000006.08828
10.202942666666667 -14.366666666666667 -1.8333333333333333 5000006.08828
10.19996 -14.4 -1.8333333333333333 5000005.9988
10.19996 -14.433333333333334 -1.8333333333333333 5000005.9988
10.197063666666667 -14.466666666666667 -1.8333333333333333 5000005.91191
10.194250333333333 -14.5 -1.8333333333333333 5000005.82751
10.197063666666667 -14.566666666666666 -1.8333333333333333 5000005.91191
10.19996 -14.6 -1.8333333333333333 5000005.9988
10.19996 -14.633333333333333 -1.8333333333333333 5000005.9988
10.197063666666667 -14.666666666666666 -1.8333333333333333 5000005.91191
10.191516 -14.7 -1.8333333333333333 5000005.74548
10.178923 1.6666666666666667 -1.8666666666666667 5000005.36769
10.178923 1.6333333333333333 -1.8666666666666667 5000005.36769
10.178923 1.6 -1.8666666666666667 5000005.36769
10.178923 1.5666666666666667 -1.8666666666666667 5000005.36769
10.181307333333333 1.4666666666666666 -1.8666666666666667 5000005.43922
10.181307333333333 1.4333333333333333 -1.8666666666666667 5000005.43922
10.183756 1.3333333333333333 -1.8666666666666667 5000005.51268
10.202942666666667 -14.366666666666667 -1.8666666666666667 5000006.08828
10.19996 -14.4 -1.8666666666666667 5000005.9988
10.19996 -14.433333333333334 -1.8666666666666667 5000005.9988
10.197063666666667 -14.466666666666667 -1.8666666666666667 5000005.91191
10.194250333333333 -14.5 -1.8666666666666667 5000005.82751
10.197063666666667 -14.533333333333333 -1.8666666666666667 5000005.91191
10.197063666666667 -14.566666666666666 -1.8666666666666667 5000005.91191
10.19996 -14.6 -1.8666666666666667 5000005.9988
10.19996 -14.633333333333333 -1.8666666666666667 5000005.9988
10.191516 -14.7 -1.8666666666666667 5000005.74548
10.188857333333333 -14.733333333333333 -1.8666666666666667 5000005.66572
10.186271666666666 -14.766666666666667 -1.8666666666666667 5000005.58815
10.176600333333333 2.0 -1.9 5000005.29801
10.176600333333333 1.9666666666666666 -1.9 5000005.29801
10.181307333333333 1.4333333333333333 -1.9 5000005.43922
10.181307333333333 1.4 -1.9 5000005.43922
10.178923 -14.8 -1.9 5000005.36769
10.183756 2.1333333333333333 -1.9333333333333333 5000005.51268
10.176600333333333 1.9666666666666666 -1.9333333333333333 5000005.29801
10.178923 -14.833333333333334 -1.9333333333333333 5000005.36769
10.174337666666666 -14.866666666666667 -1.9333333333333333 5000005.23013
10.178923 2.8333333333333335 -1.9666666666666666 5000005.36769
10.178923 2.8 -1.9666666666666666 5000005.36769
10.178923 2.1333333333333333 -1.9666666666666666 5000005.36769
10.176600333333333 2.066666666666667 -1.9666666666666666 5000005.29801
10.176600333333333 1.9666666666666666 -1.9666666666666666 5000005.29801
10.178923 1.0666666666666667 -1.9666666666666666 5000005.36769
10.178923 0.9 -1.9666666666666666 5000005.36769
10.178923 0.8666666666666667 -1.9666666666666666 5000005.36769
10.174337666666666 0.43333333333333335 -1.9666666666666666 5000005.23013
10.186271666666666 -1.1333333333333333 -1.9666666666666666 5000005.58815
10.197063666666667 -17.766666666666666 -1.9666666666666666 5000005.91191
10.197063666666667 -17.8 -1.9666666666666666 5000005.91191
10.178923 2.8 -2.0 5000005.36769
10.169981333333334 2.3 -2.0 5000005.09944
10.169981333333334 2.2666666666666666 -2.0 5000005.09944
10.178923 2.1 -2.0 5000005.36769
10.178923 1.0333333333333334 -2.0 5000005.36769
10.178923 0.8666666666666667 -2.0 5000005.36769
10.174337666666666 0.5333333333333333 -2.0 5000005.23013
10.174337666666666 0.4 -2.0 5000005.23013
10.174337666666666 0.36666666666666664 -2.0 5000005.23013
10.174337666666666 0.3333333333333333 -2.0 5000005.23013
10.186271666666666 -1.1333333333333333 -2.0 5000005.58815
10.186271666666666 -1.1666666666666667 -2.0 5000005.58815
10.186271666666666 -1.2 -2.0 5000005.58815
10.186271666666666 -1.6333333333333333 -2.0 5000005.58815
10.169981333333334 2.3 -2.033333333333333 5000005.09944
10.169981333333334 2.2666666666666666 -2.033333333333333 5000005.09944
10.169981333333334 2.2333333333333334 -2.033333333333333 5000005.09944
10.176600333333333 2.1333333333333333 -2.033333333333333 5000005.29801
10.176600333333333 2.1 -2.033333333333333 5000005.29801
10.174337666666666 0.5 -2.033333333333333 5000005.23013
10.174337666666666 0.4666666666666667 -2.033333333333333 5000005.23013
10.176600333333333 0.3333333333333333 -2.033333333333333 5000005.29801
10.176600333333333 0.3 -2.033333333333333 5000005.29801
10.169981333333334 2.2666666666666666 -2.066666666666667 5000005.09944
10.169981333333334 2.2333333333333334 -2.066666666666667 5000005.09944
10.174337666666666 1.7333333333333334 -2.066666666666667 5000005.23013
10.174337666666666 0.4666666666666667 -2.066666666666667 5000005.23013
10.174337666666666 0.43333333333333335 -2.066666666666667 5000005.23013
10.165837333333334 2.433333333333333 -2.1 5000004.97512
10.174337666666666 0.6666666666666666 -2.1 5000005.23013
10.174337666666666 0.6333333333333333 -2.1 5000005.23013
10.174337666666666 0.43333333333333335 -2.1 5000005.23013
10.174337666666666 0.4 -2.1 5000005.23013
10.174337666666666 -0.06666666666666667 -2.1 5000005.23013
10.165837333333334 1.4333333333333333 -2.1333333333333333 5000004.97512
10.174337666666666 0.6333333333333333 -2.1333333333333333 5000005.23013
10.174337666666666 0.6 -2.1333333333333333 5000005.23013
10.174337666666666 0.4 -2.1333333333333333 5000005.23013
10.176600333333333 0.03333333333333333 -2.1333333333333333 5000005.29801
10.176600333333333 0.0 -2.1333333333333333 5000005.29801
10.178923 -0.9666666666666667 -2.1333333333333333 5000005.36769
10.172132 1.9333333333333333 -2.1666666666666665 5000005.16396
10.165837333333334 1.4333333333333333 -2.1666666666666665 5000004.97512
10.165837333333334 1.4 -2.1666666666666665 5000004.97512
10.167883666666667 1.2666666666666666 -2.1666666666666665 5000005.03651
10.174337666666666 0.6 -2.1666666666666665 5000005.23013
10.174337666666666 0.5666666666666667 -2.1666666666666665 5000005.23013
10.174337666666666 0.4666666666666667 -2.1666666666666665 5000005.23013
10.176600333333333 0.03333333333333333 -2.1666666666666665 5000005.29801
10.176600333333333 0.0 -2.1666666666666665 5000005.29801
10.178923 -0.8666666666666667 -2.1666666666666665 5000005.36769
10.178923 -0.9 -2.1666666666666665 5000005.36769
10.181307333333333 -1.0 -2.1666666666666665 5000005.43922
10.191516 -1.8 -2.1666666666666665 5000005.74548
10.165837333333334 1.4333333333333333 -2.2 5000004.97512
10.165837333333334 1.4 -2.2 5000004.97512
10.178923 -1.3333333333333333 -2.2 5000005.36769
10.167883666666667 2.7666666666666666 -2.2333333333333334 5000005.03651
10.165837333333334 1.4 -2.2333333333333334 5000004.97512
10.165837333333334 1.3666666666666667 -2.2333333333333334 5000004.97512
10.165837333333334 1.3 -2.2333333333333334 5000004.97512
10.174337666666666 -0.3333333333333333 -2.2333333333333334 5000005.23013
10.167883666666667 2.7666666666666666 -2.2666666666666666 5000005.03651
10.165837333333334 1.3 -2.2666666666666666 5000004.97512
10.165837333333334 1.2666666666666666 -2.2666666666666666 5000004.97512
10.169981333333334 0.3333333333333333 -2.2666666666666666 5000005.09944
10.172132 -0.03333333333333333 -2.2666666666666666 5000005.16396
10.172132 -0.06666666666666667 -2.2666666666666666 5000005.16396
10.172132 -0.1 -2.2666666666666666 5000005.16396
10.186271666666666 -9.366666666666667 -2.3666666666666667 5000005.58815
10.186271666666666 -9.4 -2.3666666666666667 5000005.58815
10.159987333333333 2.3 -2.4 5000004.79962
10.159987333333333 2.2666666666666666 -2.4 5000004.79962
10.159987333333333 2.2333333333333334 -2.4 5000004.79962
10.159987333333333 2.2 -2.4 5000004.79962
10.172132 -0.5666666666666667 -2.4 5000005.16396
10.172132 -0.6 -2.4 5000005.16396
10.172132 -0.7333333333333333 -2.4 5000005.16396
10.169981333333334 -1.0 -2.4 5000005.09944
10.169981333333334 -1.0333333333333334 -2.4 5000005.09944
10.174337666666666 -1.1666666666666667 -2.4 5000005.23013
10.174337666666666 -1.2 -2.4 5000005.23013
10.159987333333333 2.2666666666666666 -2.433333333333333 5000004.79962
10.159987333333333 2.2333333333333334 -2.433333333333333 5000004.79962
10.159987333333333 2.2 -2.433333333333333 5000004.79962
10.163840333333333 0.9 -2.433333333333333 5000004.91521
10.172132 -0.7333333333333333 -2.433333333333333 5000005.16396
10.169981333333334 -1.0333333333333334 -2.433333333333333 5000005.09944
10.169981333333334 -1.0666666666666667 -2.433333333333333 5000005.09944
10.183756 -2.5 -2.433333333333333 5000005.51268
10.156311 3.2333333333333334 -2.5 5000004.68933
10.161891 0.6333333333333333 -2.5 5000004.85673
10.169981333333334 -1.0 -2.5 5000005.09944
10.161891 0.6333333333333333 -2.533333333333333 5000004.85673
10.165837333333334 -0.4666666666666667 -2.533333333333333 5000004.97512
10.169981333333334 -1.0 -2.533333333333333 5000005.09944
10.176600333333333 -1.4666666666666666 -2.533333333333333 5000005.29801
10.156311 2.433333333333333 -2.566666666666667 5000004.68933
10.161891 0.6 -2.566666666666667 5000004.85673
10.161891 0.5666666666666667 -2.566666666666667 5000004.85673
10.169981333333334 -1.0333333333333334 -2.566666666666667 5000005.09944
10.1528 2.8666666666666667 -2.6 5000004.584
10.156311 2.433333333333333 -2.6 5000004.68933
10.163840333333333 -0.2 -2.6 5000004.91521
10.163840333333333 -0.23333333333333334 -2.6 5000004.91521
10.151102999999999 2.8666666666666667 -2.6333333333333333 5000004.53309
10.156311 2.433333333333333 -2.6333333333333333 5000004.68933
10.159987333333333 0.5 -2.6333333333333333 5000004.79962
10.163840333333333 -0.2 -2.6333333333333333 5000004.91521
10.163840333333333 -0.23333333333333334 -2.6333333333333333 5000004.91521
10.163840333333333 -0.26666666666666666 -2.6333333333333333 5000004.91521
10.176600333333333 -10.866666666666667 -2.6333333333333333 5000005.29801
10.176600333333333 -10.9 -2.6333333333333333 5000005.29801
10.151102999999999 2.8666666666666667 -2.6666666666666665 5000004.53309
10.156311 2.433333333333333 -2.6666666666666665 5000004.68933
10.159987333333333 0.5 -2.6666666666666665 5000004.79962
10.159987333333333 0.4666666666666667 -2.6666666666666665 5000004.79962
10.151102999999999 2.8666666666666667 -2.7 5000004.53309
10.151102999999999 2.8333333333333335 -2.7 5000004.53309
10.158127666666667 0.3333333333333333 -2.7 5000004.74383
10.158127666666667 0.3 -2.7 5000004.74383
10.169981333333334 -1.0666666666666667 -2.7 5000005.09944
10.151102999999999 2.6333333333333333 -2.7333333333333334 5000004.53309
10.158127666666667 0.2 -2.7333333333333334 5000004.74383
10.158127666666667 0.16666666666666666 -2.7333333333333334 5000004.74383
10.159987333333333 -0.13333333333333333 -2.7333333333333334 5000004.79962
10.159987333333333 -0.16666666666666666 -2.7333333333333334 5000004.79962
10.159987333333333 -0.16666666666666666 -2.7666666666666666 5000004.79962
10.149443333333334 2.7666666666666666 -2.8 5000004.4833
10.159987333333333 -0.5 -2.8 5000004.79962
10.159987333333333 -0.5333333333333333 -2.8 5000004.79962
10.149443333333334 3.1 -2.8333333333333335 5000004.4833
10.149443333333334 2.8666666666666667 -2.8333333333333335 5000004.4833
10.149443333333334 2.8333333333333335 -2.8333333333333335 5000004.4833
10.158127666666667 -0.03333333333333333 -2.8333333333333335 5000004.74383
10.149443333333334 3.1 -2.8666666666666667 5000004.4833
10.149443333333334 2.8666666666666667 -2.8666666666666667 5000004.4833
10.149443333333334 2.8333333333333335 -2.8666666666666667 5000004.4833
10.1528 0.9333333333333333 -2.9 5000004.584
10.1528 0.9 -2.9 5000004.584
10.158127666666667 -0.5333333333333333 -2.933333333333333 5000004.74383
10.146231 1.9666666666666666 -2.966666666666667 5000004.38693
10.146231 1.9333333333333333 -2.966666666666667 5000004.38693
10.146231 2.033333333333333 -3.0 5000004.38693
10.146231 1.9333333333333333 -3.0 5000004.38693
10.146231 2.033333333333333 -3.033333333333333 5000004.38693
10.146231 2.0 -3.033333333333333 5000004.38693
10.154535666666666 -0.13333333333333333 -3.033333333333333 5000004.63607
10.146231 2.0 -3.066666666666667 5000004.38693
10.151102999999999 0.26666666666666666 -3.066666666666667 5000004.53309
10.149443333333334 0.36666666666666664 -3.1 5000004.4833
10.140203333333334 2.2 -3.1666666666666665 5000004.2061
10.158127666666667 -0.7666666666666667 -3.1666666666666665 5000004.74383
10.159987333333333 -2.7666666666666666 -3.1666666666666665 5000004.79962
10.143153666666667 1.7 -3.2333333333333334 5000004.29461
10.143153666666667 1.7 -3.2666666666666666 5000004.29461
