VERSION .7
FIELDS x y z rgb
SIZE 4 4 4 4
TYPE F F F F
COUNT 1 1 1 1
WIDTH 1296
HEIGHT 1
VIEWPOINT 0 0 0 1 0 0 0
POINTS 1296
DATA ascii
13.6044 -4.8 -1.1 5000015.674
12.3522 -5.4 -1.1 5000013.587
8.99808 2.66 -1.12 5000007.9968
13.6044 -4.68 -1.12 5000015.674
12.63288 -5.38 -1.12 5000014.0548
12.63288 -5.4 -1.12 5000014.0548
12.08952 -5.64 -1.12 5000013.1492
12.08952 -5.66 -1.12 5000013.1492
8.99808 2.88 -1.14 5000007.9968
8.99808 2.66 -1.14 5000007.9968
13.25658 -5.32 -1.14 5000015.0943
12.933599999999998 -5.34 -1.14 5000014.556
12.63288 -5.36 -1.14 5000014.0548
12.63288 -5.38 -1.14 5000014.0548
12.63288 -5.4 -1.14 5000014.0548
12.08952 -5.66 -1.14 5000013.1492
8.99808 2.88 -1.16 5000007.9968
8.99808 2.66 -1.16 5000007.9968
13.979940000000001 -4.56 -1.16 5000016.2999
13.979940000000001 -4.58 -1.16 5000016.2999
13.979940000000001 -4.6 -1.16 5000016.2999
12.63288 -5.36 -1.16 5000014.0548
12.63288 -5.38 -1.16 5000014.0548
12.63288 -5.4 -1.16 5000014.0548
11.843340000000001 -5.66 -1.16 5000012.7389
8.99808 2.88 -1.18 5000007.9968
8.99808 2.66 -1.18 5000007.9968
13.979940000000001 -4.58 -1.18 5000016.2999
13.6044 -4.6 -1.18 5000015.674
12.63288 -5.4 -1.18 5000014.0548
11.843340000000001 -5.66 -1.18 5000012.7389
11.843340000000001 -5.68 -1.18 5000012.7389
8.99808 2.88 -1.2 5000007.9968
8.99808 2.66 -1.2 5000007.9968
13.6044 -4.6 -1.2 5000015.674
13.6044 -4.62 -1.2 5000015.674
12.3522 -5.4 -1.2 5000013.587
12.08952 -5.68 -1.2 5000013.1492
8.99808 2.88 -1.22 5000007.9968
8.99808 2.66 -1.22 5000007.9968
13.6044 -4.62 -1.22 5000015.674
13.6044 -4.64 -1.22 5000015.674
12.3522 -5.38 -1.22 5000013.587
12.3522 -5.4 -1.22 5000013.587
8.99808 2.66 -1.24 5000007.9968
13.6044 -4.62 -1.24 5000015.674
13.6044 -4.64 -1.24 5000015.674
13.6044 -4.66 -1.24 5000015.674
12.3522 -5.4 -1.24 5000013.587
12.3522 -5.42 -1.24 5000013.587
11.843340000000001 -5.68 -1.24 5000012.7389
11.843340000000001 -5.7 -1.24 5000012.7389
8.99808 2.88 -1.26 5000007.9968
8.99808 2.66 -1.26 5000007.9968
11.843340000000001 -5.7 -1.26 5000012.7389
8.99808 2.88 -1.28 5000007.9968
8.99808 2.66 -1.28 5000007.9968
11.843340000000001 -5.7 -1.28 5000012.7389
11.843340000000001 -5.72 -1.28 5000012.7389
11.843340000000001 -5.94 -1.28 5000012.7389
11.843340000000001 -5.96 -1.28 5000012.7389
11.843340000000001 -5.98 -1.28 5000012.7389
11.61198 -6.0 -1.28 5000012.3533
11.394240000000002 -6.04 -1.28 5000011.9904
8.99808 2.66 -1.3 5000007.9968
12.3522 -5.42 -1.3 5000013.587
12.08952 -5.56 -1.3 5000013.1492
12.08952 -5.58 -1.3 5000013.1492
11.843340000000001 -5.72 -1.3 5000012.7389
11.843340000000001 -5.92 -1.3 5000012.7389
11.843340000000001 -5.94 -1.3 5000012.7389
11.843340000000001 -5.96 -1.3 5000012.7389
8.99808 2.88 -1.32 5000007.9968
8.99808 2.66 -1.32 5000007.9968
8.99808 2.64 -1.32 5000007.9968
12.3522 -5.42 -1.32 5000013.587
12.08952 -5.54 -1.32 5000013.1492
12.08952 -5.56 -1.32 5000013.1492
12.08952 -5.58 -1.32 5000013.1492
12.08952 -5.9 -1.32 5000013.1492
11.843340000000001 -5.92 -1.32 5000012.7389
8.99808 2.88 -1.34 5000007.9968
8.99808 2.66 -1.34 5000007.9968
12.08952 -5.54 -1.34 5000013.1492
12.08952 -5.56 -1.34 5000013.1492
8.99808 2.88 -1.36 5000007.9968
12.3522 -6.46 -1.36 5000013.587
12.3522 -6.48 -1.36 5000013.587
12.3522 -6.5 -1.36 5000013.587
12.3522 -6.52 -1.36 5000013.587
12.63288 -6.62 -1.4 5000014.0548
12.3522 -6.64 -1.4 5000013.587
12.3522 -6.66 -1.4 5000013.587
12.3522 -6.68 -1.4 5000013.587
12.08952 -5.6 -1.42 5000013.1492
12.08952 -5.62 -1.42 5000013.1492
12.3522 -6.66 -1.42 5000013.587
12.3522 -6.68 -1.42 5000013.587
9.093966 2.88 -1.44 5000008.15661
12.3522 -4.92 -1.44 5000013.587
12.08952 -5.6 -1.44 5000013.1492
12.3522 -6.68 -1.44 5000013.587
12.08952 -6.7 -1.44 5000013.1492
12.08952 -6.72 -1.44 5000013.1492
12.63288 -5.44 -1.46 5000014.0548
12.63288 -5.46 -1.46 5000014.0548
11.843340000000001 -5.88 -1.52 5000012.7389
8.99808 2.88 -1.54 5000007.9968
8.99808 2.88 -1.56 5000007.9968
8.99808 2.88 -1.58 5000007.9968
8.99808 2.88 -1.6 5000007.9968
8.99808 2.88 -1.62 5000007.9968
10.995 1.98 -1.62 5000011.325
10.995 1.96 -1.62 5000011.325
8.99808 2.88 -1.64 5000007.9968
10.995 1.96 -1.64 5000011.325
8.99808 2.88 -1.66 5000007.9968
10.316220000000001 2.38 -1.66 5000010.1937
10.811580000000001 3.48 -1.68 5000011.0193
8.905884 2.88 -1.68 5000007.84314
10.472879999999998 2.16 -1.68 5000010.4548
10.472879999999998 2.08 -1.68 5000010.4548
8.905884 2.88 -1.7 5000007.84314
10.472879999999998 2.16 -1.7 5000010.4548
10.472879999999998 2.04 -1.7 5000010.4548
8.905884 2.9 -1.72 5000007.84314
8.905884 2.88 -1.72 5000007.84314
10.472879999999998 2.1 -1.72 5000010.4548
10.472879999999998 3.44 -1.74 5000010.4548
10.472879999999998 2.08 -1.74 5000010.4548
8.99808 2.64 -1.76 5000007.9968
10.811580000000001 -6.66 -1.76 5000011.0193
10.316220000000001 4.06 -1.78 5000010.1937
10.811580000000001 -6.66 -1.78 5000011.0193
10.16718 4.14 -1.8 5000009.9453
8.99808 2.64 -1.8 5000007.9968
10.316220000000001 2.34 -1.8 5000010.1937
10.316220000000001 2.32 -1.8 5000010.1937
8.99808 2.64 -1.82 5000007.9968
10.16718 2.26 -1.82 5000009.9453
10.025244 4.06 -1.84 5000009.70874
10.025244 4.72 -1.86 5000009.70874
10.025244 4.7 -1.86 5000009.70874
9.889902000000001 3.1 -1.86 5000009.48317
10.025244 4.72 -1.88 5000009.70874
10.025244 4.7 -1.88 5000009.70874
9.760704 4.56 -1.9 5000009.26784
9.889902000000001 4.14 -1.9 5000009.48317
9.760704 2.56 -1.9 5000009.26784
9.760704 2.54 -1.9 5000009.26784
9.889902000000001 4.24 -1.92 5000009.48317
9.889902000000001 4.22 -1.92 5000009.48317
9.889902000000001 4.12 -1.92 5000009.48317
9.760704 4.0 -1.92 5000009.26784
9.637241999999999 3.92 -1.92 5000009.06207
9.760704 2.54 -1.92 5000009.26784
9.760704 2.52 -1.92 5000009.26784
9.760704 5.04 -1.94 5000009.26784
9.760704 3.98 -1.94 5000009.26784
9.760704 3.7 -1.94 5000009.26784
9.637241999999999 2.16 -1.94 5000009.06207
10.16718 -3.18 -1.94 5000009.9453
9.760704 5.04 -1.96 5000009.26784
9.51915 3.58 -1.96 5000008.86525
9.637241999999999 2.16 -1.96 5000009.06207
9.637241999999999 2.14 -1.96 5000009.06207
10.472879999999998 -3.06 -1.96 5000010.4548
10.472879999999998 -3.1 -1.96 5000010.4548
10.16718 -3.18 -1.96 5000009.9453
10.16718 -3.2 -1.96 5000009.9453
9.637241999999999 4.48 -1.98 5000009.06207
9.760704 3.68 -1.98 5000009.26784
9.51915 3.48 -1.98 5000008.86525
9.637241999999999 3.38 -1.98 5000009.06207
9.637241999999999 2.14 -1.98 5000009.06207
9.637241999999999 1.92 -1.98 5000009.06207
10.16718 -3.2 -1.98 5000009.9453
10.16718 -3.22 -1.98 5000009.9453
9.51915 4.68 -2.0 5000008.86525
9.51915 3.46 -2.0 5000008.86525
9.51915 3.44 -2.0 5000008.86525
9.51915 3.44 -2.02 5000008.86525
9.51915 2.08 -2.02 5000008.86525
9.637241999999999 1.94 -2.02 5000009.06207
9.51915 4.7 -2.04 5000008.86525
9.406074 2.52 -2.04 5000008.67679
9.406074 2.5 -2.04 5000008.67679
9.51915 5.42 -2.06 5000008.86525
9.297708 5.0 -2.06 5000008.49618
9.406074 4.78 -2.06 5000008.67679
9.406074 4.76 -2.06 5000008.67679
9.406074 2.64 -2.06 5000008.67679
9.297708 2.62 -2.06 5000008.49618
9.297708 2.6 -2.06 5000008.49618
9.406074 2.58 -2.06 5000008.67679
9.51915 5.42 -2.08 5000008.86525
9.297708 5.06 -2.08 5000008.49618
9.297708 5.04 -2.08 5000008.49618
9.297708 5.0 -2.08 5000008.49618
9.297708 4.98 -2.08 5000008.49618
9.406074 4.88 -2.08 5000008.67679
9.193757999999999 3.98 -2.08 5000008.32293
9.193757999999999 3.96 -2.08 5000008.32293
9.297708 3.44 -2.08 5000008.49618
9.193757999999999 3.34 -2.08 5000008.32293
9.406074 2.64 -2.08 5000008.67679
9.297708 2.62 -2.08 5000008.49618
9.297708 2.6 -2.08 5000008.49618
9.406074 2.58 -2.08 5000008.67679
9.297708 5.5 -2.1 5000008.49618
9.297708 5.06 -2.1 5000008.49618
9.193757999999999 4.58 -2.1 5000008.32293
9.193757999999999 4.14 -2.1 5000008.32293
9.193757999999999 3.96 -2.1 5000008.32293
9.193757999999999 3.86 -2.1 5000008.32293
9.193757999999999 3.34 -2.1 5000008.32293
10.025244 -0.2 -2.1 5000009.70874
9.297708 4.7 -2.12 5000008.49618
9.193757999999999 4.14 -2.12 5000008.32293
9.193757999999999 4.02 -2.12 5000008.32293
9.193757999999999 3.94 -2.12 5000008.32293
9.093966 3.42 -2.12 5000008.15661
9.193757999999999 5.7 -2.14 5000008.32293
9.193757999999999 5.66 -2.14 5000008.32293
9.193757999999999 5.22 -2.14 5000008.32293
9.297708 4.7 -2.14 5000008.49618
9.193757999999999 4.44 -2.14 5000008.32293
9.093966 4.28 -2.14 5000008.15661
9.193757999999999 3.82 -2.14 5000008.32293
9.093966 3.42 -2.14 5000008.15661
9.093966 2.64 -2.14 5000008.15661
9.297708 1.78 -2.14 5000008.49618
9.193757999999999 5.68 -2.16 5000008.32293
9.093966 4.88 -2.16 5000008.15661
9.193757999999999 4.44 -2.16 5000008.32293
9.093966 4.34 -2.16 5000008.15661
9.093966 4.28 -2.16 5000008.15661
9.297708 1.84 -2.16 5000008.49618
9.297708 1.82 -2.16 5000008.49618
9.193757999999999 4.96 -2.18 5000008.32293
9.093966 4.34 -2.18 5000008.15661
9.093966 2.3 -2.18 5000008.15661
9.297708 1.82 -2.18 5000008.49618
9.193757999999999 4.96 -2.2 5000008.32293
8.817162000000001 4.14 -2.2 5000007.69527
8.817162000000001 4.14 -2.22 5000007.69527
8.817162000000001 4.12 -2.22 5000007.69527
8.99808 2.38 -2.22 5000007.9968
8.99808 5.6 -2.24 5000007.9968
8.817162000000001 4.2 -2.24 5000007.69527
8.817162000000001 4.12 -2.24 5000007.69527
8.99808 2.38 -2.24 5000007.9968
8.99808 2.36 -2.24 5000007.9968
9.193757999999999 1.62 -2.24 5000008.32293
8.905884 4.46 -2.26 5000007.84314
8.817162000000001 4.2 -2.26 5000007.69527
8.817162000000001 4.12 -2.26 5000007.69527
8.817162000000001 3.84 -2.26 5000007.69527
8.817162000000001 3.3 -2.26 5000007.69527
8.99808 2.36 -2.26 5000007.9968
8.817162000000001 5.56 -2.28 5000007.69527
8.731722000000001 5.54 -2.28 5000007.55287
8.817162000000001 4.32 -2.28 5000007.69527
8.817162000000001 4.2 -2.28 5000007.69527
8.99808 1.9 -2.28 5000007.9968
8.99808 1.88 -2.28 5000007.9968
8.731722000000001 5.54 -2.3 5000007.55287
8.817162000000001 4.8 -2.3 5000007.69527
8.817162000000001 4.2 -2.3 5000007.69527
8.731722000000001 2.28 -2.3 5000007.55287
8.99808 1.86 -2.3 5000007.9968
8.817162000000001 4.8 -2.32 5000007.69527
8.99808 1.94 -2.32 5000007.9968
8.64939 5.54 -2.34 5000007.41565
8.731722000000001 4.96 -2.34 5000007.55287
8.731722000000001 4.9 -2.34 5000007.55287
8.731722000000001 4.38 -2.34 5000007.55287
8.731722000000001 4.36 -2.34 5000007.55287
8.569992 2.74 -2.34 5000007.28332
8.569992 2.72 -2.34 5000007.28332
8.731722000000001 2.62 -2.34 5000007.55287
8.731722000000001 2.6 -2.34 5000007.55287
8.905884 2.0 -2.34 5000007.84314
8.569992 5.54 -2.36 5000007.28332
8.731722000000001 4.36 -2.36 5000007.55287
8.731722000000001 4.34 -2.36 5000007.55287
8.731722000000001 4.28 -2.36 5000007.55287
8.64939 3.32 -2.36 5000007.41565
8.569992 2.8 -2.36 5000007.28332
8.731722000000001 2.62 -2.36 5000007.55287
8.731722000000001 2.6 -2.36 5000007.55287
8.731722000000001 2.58 -2.36 5000007.55287
8.493384 5.62 -2.38 5000007.15564
8.569992 5.54 -2.38 5000007.28332
8.64939 5.26 -2.38 5000007.41565
8.731722000000001 4.26 -2.38 5000007.55287
8.569992 2.8 -2.38 5000007.28332
8.493384 5.62 -2.4 5000007.15564
8.493384 5.54 -2.4 5000007.15564
8.493384 3.4 -2.4 5000007.15564
8.493384 2.88 -2.4 5000007.15564
8.569992 2.76 -2.4 5000007.28332
8.419410000000001 4.44 -2.42 5000007.03235
8.419410000000001 3.74 -2.42 5000007.03235
8.493384 2.88 -2.42 5000007.15564
8.493384 2.82 -2.42 5000007.15564
8.493384 2.74 -2.42 5000007.15564
8.99808 1.7 -2.42 5000007.9968
8.419410000000001 4.44 -2.44 5000007.03235
8.493384 4.4 -2.44 5000007.15564
8.493384 4.36 -2.44 5000007.15564
8.493384 4.04 -2.44 5000007.15564
8.419410000000001 3.74 -2.44 5000007.03235
8.493384 2.84 -2.44 5000007.15564
8.493384 2.82 -2.44 5000007.15564
8.493384 2.8 -2.44 5000007.15564
8.569992 2.54 -2.44 5000007.28332
8.569992 2.38 -2.44 5000007.28332
8.419410000000001 2.8 -2.46 5000007.03235
8.419410000000001 2.78 -2.46 5000007.03235
8.347944 4.62 -2.48 5000006.91324
8.347944 3.52 -2.48 5000006.91324
8.419410000000001 2.76 -2.48 5000007.03235
8.347944 2.74 -2.48 5000006.91324
8.347944 4.68 -2.5 5000006.91324
8.347944 4.66 -2.5 5000006.91324
8.347944 3.9 -2.5 5000006.91324
8.27886 3.88 -2.5 5000006.7981
8.347944 3.5 -2.5 5000006.91324
8.419410000000001 2.82 -2.5 5000007.03235
8.347944 2.74 -2.5 5000006.91324
8.347944 2.72 -2.5 5000006.91324
8.347944 5.34 -2.52 5000006.91324
8.347944 5.22 -2.52 5000006.91324
8.347944 4.98 -2.52 5000006.91324
8.347944 4.68 -2.52 5000006.91324
8.347944 4.66 -2.52 5000006.91324
8.347944 3.94 -2.52 5000006.91324
8.27886 3.88 -2.52 5000006.7981
8.27886 3.86 -2.52 5000006.7981
8.27886 3.38 -2.52 5000006.7981
8.419410000000001 2.82 -2.52 5000007.03235
8.347944 5.34 -2.54 5000006.91324
8.347944 5.32 -2.54 5000006.91324
8.347944 5.3 -2.54 5000006.91324
8.347944 5.28 -2.54 5000006.91324
8.27886 3.98 -2.54 5000006.7981
8.27886 3.96 -2.54 5000006.7981
8.27886 3.86 -2.54 5000006.7981
8.212038 3.04 -2.54 5000006.68673
8.419410000000001 2.8 -2.54 5000007.03235
8.084754 5.64 -2.56 5000006.47459
8.347944 5.28 -2.56 5000006.91324
8.27886 4.82 -2.56 5000006.7981
8.27886 3.98 -2.56 5000006.7981
8.27886 3.96 -2.56 5000006.7981
8.212038 3.2 -2.56 5000006.68673
8.212038 3.18 -2.56 5000006.68673
8.212038 3.04 -2.56 5000006.68673
8.212038 3.02 -2.56 5000006.68673
8.212038 2.96 -2.56 5000006.68673
8.084754 5.68 -2.58 5000006.47459
8.212038 4.6 -2.58 5000006.68673
8.212038 4.58 -2.58 5000006.68673
8.27886 3.98 -2.58 5000006.7981
8.27886 3.96 -2.58 5000006.7981
8.27886 3.94 -2.58 5000006.7981
8.212038 3.92 -2.58 5000006.68673
8.212038 3.34 -2.58 5000006.68673
8.212038 3.32 -2.58 5000006.68673
8.212038 3.18 -2.58 5000006.68673
8.212038 2.96 -2.58 5000006.68673
8.731722000000001 -3.9 -2.58 5000007.55287
8.419410000000001 -4.08 -2.58 5000007.03235
8.147369999999999 5.76 -2.6 5000006.57895
8.147369999999999 5.74 -2.6 5000006.57895
8.084754 5.68 -2.6 5000006.47459
8.212038 4.7 -2.6 5000006.68673
8.212038 4.68 -2.6 5000006.68673
8.212038 4.58 -2.6 5000006.68673
8.212038 3.34 -2.6 5000006.68673
8.212038 3.32 -2.6 5000006.68673
8.212038 3.3 -2.6 5000006.68673
8.212038 3.28 -2.6 5000006.68673
8.212038 3.08 -2.6 5000006.68673
8.212038 2.76 -2.6 5000006.68673
8.212038 2.74 -2.6 5000006.68673
8.27886 2.62 -2.6 5000006.7981
8.731722000000001 -3.9 -2.6 5000007.55287
8.64939 -3.92 -2.6 5000007.41565
8.64939 -3.94 -2.6 5000007.41565
8.569992 -3.96 -2.6 5000007.28332
8.493384 -3.98 -2.6 5000007.15564
8.419410000000001 -4.1 -2.6 5000007.03235
8.419410000000001 -4.12 -2.6 5000007.03235
8.147369999999999 5.9 -2.62 5000006.57895
8.147369999999999 5.78 -2.62 5000006.57895
8.147369999999999 5.76 -2.62 5000006.57895
7.965294 5.06 -2.62 5000006.27549
8.212038 4.7 -2.62 5000006.68673
8.212038 4.68 -2.62 5000006.68673
8.212038 4.66 -2.62 5000006.68673
8.147369999999999 5.9 -2.64 5000006.57895
7.965294 5.06 -2.64 5000006.27549
7.965294 5.04 -2.64 5000006.27549
8.147369999999999 4.62 -2.64 5000006.57895
8.084754 3.92 -2.64 5000006.47459
8.212038 3.12 -2.64 5000006.68673
8.147369999999999 2.86 -2.64 5000006.57895
8.212038 2.66 -2.64 5000006.68673
7.965294 5.06 -2.66 5000006.27549
7.965294 5.04 -2.66 5000006.27549
8.084754 3.92 -2.66 5000006.47459
8.024094 3.54 -2.66 5000006.37349
8.084754 3.3 -2.66 5000006.47459
8.084754 2.94 -2.66 5000006.47459
8.212038 2.66 -2.66 5000006.68673
8.084754 3.18 -2.68 5000006.47459
8.024094 4.78 -2.7 5000006.37349
8.024094 4.22 -2.7 5000006.37349
8.084754 3.16 -2.7 5000006.47459
8.024094 4.78 -2.72 5000006.37349
8.024094 4.76 -2.72 5000006.37349
7.965294 4.5 -2.72 5000006.27549
7.965294 4.48 -2.72 5000006.27549
7.965294 4.46 -2.72 5000006.27549
7.965294 4.44 -2.72 5000006.27549
7.908282 5.14 -2.74 5000006.18047
8.024094 2.98 -2.74 5000006.37349
7.8529680000000015 5.12 -2.76 5000006.08828
7.965294 2.96 -2.76 5000006.27549
7.8529680000000015 5.22 -2.78 5000006.08828
7.908282 4.98 -2.78 5000006.18047
7.8529680000000015 4.88 -2.78 5000006.08828
7.8529680000000015 4.86 -2.78 5000006.08828
7.965294 2.96 -2.78 5000006.27549
7.965294 2.94 -2.78 5000006.27549
7.8529680000000015 5.22 -2.8 5000006.08828
7.8529680000000015 5.2 -2.8 5000006.08828
7.8529680000000015 5.12 -2.8 5000006.08828
7.8529680000000015 4.98 -2.8 5000006.08828
7.8529680000000015 4.96 -2.8 5000006.08828
7.8529680000000015 4.4 -2.8 5000006.08828
7.7992799999999995 4.04 -2.8 5000005.9988
7.965294 2.96 -2.8 5000006.27549
7.965294 2.94 -2.8 5000006.27549
7.965294 2.92 -2.8 5000006.27549
7.7992799999999995 5.2 -2.82 5000005.9988
7.7992799999999995 5.18 -2.82 5000005.9988
7.8529680000000015 5.1 -2.82 5000006.08828
7.8529680000000015 4.96 -2.82 5000006.08828
7.8529680000000015 4.5 -2.82 5000006.08828
7.8529680000000015 4.38 -2.82 5000006.08828
7.747145999999999 4.1 -2.82 5000005.91191
7.747145999999999 4.04 -2.82 5000005.91191
7.965294 2.94 -2.82 5000006.27549
7.965294 2.92 -2.82 5000006.27549
7.7992799999999995 5.18 -2.84 5000005.9988
7.8529680000000015 5.1 -2.84 5000006.08828
7.8529680000000015 4.96 -2.84 5000006.08828
7.8529680000000015 4.94 -2.84 5000006.08828
7.696506 4.74 -2.84 5000005.82751
7.8529680000000015 4.5 -2.84 5000006.08828
7.8529680000000015 4.48 -2.84 5000006.08828
7.747145999999999 4.1 -2.84 5000005.91191
7.747145999999999 4.02 -2.84 5000005.91191
7.965294 3.08 -2.84 5000006.27549
7.8529680000000015 3.02 -2.84 5000006.08828
7.7992799999999995 5.18 -2.86 5000005.9988
7.7992799999999995 5.1 -2.86 5000005.9988
7.696506 4.74 -2.86 5000005.82751
7.747145999999999 4.72 -2.86 5000005.91191
7.696506 4.68 -2.86 5000005.82751
7.696506 4.66 -2.86 5000005.82751
7.747145999999999 4.1 -2.86 5000005.91191
7.747145999999999 4.08 -2.86 5000005.91191
7.747145999999999 4.06 -2.86 5000005.91191
7.747145999999999 3.62 -2.86 5000005.91191
7.7992799999999995 3.42 -2.86 5000005.9988
7.7992799999999995 3.28 -2.86 5000005.9988
7.8529680000000015 3.02 -2.86 5000006.08828
8.147369999999999 -6.7 -2.86 5000006.57895
7.7992799999999995 5.2 -2.88 5000005.9988
7.7992799999999995 5.18 -2.88 5000005.9988
7.7992799999999995 5.16 -2.88 5000005.9988
7.696506 4.66 -2.88 5000005.82751
7.747145999999999 4.08 -2.88 5000005.91191
7.747145999999999 4.06 -2.88 5000005.91191
7.747145999999999 4.04 -2.88 5000005.91191
7.747145999999999 3.62 -2.88 5000005.91191
7.7992799999999995 3.28 -2.88 5000005.9988
7.7992799999999995 3.26 -2.88 5000005.9988
7.8529680000000015 3.0 -2.88 5000006.08828
7.599432 5.84 -2.9 5000005.66572
7.696506 4.48 -2.9 5000005.82751
7.696506 4.46 -2.9 5000005.82751
7.8529680000000015 2.66 -2.9 5000006.08828
7.8529680000000015 2.62 -2.9 5000006.08828
7.599432 5.86 -2.92 5000005.66572
7.599432 5.84 -2.92 5000005.66572
7.6472880000000005 4.82 -2.92 5000005.74548
7.696506 4.46 -2.92 5000005.82751
7.747145999999999 3.42 -2.92 5000005.91191
7.8529680000000015 2.8 -2.92 5000006.08828
7.6472880000000005 4.82 -2.94 5000005.74548
7.696506 4.44 -2.94 5000005.82751
7.696506 4.16 -2.94 5000005.82751
7.747145999999999 3.4 -2.94 5000005.91191
8.024094 -6.68 -2.94 5000006.37349
8.024094 -6.7 -2.94 5000006.37349
7.599432 4.98 -2.96 5000005.66572
7.599432 4.82 -2.96 5000005.66572
7.599432 4.32 -2.96 5000005.66572
7.6472880000000005 4.24 -2.96 5000005.74548
7.747145999999999 2.9 -2.96 5000005.91191
7.747145999999999 2.88 -2.96 5000005.91191
8.024094 -6.68 -2.96 5000006.37349
8.024094 -6.7 -2.96 5000006.37349
7.599432 5.36 -2.98 5000005.66572
7.599432 5.34 -2.98 5000005.66572
7.599432 4.98 -2.98 5000005.66572
7.599432 4.86 -2.98 5000005.66572
7.599432 4.32 -2.98 5000005.66572
7.599432 4.3 -2.98 5000005.66572
7.696506 3.58 -2.98 5000005.82751
7.747145999999999 2.9 -2.98 5000005.91191
7.747145999999999 2.88 -2.98 5000005.91191
7.747145999999999 2.86 -2.98 5000005.91191
7.552889999999999 5.42 -3.0 5000005.58815
7.599432 5.4 -3.0 5000005.66572
7.599432 5.34 -3.0 5000005.66572
7.599432 5.18 -3.0 5000005.66572
7.599432 4.98 -3.0 5000005.66572
7.599432 4.96 -3.0 5000005.66572
7.599432 4.86 -3.0 5000005.66572
7.552889999999999 4.66 -3.0 5000005.58815
7.599432 4.3 -3.0 5000005.66572
7.747145999999999 2.88 -3.0 5000005.91191
7.747145999999999 2.86 -3.0 5000005.91191
7.552889999999999 5.42 -3.02 5000005.58815
7.599432 5.4 -3.02 5000005.66572
7.552889999999999 5.24 -3.02 5000005.58815
7.552889999999999 5.18 -3.02 5000005.58815
7.552889999999999 5.16 -3.02 5000005.58815
7.599432 4.3 -3.02 5000005.66572
7.552889999999999 4.18 -3.02 5000005.58815
7.507607999999999 3.88 -3.02 5000005.51268
7.552889999999999 5.4 -3.04 5000005.58815
7.552889999999999 5.24 -3.04 5000005.58815
7.552889999999999 5.22 -3.04 5000005.58815
7.507607999999999 4.78 -3.04 5000005.51268
7.507607999999999 4.76 -3.04 5000005.51268
7.463532 4.58 -3.04 5000005.43922
7.463532 4.4 -3.04 5000005.43922
7.552889999999999 4.18 -3.04 5000005.58815
7.599432 3.52 -3.04 5000005.66572
7.552889999999999 5.24 -3.06 5000005.58815
7.552889999999999 5.22 -3.06 5000005.58815
7.507607999999999 4.76 -3.06 5000005.51268
7.463532 4.68 -3.06 5000005.43922
7.463532 4.58 -3.06 5000005.43922
7.463532 4.56 -3.06 5000005.43922
7.463532 4.4 -3.06 5000005.43922
7.463532 4.38 -3.06 5000005.43922
7.507607999999999 4.26 -3.06 5000005.51268
7.507607999999999 4.24 -3.06 5000005.51268
7.552889999999999 3.58 -3.06 5000005.58815
7.463532 4.66 -3.08 5000005.43922
7.463532 4.4 -3.08 5000005.43922
7.463532 4.38 -3.08 5000005.43922
7.507607999999999 4.26 -3.08 5000005.51268
7.507607999999999 4.24 -3.08 5000005.51268
7.552889999999999 3.82 -3.08 5000005.58815
7.552889999999999 3.58 -3.08 5000005.58815
7.599432 3.56 -3.08 5000005.66572
7.463532 4.66 -3.1 5000005.43922
7.420614 4.38 -3.1 5000005.36769
7.507607999999999 4.24 -3.1 5000005.51268
7.507607999999999 4.22 -3.1 5000005.51268
7.552889999999999 3.82 -3.1 5000005.58815
7.552889999999999 3.8 -3.1 5000005.58815
7.507607999999999 3.82 -3.12 5000005.51268
7.599432 3.14 -3.12 5000005.66572
7.599432 3.12 -3.12 5000005.66572
7.338077999999999 4.76 -3.16 5000005.23013
7.338077999999999 4.74 -3.16 5000005.23013
7.338077999999999 4.04 -3.16 5000005.23013
7.507607999999999 3.84 -3.16 5000005.51268
7.747145999999999 2.56 -3.16 5000005.91191
7.747145999999999 2.54 -3.16 5000005.91191
7.7992799999999995 1.1 -3.16 5000005.9988
7.298376 4.74 -3.18 5000005.16396
7.378806 4.64 -3.18 5000005.29801
7.338077999999999 4.6 -3.18 5000005.23013
7.338077999999999 4.58 -3.18 5000005.23013
7.338077999999999 4.08 -3.18 5000005.23013
7.7992799999999995 2.6 -3.18 5000005.9988
7.463532 4.84 -3.2 5000005.43922
7.420614 4.82 -3.2 5000005.36769
7.338077999999999 4.78 -3.2 5000005.23013
7.378806 4.66 -3.2 5000005.29801
7.378806 4.64 -3.2 5000005.29801
7.338077999999999 3.98 -3.2 5000005.23013
7.338077999999999 3.96 -3.2 5000005.23013
7.7992799999999995 2.6 -3.2 5000005.9988
7.747145999999999 2.58 -3.2 5000005.91191
7.298376 4.78 -3.22 5000005.16396
7.259664000000001 4.34 -3.22 5000005.09944
7.338077999999999 3.96 -3.22 5000005.23013
7.259664000000001 4.4 -3.24 5000005.09944
7.298376 4.24 -3.24 5000005.16396
7.259664000000001 4.1 -3.24 5000005.09944
7.259664000000001 4.4 -3.26 5000005.09944
7.298376 4.24 -3.26 5000005.16396
7.298376 4.22 -3.26 5000005.16396
7.463532 3.26 -3.26 5000005.43922
7.259664000000001 4.38 -3.28 5000005.09944
7.298376 4.22 -3.28 5000005.16396
7.298376 3.94 -3.28 5000005.16396
7.298376 3.92 -3.28 5000005.16396
7.298376 3.9 -3.28 5000005.16396
7.185072 4.04 -3.32 5000004.97512
7.338077999999999 3.38 -3.32 5000005.23013
7.338077999999999 3.36 -3.32 5000005.23013
7.149126 5.34 -3.34 5000004.91521
7.185072 4.44 -3.34 5000004.97512
7.185072 4.42 -3.34 5000004.97512
7.221906000000001 4.14 -3.34 5000005.03651
7.221906000000001 4.12 -3.34 5000005.03651
7.338077999999999 3.36 -3.34 5000005.23013
7.552889999999999 -5.26 -3.34 5000005.58815
7.378806 5.78 -3.36 5000005.29801
7.114037999999999 5.0 -3.36 5000004.85673
7.185072 4.4 -3.36 5000004.97512
7.463532 3.02 -3.36 5000005.43922
7.378806 5.8 -3.38 5000005.29801
7.114037999999999 5.54 -3.38 5000004.85673
7.114037999999999 5.0 -3.38 5000004.85673
7.114037999999999 4.98 -3.38 5000004.85673
7.114037999999999 4.64 -3.38 5000004.85673
7.552889999999999 -4.2 -3.38 5000005.58815
7.552889999999999 -4.22 -3.38 5000005.58815
7.378806 5.82 -3.4 5000005.29801
7.221906000000001 5.76 -3.4 5000005.03651
7.221906000000001 5.74 -3.4 5000005.03651
7.259664000000001 5.7 -3.4 5000005.09944
7.114037999999999 5.54 -3.4 5000004.85673
7.114037999999999 5.34 -3.4 5000004.85673
7.114037999999999 4.96 -3.4 5000004.85673
7.185072 4.44 -3.4 5000004.97512
7.185072 4.38 -3.4 5000004.97512
7.185072 4.22 -3.4 5000004.97512
7.298376 3.52 -3.4 5000005.16396
7.298376 3.5 -3.4 5000005.16396
7.552889999999999 -4.2 -3.4 5000005.58815
7.552889999999999 -4.22 -3.4 5000005.58815
7.185072 5.9 -3.42 5000004.97512
7.149126 5.8 -3.42 5000004.91521
7.185072 5.76 -3.42 5000004.97512
7.046298 5.62 -3.42 5000004.74383
7.114037999999999 5.36 -3.42 5000004.85673
7.079772 5.26 -3.42 5000004.79962
7.079772 4.92 -3.42 5000004.79962
7.079772 4.9 -3.42 5000004.79962
7.079772 4.72 -3.42 5000004.79962
7.185072 4.36 -3.42 5000004.97512
7.298376 3.5 -3.42 5000005.16396
7.149126 5.94 -3.44 5000004.91521
7.185072 5.9 -3.44 5000004.97512
7.114037999999999 5.82 -3.44 5000004.85673
7.114037999999999 5.8 -3.44 5000004.85673
7.046298 5.64 -3.44 5000004.74383
7.046298 5.62 -3.44 5000004.74383
7.114037999999999 5.36 -3.44 5000004.85673
7.079772 4.88 -3.44 5000004.79962
7.420614 2.74 -3.44 5000005.36769
7.420614 2.72 -3.44 5000005.36769
7.463532 2.32 -3.44 5000005.43922
7.463532 2.3 -3.44 5000005.43922
7.149126 5.94 -3.46 5000004.91521
7.079772 5.82 -3.46 5000004.79962
7.079772 5.8 -3.46 5000004.79962
7.114037999999999 5.76 -3.46 5000004.85673
7.046298 5.64 -3.46 5000004.74383
7.046298 5.62 -3.46 5000004.74383
7.046298 4.6 -3.46 5000004.74383
7.185072 3.9 -3.46 5000004.97512
7.420614 2.72 -3.46 5000005.36769
7.046298 5.76 -3.48 5000004.74383
7.046298 5.74 -3.48 5000004.74383
7.046298 5.12 -3.48 5000004.74383
7.114037999999999 4.46 -3.48 5000004.85673
7.185072 3.94 -3.48 5000004.97512
7.185072 3.92 -3.48 5000004.97512
7.420614 2.86 -3.48 5000005.36769
7.463532 2.34 -3.48 5000005.43922
7.463532 2.32 -3.48 5000005.43922
7.046298 5.76 -3.5 5000004.74383
7.046298 5.74 -3.5 5000004.74383
7.046298 5.12 -3.5 5000004.74383
7.114037999999999 4.46 -3.5 5000004.85673
7.114037999999999 4.28 -3.5 5000004.85673
7.114037999999999 4.24 -3.5 5000004.85673
7.185072 3.92 -3.5 5000004.97512
7.046298 5.76 -3.52 5000004.74383
7.046298 5.74 -3.52 5000004.74383
7.046298 5.12 -3.52 5000004.74383
7.114037999999999 4.28 -3.52 5000004.85673
7.114037999999999 4.26 -3.52 5000004.85673
7.338077999999999 3.12 -3.54 5000005.23013
7.013598 5.14 -3.56 5000004.68933
7.149126 3.92 -3.56 5000004.91521
7.338077999999999 3.12 -3.56 5000005.23013
7.338077999999999 -4.08 -3.56 5000005.23013
6.919854 5.36 -3.58 5000004.53309
7.149126 3.9 -3.58 5000004.91521
7.338077999999999 3.16 -3.58 5000005.23013
6.919854 5.36 -3.6 5000004.53309
6.919854 5.34 -3.6 5000004.53309
6.981642 4.82 -3.6 5000004.63607
6.919854 5.36 -3.62 5000004.53309
6.919854 5.34 -3.62 5000004.53309
6.919854 5.9 -3.64 5000004.53309
6.88998 5.34 -3.64 5000004.4833
6.88998 5.32 -3.64 5000004.4833
6.981642 4.38 -3.64 5000004.63607
7.013598 4.3 -3.64 5000004.68933
7.013598 4.28 -3.64 5000004.68933
7.298376 -4.16 -3.64 5000005.16396
6.919854 5.92 -3.66 5000004.53309
6.919854 5.9 -3.66 5000004.53309
6.860754 5.42 -3.66 5000004.43459
6.860754 5.32 -3.66 5000004.43459
6.981642 4.48 -3.66 5000004.63607
7.013598 4.28 -3.66 5000004.68933
6.919854 5.9 -3.68 5000004.53309
6.919854 5.88 -3.68 5000004.53309
6.860754 5.42 -3.68 5000004.43459
6.860754 5.4 -3.68 5000004.43459
6.919854 5.04 -3.68 5000004.53309
6.88998 4.98 -3.68 5000004.4833
6.88998 4.82 -3.68 5000004.4833
6.88998 4.8 -3.68 5000004.4833
6.832158 5.42 -3.7 5000004.38693
6.832158 5.4 -3.7 5000004.38693
6.832158 5.38 -3.7 5000004.38693
6.88998 5.04 -3.7 5000004.4833
6.88998 5.02 -3.7 5000004.4833
6.88998 4.9 -3.7 5000004.4833
6.832158 5.48 -3.72 5000004.38693
6.832158 5.4 -3.72 5000004.38693
6.832158 5.38 -3.72 5000004.38693
6.88998 5.04 -3.72 5000004.4833
6.88998 5.02 -3.72 5000004.4833
6.88998 4.9 -3.72 5000004.4833
6.832158 5.48 -3.74 5000004.38693
6.832158 5.46 -3.74 5000004.38693
6.832158 5.44 -3.74 5000004.38693
6.832158 5.38 -3.74 5000004.38693
6.832158 5.36 -3.74 5000004.38693
6.832158 5.34 -3.74 5000004.38693
6.860754 5.24 -3.74 5000004.43459
6.88998 5.02 -3.74 5000004.4833
6.88998 5.0 -3.74 5000004.4833
6.88998 4.88 -3.74 5000004.4833
6.919854 4.7 -3.74 5000004.53309
6.832158 5.46 -3.76 5000004.38693
6.832158 5.44 -3.76 5000004.38693
6.832158 5.46 -3.78 5000004.38693
6.832158 5.44 -3.78 5000004.38693
6.832158 5.42 -3.78 5000004.38693
6.9504 4.02 -3.78 5000004.584
6.9504 4.0 -3.78 5000004.584
6.804168 5.44 -3.8 5000004.34028
6.804168 5.42 -3.8 5000004.34028
6.88998 4.46 -3.8 5000004.4833
6.9504 4.0 -3.8 5000004.584
6.9504 3.98 -3.8 5000004.584
6.88998 3.86 -3.8 5000004.4833
6.919854 3.84 -3.8 5000004.53309
6.9504 3.76 -3.8 5000004.584
6.804168 5.42 -3.82 5000004.34028
6.804168 5.4 -3.82 5000004.34028
6.9504 3.76 -3.82 5000004.584
7.114037999999999 -1.6 -3.82 5000004.85673
6.804168 5.94 -3.84 5000004.34028
6.776765999999999 5.42 -3.84 5000004.29461
6.776765999999999 5.4 -3.84 5000004.29461
6.832158 4.58 -3.84 5000004.38693
6.860754 4.14 -3.84 5000004.43459
6.860754 4.12 -3.84 5000004.43459
6.860754 4.1 -3.84 5000004.43459
6.860754 4.08 -3.84 5000004.43459
6.860754 4.06 -3.84 5000004.43459
6.88998 3.92 -3.84 5000004.4833
6.88998 3.9 -3.84 5000004.4833
6.9504 3.76 -3.84 5000004.584
7.079772 3.52 -3.84 5000004.79962
6.776765999999999 5.4 -3.86 5000004.29461
7.079772 3.52 -3.86 5000004.79962
6.919854 3.84 -3.88 5000004.53309
6.919854 3.8 -3.88 5000004.53309
7.079772 3.52 -3.88 5000004.79962
6.919854 3.8 -3.9 5000004.53309
6.919854 3.8 -3.92 5000004.53309
6.832158 4.36 -3.94 5000004.38693
6.832158 4.34 -3.94 5000004.38693
6.919854 3.8 -3.94 5000004.53309
6.832158 4.36 -3.96 5000004.38693
6.832158 4.34 -3.96 5000004.38693
6.832158 4.32 -3.96 5000004.38693
6.832158 3.96 -3.96 5000004.38693
6.919854 3.78 -3.96 5000004.53309
6.9504 3.72 -3.96 5000004.584
6.9504 3.7 -3.96 5000004.584
7.013598 3.58 -3.96 5000004.68933
6.832158 3.96 -3.98 5000004.38693
6.919854 3.78 -3.98 5000004.53309
7.013598 3.56 -3.98 5000004.68933
6.832158 3.96 -4.0 5000004.38693
6.919854 3.78 -4.0 5000004.53309
6.919854 3.78 -4.02 5000004.53309
6.981642 0.92 -4.02 5000004.63607
6.981642 0.9 -4.02 5000004.63607
6.9504 -5.18 -4.02 5000004.584
6.919854 3.78 -4.04 5000004.53309
6.919854 3.76 -4.04 5000004.53309
6.9504 -3.24 -4.04 5000004.584
6.9504 -3.26 -4.04 5000004.584
6.9504 -5.2 -4.04 5000004.584
6.9504 -5.22 -4.04 5000004.584
6.72366 5.8 -4.06 5000004.2061
6.69792 4.88 -4.06 5000004.1632
6.7499340000000005 4.52 -4.06 5000004.24989
6.7499340000000005 4.5 -4.06 5000004.24989
6.919854 -5.26 -4.06 5000004.53309
6.69792 4.86 -4.08 5000004.1632
6.7499340000000005 4.5 -4.08 5000004.24989
6.672695999999999 4.98 -4.12 5000004.12116
6.647982 5.1 -4.14 5000004.07997
6.647982 4.64 -4.14 5000004.07997
6.647982 4.62 -4.14 5000004.07997
6.623754 5.8 -4.16 5000004.03959
6.647982 4.9 -4.16 5000004.07997
6.647982 4.68 -4.16 5000004.07997
6.647982 4.66 -4.16 5000004.07997
6.647982 4.62 -4.16 5000004.07997
6.672695999999999 4.6 -4.16 5000004.12116
6.623754 5.8 -4.18 5000004.03959
6.647982 4.68 -4.18 5000004.07997
6.647982 4.66 -4.18 5000004.07997
6.647982 4.64 -4.18 5000004.07997
6.647982 4.62 -4.18 5000004.07997
6.672695999999999 4.6 -4.18 5000004.12116
6.623754 5.78 -4.2 5000004.03959
6.647982 4.6 -4.2 5000004.07997
6.804168 1.94 -4.22 5000004.34028
6.804168 2.92 -4.24 5000004.34028
6.804168 2.9 -4.24 5000004.34028
6.804168 -3.82 -4.24 5000004.34028
6.804168 -3.84 -4.24 5000004.34028
6.804168 2.0 -4.26 5000004.34028
6.804168 1.98 -4.26 5000004.34028
6.7499340000000005 1.3 -4.3 5000004.24989
6.72366 -6.66 -4.3 5000004.2061
6.72366 -6.68 -4.3 5000004.2061
6.69792 -6.7 -4.3 5000004.1632
6.7499340000000005 3.7 -4.32 5000004.24989
6.804168 -6.34 -4.32 5000004.34028
6.776765999999999 -6.36 -4.32 5000004.29461
6.7499340000000005 -6.38 -4.32 5000004.24989
6.7499340000000005 -6.4 -4.32 5000004.24989
6.69792 -6.48 -4.32 5000004.1632
6.672695999999999 -6.5 -4.32 5000004.12116
6.672695999999999 -6.52 -4.32 5000004.12116
6.647982 -6.58 -4.32 5000004.07997
6.69792 -6.64 -4.32 5000004.1632
6.69792 -6.66 -4.32 5000004.1632
6.69792 -6.68 -4.32 5000004.1632
6.672695999999999 -6.7 -4.32 5000004.12116
6.647982 -6.72 -4.32 5000004.07997
6.623754 -6.74 -4.32 5000004.03959
6.7499340000000005 -4.82 -4.34 5000004.24989
6.7499340000000005 -4.84 -4.34 5000004.24989
6.776765999999999 -6.36 -4.34 5000004.29461
6.7499340000000005 -6.38 -4.34 5000004.24989
6.7499340000000005 -6.4 -4.34 5000004.24989
6.72366 -6.42 -4.34 5000004.2061
6.69792 -6.44 -4.34 5000004.1632
6.69792 -6.46 -4.34 5000004.1632
6.69792 -6.48 -4.34 5000004.1632
6.672695999999999 -6.5 -4.34 5000004.12116
6.672695999999999 -6.52 -4.34 5000004.12116
6.672695999999999 -6.54 -4.34 5000004.12116
6.672695999999999 -6.56 -4.34 5000004.12116
6.647982 -6.58 -4.34 5000004.07997
6.647982 -6.6 -4.34 5000004.07997
6.69792 -6.64 -4.34 5000004.1632
6.69792 -6.66 -4.34 5000004.1632
6.69792 -6.68 -4.34 5000004.1632
6.672695999999999 -6.7 -4.34 5000004.12116
6.647982 -6.72 -4.34 5000004.07997
6.623754 -6.74 -4.34 5000004.03959
6.72366 -6.42 -4.36 5000004.2061
6.69792 -6.44 -4.36 5000004.1632
6.69792 -6.46 -4.36 5000004.1632
6.69792 -6.48 -4.36 5000004.1632
6.672695999999999 -6.5 -4.36 5000004.12116
6.672695999999999 -6.52 -4.36 5000004.12116
6.672695999999999 -6.54 -4.36 5000004.12116
6.672695999999999 -6.56 -4.36 5000004.12116
6.647982 -6.58 -4.36 5000004.07997
6.647982 -6.6 -4.36 5000004.07997
6.672695999999999 -6.62 -4.36 5000004.12116
6.672695999999999 -6.64 -4.36 5000004.12116
6.672695999999999 -6.66 -4.36 5000004.12116
6.672695999999999 -6.68 -4.36 5000004.12116
6.623754 -6.7 -4.36 5000004.03959
6.623754 -6.72 -4.36 5000004.03959
6.623754 -6.74 -4.36 5000004.03959
6.623754 5.36 -4.38 5000004.03959
6.72366 -1.96 -4.38 5000004.2061
6.72366 -1.98 -4.38 5000004.2061
6.623754 5.38 -4.4 5000004.03959
6.672695999999999 -6.34 -4.4 5000004.12116
6.623754 5.4 -4.42 5000004.03959
6.672695999999999 4.2 -4.46 5000004.12116
6.672695999999999 -1.82 -4.46 5000004.12116
6.623754 3.52 -4.5 5000004.03959
6.647982 -0.98 -4.5 5000004.07997
6.623754 -3.38 -4.5 5000004.03959
6.647982 4.28 -4.52 5000004.07997
6.647982 4.26 -4.52 5000004.07997
6.647982 2.66 -4.52 5000004.07997
6.647982 2.64 -4.54 5000004.07997
6.623754 -2.74 -4.54 5000004.03959
6.623754 -2.76 -4.54 5000004.03959
6.623754 -5.1 -4.54 5000004.03959
6.623754 -5.12 -4.54 5000004.03959
6.623754 -2.82 -4.56 5000004.03959
6.623754 -5.1 -4.56 5000004.03959
6.623754 -5.12 -4.56 5000004.03959
6.623754 -1.0 -4.58 5000004.03959
6.623754 -1.34 -4.58 5000004.03959
6.623754 2.64 -4.6 5000004.03959
6.623754 2.62 -4.6 5000004.03959
72696000000001 -6.52 -4.36 5000004.12116
11.472696000000001 -6.54 -4.36 5000004.12116
11.472696000000001 -6.56 -4.36 5000004.12116
11.447982 -6.58 -4.36 5000004.07997
11.447982 -6.6 -4.36 5000004.07997
11.472696000000001 -6.62 -4.36 5000004.12116
11.472696000000001 -6.64 -4.36 5000004.12116
11.472696000000001 -6.66 -4.36 5000004.12116
11.472696000000001 -6.68 -4.36 5000004.12116
11.423754 -6.7 -4.36 5000004.03959
11.423754 -6.72 -4.36 5000004.03959
11.423754 -6.74 -4.36 5000004.03959
11.423754 5.36 -4.38 5000004.03959
11.52366 -1.96 -4.38 5000004.2061
11.52366 -1.98 -4.38 5000004.2061
11.423754 5.38 -4.4 5000004.03959
11.472696000000001 -6.34 -4.4 5000004.12116
11.423754 5.4 -4.42 5000004.03959
11.472696000000001 4.2 -4.46 5000004.12116
11.472696000000001 -1.82 -4.46 5000004.12116
11.423754 3.52 -4.5 5000004.03959
11.447982 -0.98 -4.5 5000004.07997
11.423754 -3.38 -4.5 5000004.03959
11.447982 4.28 -4.52 5000004.07997
11.447982 4.26 -4.52 5000004.07997
11.447982 2.66 -4.52 5000004.07997
11.447982 2.64 -4.54 5000004.07997
11.423754 -2.74 -4.54 5000004.03959
11.423754 -2.76 -4.54 5000004.03959
11.423754 -5.1 -4.54 5000004.03959
11.423754 -5.12 -4.54 5000004.03959
11.423754 -2.82 -4.56 5000004.03959
11.423754 -5.1 -4.56 5000004.03959
11.423754 -5.12 -4.56 5000004.03959
11.423754 -1.0 -4.58 5000004.03959
11.423754 -1.34 -4.58 5000004.03959
11.423754 2.64 -4.6 5000004.03959
11.423754 2.62 -4.6 5000004.03959
754772 4.34 -3.94 5000004.38693
7.813236 3.8 -3.94 5000004.53309
7.754772 4.36 -3.96 5000004.38693
7.754772 4.34 -3.96 5000004.38693
7.754772 4.32 -3.96 5000004.38693
7.754772 3.96 -3.96 5000004.38693
7.813236 3.78 -3.96 5000004.53309
7.8336 3.72 -3.96 5000004.584
7.8336 3.7 -3.96 5000004.584
7.875731999999999 3.58 -3.96 5000004.68933
7.754772 3.96 -3.98 5000004.38693
7.813236 3.78 -3.98 5000004.53309
7.875731999999999 3.56 -3.98 5000004.68933
7.754772 3.96 -4.0 5000004.38693
7.813236 3.78 -4.0 5000004.53309
7.813236 3.78 -4.02 5000004.53309
7.854428 0.92 -4.02 5000004.63607
7.854428 0.9 -4.02 5000004.63607
7.8336 -5.18 -4.02 5000004.584
7.813236 3.78 -4.04 5000004.53309
7.813236 3.76 -4.04 5000004.53309
7.8336 -3.24 -4.04 5000004.584
7.8336 -3.26 -4.04 5000004.584
7.8336 -5.2 -4.04 5000004.584
7.8336 -5.22 -4.04 5000004.584
7.68244 5.8 -4.06 5000004.2061
7.66528 4.88 -4.06 5000004.1632
7.699956 4.52 -4.06 5000004.24989
7.699956 4.5 -4.06 5000004.24989
7.813236 -5.26 -4.06 5000004.53309
7.66528 4.86 -4.08 5000004.1632
7.699956 4.5 -4.08 5000004.24989
7.648464000000001 4.98 -4.12 5000004.12116
7.631988 5.1 -4.14 5000004.07997
7.631988 4.64 -4.14 5000004.07997
7.631988 4.62 -4.14 5000004.07997
7.615836 5.8 -4.16 5000004.03959
7.631988 4.9 -4.16 5000004.07997
7.631988 4.68 -4.16 5000004.07997
7.631988 4.66 -4.16 5000004.07997
7.631988 4.62 -4.16 5000004.07997
7.648464000000001 4.6 -4.16 5000004.12116
7.615836 5.8 -4.18 5000004.03959
7.631988 4.68 -4.18 5000004.07997
7.631988 4.66 -4.18 5000004.07997
7.631988 4.64 -4.18 5000004.07997
7.631988 4.62 -4.18 5000004.07997
7.648464000000001 4.6 -4.18 5000004.12116
7.615836 5.78 -4.2 5000004.03959
7.631988 4.6 -4.2 5000004.07997
7.736111999999999 1.94 -4.22 5000004.34028
7.736111999999999 2.92 -4.24 5000004.34028
7.736111999999999 2.9 -4.24 5000004.34028
7.736111999999999 -3.82 -4.24 5000004.34028
7.736111999999999 -3.84 -4.24 5000004.34028
7.736111999999999 2.0 -4.26 5000004.34028
7.736111999999999 1.98 -4.26 5000004.34028
7.699956 1.3 -4.3 5000004.24989
7.68244 -6.66 -4.3 5000004.2061
7.68244 -6.68 -4.3 5000004.2061
7.66528 -6.7 -4.3 5000004.1632
7.699956 3.7 -4.32 5000004.24989
7.736111999999999 -6.34 -4.32 5000004.34028
7.7178439999999995 -6.36 -4.32 5000004.29461
7.699956 -6.38 -4.32 5000004.24989
7.699956 -6.4 -4.32 5000004.24989
7.66528 -6.48 -4.32 5000004.1632
7.648464000000001 -6.5 -4.32 5000004.12116
7.648464000000001 -6.52 -4.32 5000004.12116
7.631988 -6.58 -4.32 5000004.07997
7.66528 -6.64 -4.32 5000004.1632
7.66528 -6.66 -4.32 5000004.1632
7.66528 -6.68 -4.32 5000004.1632
7.648464000000001 -6.7 -4.32 5000004.12116
7.631988 -6.72 -4.32 5000004.07997
7.615836 -6.74 -4.32 5000004.03959
7.699956 -4.82 -4.34 5000004.24989
7.699956 -4.84 -4.34 5000004.24989
7.7178439999999995 -6.36 -4.34 5000004.29461
7.699956 -6.38 -4.34 5000004.24989
7.699956 -6.4 -4.34 5000004.24989
7.68244 -6.42 -4.34 5000004.2061
7.66528 -6.44 -4.34 5000004.1632
7.66528 -6.46 -4.34 5000004.1632
7.66528 -6.48 -4.34 5000004.1632
7.648464000000001 -6.5 -4.34 5000004.12116
7.648464000000001 -6.52 -4.34 5000004.12116
7.648464000000001 -6.54 -4.34 5000004.12116
7.648464000000001 -6.56 -4.34 5000004.12116
7.631988 -6.58 -4.34 5000004.07997
7.631988 -6.6 -4.34 5000004.07997
7.66528 -6.64 -4.34 5000004.1632
7.66528 -6.66 -4.34 5000004.1632
7.66528 -6.68 -4.34 5000004.1632
7.648464000000001 -6.7 -4.34 5000004.12116
7.631988 -6.72 -4.34 5000004.07997
7.615836 -6.74 -4.34 5000004.03959
7.68244 -6.42 -4.36 5000004.2061
7.66528 -6.44 -4.36 5000004.1632
7.66528 -6.46 -4.36 5000004.1632
7.66528 -6.48 -4.36 5000004.1632
7.648464000000001 -6.5 -4.36 5000004.12116
7.648464000000001 -6.52 -4.36 5000004.12116
7.648464000000001 -6.54 -4.36 5000004.12116
7.648464000000001 -6.56 -4.36 5000004.12116
7.631988 -6.58 -4.36 5000004.07997
7.631988 -6.6 -4.36 5000004.07997
7.648464000000001 -6.62 -4.36 5000004.12116
7.648464000000001 -6.64 -4.36 5000004.12116
7.648464000000001 -6.66 -4.36 5000004.12116
7.648464000000001 -6.68 -4.36 5000004.12116
7.615836 -6.7 -4.36 5000004.03959
7.615836 -6.72 -4.36 5000004.03959
7.615836 -6.74 -4.36 5000004.03959
7.615836 5.36 -4.38 5000004.03959
7.68244 -1.96 -4.38 5000004.2061
7.68244 -1.98 -4.38 5000004.2061
7.615836 5.38 -4.4 5000004.03959
7.648464000000001 -6.34 -4.4 5000004.12116
7.615836 5.4 -4.42 5000004.03959
7.648464000000001 4.2 -4.46 5000004.12116
7.648464000000001 -1.82 -4.46 5000004.12116
7.615836 3.52 -4.5 5000004.03959
7.631988 -0.98 -4.5 5000004.07997
7.615836 -3.38 -4.5 5000004.03959
7.631988 4.28 -4.52 5000004.07997
7.631988 4.26 -4.52 5000004.07997
7.631988 2.66 -4.52 5000004.07997
7.631988 2.64 -4.54 5000004.07997
7.615836 -2.74 -4.54 5000004.03959
7.615836 -2.76 -4.54 5000004.03959
7.615836 -5.1 -4.54 5000004.03959
7.615836 -5.12 -4.54 5000004.03959
7.615836 -2.82 -4.56 5000004.03959
7.615836 -5.1 -4.56 5000004.03959
7.615836 -5.12 -4.56 5000004.03959
7.615836 -1.0 -4.58 5000004.03959
7.615836 -1.34 -4.58 5000004.03959
7.615836 2.64 -4.6 5000004.03959
7.615836 2.62 -4.6 5000004.03959
754772 3.96 -3.98 5000004.38693
5.813236 3.78 -3.98 5000004.53309
5.875732 3.56 -3.98 5000004.68933
5.754772 3.96 -4.0 5000004.38693
5.813236 3.78 -4.0 5000004.53309
5.813236 3.78 -4.02 5000004.53309
5.854428 0.92 -4.02 5000004.63607
5.854428 0.9 -4.02 5000004.63607
5.8336 -5.18 -4.02 5000004.584
5.813236 3.78 -4.04 5000004.53309
5.813236 3.76 -4.04 5000004.53309
5.8336 -3.24 -4.04 5000004.584
5.8336 -3.26 -4.04 5000004.584
5.8336 -5.2 -4.04 5000004.584
5.8336 -5.22 -4.04 5000004.584
5.68244 5.8 -4.06 5000004.2061
5.66528 4.88 -4.06 5000004.1632
5.699956 4.52 -4.06 5000004.24989
5.699956 4.5 -4.06 5000004.24989
5.813236 -5.26 -4.06 5000004.53309
5.66528 4.86 -4.08 5000004.1632
5.699956 4.5 -4.08 5000004.24989
5.648464 4.98 -4.12 5000004.12116
5.631988 5.1 -4.14 5000004.07997
5.631988 4.64 -4.14 5000004.07997
5.631988 4.62 -4.14 5000004.07997
5.615836000000001 5.8 -4.16 5000004.03959
5.631988 4.9 -4.16 5000004.07997
5.631988 4.68 -4.16 5000004.07997
5.631988 4.66 -4.16 5000004.07997
5.631988 4.62 -4.16 5000004.07997
5.648464 4.6 -4.16 5000004.12116
5.615836000000001 5.8 -4.18 5000004.03959
5.631988 4.68 -4.18 5000004.07997
5.631988 4.66 -4.18 5000004.07997
5.631988 4.64 -4.18 5000004.07997
5.631988 4.62 -4.18 5000004.07997
5.648464 4.6 -4.18 5000004.12116
5.615836000000001 5.78 -4.2 5000004.03959
5.631988 4.6 -4.2 5000004.07997
5.736112 1.94 -4.22 5000004.34028
5.736112 2.92 -4.24 5000004.34028
5.736112 2.9 -4.24 5000004.34028
5.736112 -3.82 -4.24 5000004.34028
5.736112 -3.84 -4.24 5000004.34028
5.736112 2.0 -4.26 5000004.34028
5.736112 1.98 -4.26 5000004.34028
5.699956 1.3 -4.3 5000004.24989
5.68244 -6.66 -4.3 5000004.2061
5.68244 -6.68 -4.3 5000004.2061
5.66528 -6.7 -4.3 5000004.1632
5.699956 3.7 -4.32 5000004.24989
5.736112 -6.34 -4.32 5000004.34028
5.7178439999999995 -6.36 -4.32 5000004.29461
5.699956 -6.38 -4.32 5000004.24989
5.699956 -6.4 -4.32 5000004.24989
5.66528 -6.48 -4.32 5000004.1632
5.648464 -6.5 -4.32 5000004.12116
5.648464 -6.52 -4.32 5000004.12116
5.631988 -6.58 -4.32 5000004.07997
5.66528 -6.64 -4.32 5000004.1632
5.66528 -6.66 -4.32 5000004.1632
5.66528 -6.68 -4.32 5000004.1632
5.648464 -6.7 -4.32 5000004.12116
5.631988 -6.72 -4.32 5000004.07997
5.615836000000001 -6.74 -4.32 5000004.03959
5.699956 -4.82 -4.34 5000004.24989
5.699956 -4.84 -4.34 5000004.24989
5.7178439999999995 -6.36 -4.34 5000004.29461
5.699956 -6.38 -4.34 5000004.24989
5.699956 -6.4 -4.34 5000004.24989
5.68244 -6.42 -4.34 5000004.2061
5.66528 -6.44 -4.34 5000004.1632
5.66528 -6.46 -4.34 5000004.1632
5.66528 -6.48 -4.34 5000004.1632
5.648464 -6.5 -4.34 5000004.12116
5.648464 -6.52 -4.34 5000004.12116
5.648464 -6.54 -4.34 5000004.12116
5.648464 -6.56 -4.34 5000004.12116
5.631988 -6.58 -4.34 5000004.07997
5.631988 -6.6 -4.34 5000004.07997
5.66528 -6.64 -4.34 5000004.1632
5.66528 -6.66 -4.34 5000004.1632
5.66528 -6.68 -4.34 5000004.1632
5.648464 -6.7 -4.34 5000004.12116
5.631988 -6.72 -4.34 5000004.07997
5.615836000000001 -6.74 -4.34 5000004.03959
5.68244 -6.42 -4.36 5000004.2061
5.66528 -6.44 -4.36 5000004.1632
5.66528 -6.46 -4.36 5000004.1632
5.66528 -6.48 -4.36 5000004.1632
5.648464 -6.5 -4.36 5000004.12116
5.648464 -6.52 -4.36 5000004.12116
5.648464 -6.54 -4.36 5000004.12116
5.648464 -6.56 -4.36 5000004.12116
5.631988 -6.58 -4.36 5000004.07997
5.631988 -6.6 -4.36 5000004.07997
5.648464 -6.62 -4.36 5000004.12116
5.648464 -6.64 -4.36 5000004.12116
5.648464 -6.66 -4.36 5000004.12116
5.648464 -6.68 -4.36 5000004.12116
5.615836000000001 -6.7 -4.36 5000004.03959
5.615836000000001 -6.72 -4.36 5000004.03959
5.615836000000001 -6.74 -4.36 5000004.03959
5.615836000000001 5.36 -4.38 5000004.03959
5.68244 -1.96 -4.38 5000004.2061
5.68244 -1.98 -4.38 5000004.2061
5.615836000000001 5.38 -4.4 5000004.03959
5.648464 -6.34 -4.4 5000004.12116
5.615836000000001 5.4 -4.42 5000004.03959
5.648464 4.2 -4.46 5000004.12116
5.648464 -1.82 -4.46 5000004.12116
5.615836000000001 3.52 -4.5 5000004.03959
5.631988 -0.98 -4.5 5000004.07997
5.615836000000001 -3.38 -4.5 5000004.03959
5.631988 4.28 -4.52 5000004.07997
5.631988 4.26 -4.52 5000004.07997
5.631988 2.66 -4.52 5000004.07997
5.631988 2.64 -4.54 5000004.07997
5.615836000000001 -2.74 -4.54 5000004.03959
5.615836000000001 -2.76 -4.54 5000004.03959
5.615836000000001 -5.1 -4.54 5000004.03959
5.615836000000001 -5.12 -4.54 5000004.03959
5.615836000000001 -2.82 -4.56 5000004.03959
5.615836000000001 -5.1 -4.56 5000004.03959
5.615836000000001 -5.12 -4.56 5000004.03959
5.615836000000001 -1.0 -4.58 5000004.03959
5.615836000000001 -1.34 -4.58 5000004.03959
5.615836000000001 2.64 -4.6 5000004.03959
5.615836000000001 2.62 -4.6 5000004.03959
 2.7333333333333334 2.6 5000031.2989
11.129943333333333 1.4 2.6 5000033.8983
11.043296666666667 -11.333333333333334 2.6 5000031.2989
10.678886666666667 -13.566666666666666 2.6 5000020.3666
10.678886666666667 -13.6 2.6 5000020.3666
10.64662 -14.633333333333333 2.6 5000019.3986
10.438306666666668 -16.5 2.6 5000013.1492
10.503143333333334 -17.366666666666667 2.6 5000015.0943
11.129943333333333 1.4 2.566666666666667 5000033.8983
10.71454 -12.7 2.566666666666667 5000021.4362
10.64662 -13.8 2.566666666666667 5000019.3986
10.438306666666668 -16.466666666666665 2.566666666666667 5000013.1492
10.438306666666668 -16.5 2.566666666666667 5000013.1492
10.438306666666668 -16.533333333333335 2.566666666666667 5000013.1492
10.26656 -1.8666666666666667 2.533333333333333 5000007.9968
10.848176666666667 -12.0 2.533333333333333 5000025.4453
10.71454 -12.7 2.533333333333333 5000021.4362
10.438306666666668 -16.5 2.533333333333333 5000013.1492
10.438306666666668 -16.533333333333335 2.533333333333333 5000013.1492
10.503143333333334 -17.5 2.533333333333333 5000015.0943
11.043296666666667 3.2333333333333334 2.5 5000031.2989
11.129943333333333 1.9 2.5 5000033.8983
11.129943333333333 1.7666666666666666 2.5 5000033.8983
11.129943333333333 1.4 2.5 5000033.8983
10.26656 -1.8333333333333333 2.5 5000007.9968
10.26656 -1.8666666666666667 2.5 5000007.9968
10.848176666666667 -12.0 2.5 5000025.4453
10.678886666666667 -13.1 2.5 5000020.3666
10.678886666666667 -13.133333333333333 2.5 5000020.3666
10.617283333333333 -14.366666666666667 2.5 5000018.5185
10.617283333333333 -14.4 2.5 5000018.5185
10.438306666666668 -16.233333333333334 2.5 5000013.1492
10.438306666666668 -16.5 2.5 5000013.1492
10.438306666666668 -16.533333333333335 2.5 5000013.1492
11.043296666666667 2.7666666666666666 2.466666666666667 5000031.2989
10.26656 -1.8666666666666667 2.466666666666667 5000007.9968
11.232286666666667 -10.833333333333334 2.466666666666667 5000036.9686
10.438306666666668 -16.233333333333334 2.466666666666667 5000013.1492
10.438306666666668 -16.5 2.466666666666667 5000013.1492
10.438306666666668 -16.533333333333335 2.466666666666667 5000013.1492
10.503143333333334 -17.4 2.466666666666667 5000015.0943
10.503143333333334 -17.433333333333334 2.466666666666667 5000015.0943
