VERSION .7
FIELDS x y z rgb
SIZE 4 4 4 4
TYPE F F F F
COUNT 1 1 1 1
WIDTH 1253
HEIGHT 1
VIEWPOINT 0 0 0 1 0 0 0
POINTS 1253
DATA ascii
18.57126 -3.48 -0.54 5000023.9521
16.419959999999996 -3.86 -0.54 5000020.3666
16.419959999999996 -3.88 -0.54 5000020.3666
12.933599999999998 -5.18 -0.54 5000014.556
12.933599999999998 -5.2 -0.54 5000014.556
11.394240000000002 -5.82 -0.54 5000011.9904
21.64188 5.9 -0.56 5000029.0698
7.259664000000001 4.86 -0.56 5000005.09944
7.259664000000001 4.84 -0.56 5000005.09944
22.97934 -3.04 -0.56 5000031.2989
22.97934 -3.06 -0.56 5000031.2989
16.419959999999996 -3.86 -0.56 5000020.3666
16.419959999999996 -3.88 -0.56 5000020.3666
15.83916 -4.06 -0.56 5000019.3986
15.83916 -4.08 -0.56 5000019.3986
13.979940000000001 -4.72 -0.56 5000016.2999
13.6044 -4.74 -0.56 5000015.674
13.6044 -4.76 -0.56 5000015.674
12.933599999999998 -5.18 -0.56 5000014.556
12.933599999999998 -5.2 -0.56 5000014.556
12.933599999999998 -5.22 -0.56 5000014.556
13.25658 -5.36 -0.56 5000015.0943
13.25658 -5.38 -0.56 5000015.0943
13.25658 -5.4 -0.56 5000015.0943
14.386740000000001 -5.6 -0.56 5000016.9779
14.386740000000001 -5.62 -0.56 5000016.9779
13.979940000000001 -5.64 -0.56 5000016.2999
13.6044 -5.66 -0.56 5000015.674
12.933599999999998 -5.68 -0.56 5000014.556
12.63288 -5.7 -0.56 5000014.0548
12.08952 -5.72 -0.56 5000013.1492
12.08952 -5.74 -0.56 5000013.1492
11.843340000000001 -5.76 -0.56 5000012.7389
11.61198 -5.78 -0.56 5000012.3533
11.394240000000002 -5.8 -0.56 5000011.9904
11.394240000000002 -5.82 -0.56 5000011.9904
11.394240000000002 -5.84 -0.56 5000011.9904
21.64188 5.9 -0.58 5000029.0698
7.298376 4.86 -0.58 5000005.16396
7.298376 4.84 -0.58 5000005.16396
7.338077999999999 4.48 -0.58 5000005.23013
15.83916 -3.86 -0.58 5000019.3986
15.83916 -3.88 -0.58 5000019.3986
15.83916 -4.08 -0.58 5000019.3986
14.386740000000001 -4.66 -0.58 5000016.9779
13.979940000000001 -4.68 -0.58 5000016.2999
13.979940000000001 -4.7 -0.58 5000016.2999
13.979940000000001 -4.72 -0.58 5000016.2999
13.6044 -4.74 -0.58 5000015.674
13.6044 -4.76 -0.58 5000015.674
13.25658 -4.78 -0.58 5000015.0943
12.933599999999998 -5.08 -0.58 5000014.556
12.933599999999998 -5.2 -0.58 5000014.556
12.933599999999998 -5.22 -0.58 5000014.556
13.25658 -5.36 -0.58 5000015.0943
13.25658 -5.38 -0.58 5000015.0943
13.25658 -5.4 -0.58 5000015.0943
12.08952 -5.74 -0.58 5000013.1492
11.843340000000001 -5.76 -0.58 5000012.7389
11.61198 -5.78 -0.58 5000012.3533
11.394240000000002 -5.8 -0.58 5000011.9904
11.394240000000002 -5.82 -0.58 5000011.9904
21.64188 5.9 -0.6 5000029.0698
7.298376 4.84 -0.6 5000005.16396
7.338077999999999 4.48 -0.6 5000005.23013
19.467180000000003 -3.28 -0.6 5000025.4453
15.83916 -3.86 -0.6 5000019.3986
15.83916 -3.88 -0.6 5000019.3986
14.386740000000001 -4.38 -0.6 5000016.9779
12.933599999999998 -5.06 -0.6 5000014.556
12.933599999999998 -5.08 -0.6 5000014.556
12.933599999999998 -5.2 -0.6 5000014.556
12.933599999999998 -5.22 -0.6 5000014.556
12.933599999999998 -5.24 -0.6 5000014.556
13.25658 -5.38 -0.6 5000015.0943
13.25658 -5.4 -0.6 5000015.0943
21.64188 5.88 -0.62 5000029.0698
22.97934 5.78 -0.62 5000031.2989
22.97934 5.56 -0.62 5000031.2989
22.97934 5.54 -0.62 5000031.2989
7.338077999999999 4.48 -0.62 5000005.23013
15.83916 -3.88 -0.62 5000019.3986
14.386740000000001 -4.38 -0.62 5000016.9779
12.933599999999998 -5.22 -0.62 5000014.556
11.61198 -5.9 -0.62 5000012.3533
11.61198 -5.92 -0.62 5000012.3533
11.61198 -5.94 -0.62 5000012.3533
11.394240000000002 -5.96 -0.62 5000011.9904
7.338077999999999 4.48 -0.64 5000005.23013
14.82888 -3.94 -0.64 5000017.7148
14.82888 -4.28 -0.64 5000017.7148
12.933599999999998 -5.2 -0.64 5000014.556
12.933599999999998 -5.22 -0.64 5000014.556
13.25658 -5.46 -0.64 5000015.0943
13.25658 -5.48 -0.64 5000015.0943
11.61198 -5.9 -0.64 5000012.3533
11.61198 -5.92 -0.64 5000012.3533
11.61198 -5.94 -0.64 5000012.3533
10.811580000000001 -6.02 -0.64 5000011.0193
7.298376 4.86 -0.66 5000005.16396
7.298376 4.84 -0.66 5000005.16396
7.338077999999999 4.48 -0.66 5000005.23013
14.82888 -4.26 -0.66 5000017.7148
14.82888 -4.28 -0.66 5000017.7148
14.386740000000001 -4.34 -0.66 5000016.9779
12.933599999999998 -5.24 -0.66 5000014.556
13.25658 -5.46 -0.66 5000015.0943
13.25658 -5.48 -0.66 5000015.0943
7.298376 4.86 -0.68 5000005.16396
7.338077999999999 4.48 -0.68 5000005.23013
22.97934 4.34 -0.68 5000031.2989
16.419959999999996 -3.88 -0.68 5000020.3666
13.25658 -5.46 -0.68 5000015.0943
12.933599999999998 -5.48 -0.68 5000014.556
7.298376 4.86 -0.7 5000005.16396
7.338077999999999 4.48 -0.7 5000005.23013
17.77464 -3.52 -0.7 5000022.6244
17.77464 -3.62 -0.7 5000022.6244
12.933599999999998 -5.22 -0.7 5000014.556
12.933599999999998 -5.24 -0.7 5000014.556
12.933599999999998 -5.26 -0.7 5000014.556
12.08952 -5.54 -0.7 5000013.1492
12.08952 -5.56 -0.7 5000013.1492
21.64188 5.78 -0.72 5000029.0698
7.298376 4.88 -0.72 5000005.16396
7.298376 4.86 -0.72 5000005.16396
17.77464 -3.5 -0.72 5000022.6244
17.77464 -3.52 -0.72 5000022.6244
17.77464 -3.54 -0.72 5000022.6244
17.77464 -3.62 -0.72 5000022.6244
13.25658 -5.2 -0.72 5000015.0943
12.933599999999998 -5.22 -0.72 5000014.556
12.933599999999998 -5.24 -0.72 5000014.556
12.933599999999998 -5.26 -0.72 5000014.556
12.08952 -5.52 -0.72 5000013.1492
7.298376 4.86 -0.74 5000005.16396
17.77464 -3.5 -0.74 5000022.6244
17.77464 -3.52 -0.74 5000022.6244
17.77464 -3.54 -0.74 5000022.6244
13.6044 -4.86 -0.74 5000015.674
13.6044 -4.88 -0.74 5000015.674
12.08952 -5.5 -0.74 5000013.1492
7.298376 4.86 -0.76 5000005.16396
13.25658 -4.86 -0.76 5000015.0943
13.25658 -4.88 -0.76 5000015.0943
12.3522 -4.96 -0.76 5000013.587
12.3522 -4.98 -0.76 5000013.587
12.08952 -5.48 -0.76 5000013.1492
7.298376 4.86 -0.78 5000005.16396
13.25658 -4.84 -0.78 5000015.0943
13.25658 -4.86 -0.78 5000015.0943
12.3522 -5.46 -0.78 5000013.587
12.3522 -5.48 -0.78 5000013.587
7.298376 4.86 -0.8 5000005.16396
13.25658 -4.86 -0.8 5000015.0943
12.3522 -5.46 -0.8 5000013.587
12.3522 -5.48 -0.8 5000013.587
11.843340000000001 -5.68 -0.8 5000012.7389
11.843340000000001 -5.7 -0.8 5000012.7389
7.298376 4.86 -0.82 5000005.16396
11.843340000000001 -5.68 -0.82 5000012.7389
11.843340000000001 -5.7 -0.82 5000012.7389
11.18892 -6.16 -0.82 5000011.6482
11.18892 -6.18 -0.82 5000011.6482
10.637759999999998 -6.66 -0.82 5000010.7296
7.298376 4.66 -0.84 5000005.16396
12.08952 -5.52 -0.84 5000013.1492
10.637759999999998 -6.66 -0.84 5000010.7296
10.637759999999998 -6.68 -0.84 5000010.7296
12.3522 -5.48 -0.86 5000013.587
12.08952 -5.5 -0.86 5000013.1492
12.08952 -5.58 -0.86 5000013.1492
11.843340000000001 -5.6 -0.86 5000012.7389
13.6044 -4.94 -0.88 5000015.674
13.25658 -4.96 -0.88 5000015.0943
13.25658 -4.98 -0.88 5000015.0943
13.25658 -5.0 -0.88 5000015.0943
12.3522 -5.44 -0.88 5000013.587
12.08952 -5.48 -0.88 5000013.1492
12.08952 -5.5 -0.88 5000013.1492
11.843340000000001 -5.6 -0.88 5000012.7389
11.843340000000001 -5.62 -0.88 5000012.7389
11.843340000000001 -5.64 -0.88 5000012.7389
13.25658 -4.96 -0.9 5000015.0943
13.25658 -4.98 -0.9 5000015.0943
13.25658 -5.0 -0.9 5000015.0943
7.338077999999999 4.48 -0.92 5000005.23013
13.25658 -4.98 -0.92 5000015.0943
13.25658 -5.0 -0.92 5000015.0943
12.08952 -5.48 -0.92 5000013.1492
11.843340000000001 -5.64 -0.92 5000012.7389
11.843340000000001 -5.66 -0.92 5000012.7389
7.338077999999999 4.48 -0.94 5000005.23013
11.843340000000001 -5.46 -0.94 5000012.7389
7.338077999999999 4.48 -0.96 5000005.23013
14.82888 -4.3 -0.96 5000017.7148
14.82888 -4.32 -0.96 5000017.7148
14.82888 -4.34 -0.96 5000017.7148
14.82888 -4.42 -0.96 5000017.7148
13.25658 -4.98 -0.96 5000015.0943
13.25658 -5.0 -0.96 5000015.0943
12.3522 -5.4 -0.96 5000013.587
11.843340000000001 -5.66 -0.96 5000012.7389
11.843340000000001 -5.68 -0.96 5000012.7389
7.338077999999999 4.48 -0.98 5000005.23013
14.82888 -4.32 -0.98 5000017.7148
14.82888 -4.42 -0.98 5000017.7148
14.82888 -4.44 -0.98 5000017.7148
14.82888 -4.46 -0.98 5000017.7148
13.25658 -4.98 -0.98 5000015.0943
13.25658 -5.0 -0.98 5000015.0943
11.843340000000001 -5.66 -0.98 5000012.7389
11.843340000000001 -5.68 -0.98 5000012.7389
7.338077999999999 4.48 -1.0 5000005.23013
14.82888 -4.3 -1.0 5000017.7148
14.82888 -4.32 -1.0 5000017.7148
11.843340000000001 -5.66 -1.0 5000012.7389
11.843340000000001 -5.68 -1.0 5000012.7389
7.338077999999999 4.48 -1.02 5000005.23013
11.843340000000001 -5.68 -1.02 5000012.7389
11.843340000000001 -5.7 -1.02 5000012.7389
7.298376 4.86 -1.04 5000005.16396
7.338077999999999 4.48 -1.04 5000005.23013
13.6044 -4.86 -1.04 5000015.674
12.63288 -5.02 -1.04 5000014.0548
11.843340000000001 -5.68 -1.04 5000012.7389
11.843340000000001 -5.7 -1.04 5000012.7389
7.338077999999999 4.48 -1.06 5000005.23013
13.6044 -4.86 -1.06 5000015.674
13.6044 -4.94 -1.06 5000015.674
13.6044 -4.96 -1.06 5000015.674
12.08952 -5.54 -1.06 5000013.1492
12.08952 -5.56 -1.06 5000013.1492
10.472879999999998 -6.72 -1.06 5000010.4548
10.472879999999998 -6.74 -1.06 5000010.4548
7.338077999999999 4.48 -1.08 5000005.23013
13.6044 -4.86 -1.08 5000015.674
12.08952 -5.38 -1.08 5000013.1492
10.637759999999998 -6.68 -1.08 5000010.7296
10.637759999999998 -6.7 -1.08 5000010.7296
10.472879999999998 -6.72 -1.08 5000010.4548
10.472879999999998 -6.74 -1.08 5000010.4548
7.338077999999999 4.48 -1.1 5000005.23013
12.08952 -5.38 -1.1 5000013.1492
11.843340000000001 -5.7 -1.1 5000012.7389
10.637759999999998 -6.68 -1.1 5000010.7296
10.637759999999998 -6.7 -1.1 5000010.7296
10.472879999999998 -6.72 -1.1 5000010.4548
7.338077999999999 4.48 -1.12 5000005.23013
13.25658 -4.94 -1.12 5000015.0943
13.25658 -4.96 -1.12 5000015.0943
13.25658 -4.98 -1.12 5000015.0943
12.08952 -5.38 -1.12 5000013.1492
11.843340000000001 -5.7 -1.12 5000012.7389
11.843340000000001 -5.72 -1.12 5000012.7389
10.637759999999998 -6.66 -1.12 5000010.7296
10.637759999999998 -6.68 -1.12 5000010.7296
10.637759999999998 -6.7 -1.12 5000010.7296
10.472879999999998 -6.72 -1.12 5000010.4548
7.338077999999999 4.48 -1.14 5000005.23013
13.6044 1.1 -1.14 5000015.674
13.25658 -4.94 -1.14 5000015.0943
13.25658 -4.96 -1.14 5000015.0943
13.25658 -4.98 -1.14 5000015.0943
12.933599999999998 -5.0 -1.14 5000014.556
12.08952 -5.38 -1.14 5000013.1492
11.843340000000001 -5.7 -1.14 5000012.7389
11.843340000000001 -5.72 -1.14 5000012.7389
11.843340000000001 -5.74 -1.14 5000012.7389
10.637759999999998 -6.64 -1.14 5000010.7296
10.637759999999998 -6.66 -1.14 5000010.7296
10.637759999999998 -6.68 -1.14 5000010.7296
7.338077999999999 4.48 -1.16 5000005.23013
13.6044 1.1 -1.16 5000015.674
12.08952 -5.38 -1.16 5000013.1492
11.61198 -5.7 -1.16 5000012.3533
11.61198 -5.72 -1.16 5000012.3533
10.637759999999998 -6.64 -1.16 5000010.7296
10.637759999999998 -6.66 -1.16 5000010.7296
10.637759999999998 -6.68 -1.16 5000010.7296
7.338077999999999 4.48 -1.18 5000005.23013
14.386740000000001 -4.86 -1.18 5000016.9779
14.386740000000001 -4.88 -1.18 5000016.9779
10.637759999999998 -6.66 -1.18 5000010.7296
10.637759999999998 -6.68 -1.18 5000010.7296
7.338077999999999 4.48 -1.2 5000005.23013
10.637759999999998 -6.64 -1.2 5000010.7296
10.637759999999998 -6.66 -1.2 5000010.7296
10.025244 -6.74 -1.2 5000009.70874
7.338077999999999 4.48 -1.22 5000005.23013
11.61198 -5.74 -1.22 5000012.3533
10.637759999999998 -6.64 -1.22 5000010.7296
10.637759999999998 -6.66 -1.22 5000010.7296
7.338077999999999 4.48 -1.24 5000005.23013
13.25658 -4.32 -1.24 5000015.0943
13.25658 -4.34 -1.24 5000015.0943
12.3522 -5.38 -1.24 5000013.587
12.3522 -5.4 -1.24 5000013.587
12.08952 -5.56 -1.24 5000013.1492
11.61198 -5.74 -1.24 5000012.3533
10.637759999999998 -6.62 -1.24 5000010.7296
10.637759999999998 -6.64 -1.24 5000010.7296
10.637759999999998 -6.66 -1.24 5000010.7296
7.338077999999999 4.48 -1.26 5000005.23013
12.3522 -5.38 -1.26 5000013.587
12.3522 -5.4 -1.26 5000013.587
12.08952 -5.42 -1.26 5000013.1492
12.08952 -5.44 -1.26 5000013.1492
12.08952 -5.58 -1.26 5000013.1492
10.637759999999998 -6.64 -1.26 5000010.7296
10.637759999999998 -6.66 -1.26 5000010.7296
7.338077999999999 4.48 -1.28 5000005.23013
12.63288 0.88 -1.28 5000014.0548
12.08952 -5.44 -1.28 5000013.1492
10.811580000000001 -6.58 -1.28 5000011.0193
10.811580000000001 -6.6 -1.28 5000011.0193
10.637759999999998 -6.64 -1.28 5000010.7296
10.637759999999998 -6.66 -1.28 5000010.7296
7.338077999999999 4.48 -1.3 5000005.23013
12.63288 0.88 -1.3 5000014.0548
12.08952 -5.44 -1.3 5000013.1492
12.08952 -5.46 -1.3 5000013.1492
10.811580000000001 -6.58 -1.3 5000011.0193
10.811580000000001 -6.6 -1.3 5000011.0193
10.637759999999998 -6.62 -1.3 5000010.7296
10.637759999999998 -6.64 -1.3 5000010.7296
7.338077999999999 4.48 -1.32 5000005.23013
12.08952 -5.46 -1.32 5000013.1492
10.811580000000001 -6.6 -1.32 5000011.0193
10.637759999999998 -6.62 -1.32 5000010.7296
10.637759999999998 -6.64 -1.32 5000010.7296
10.637759999999998 -6.66 -1.32 5000010.7296
7.338077999999999 4.48 -1.34 5000005.23013
12.08952 -5.46 -1.34 5000013.1492
12.08952 -5.48 -1.34 5000013.1492
10.637759999999998 -6.64 -1.34 5000010.7296
7.338077999999999 4.5 -1.36 5000005.23013
7.338077999999999 4.48 -1.36 5000005.23013
7.338077999999999 4.46 -1.36 5000005.23013
12.08952 -5.46 -1.36 5000013.1492
12.08952 -5.48 -1.36 5000013.1492
12.08952 -5.5 -1.36 5000013.1492
11.843340000000001 -5.52 -1.36 5000012.7389
10.637759999999998 -6.64 -1.36 5000010.7296
10.637759999999998 -6.66 -1.36 5000010.7296
7.338077999999999 4.48 -1.38 5000005.23013
12.3522 -2.6 -1.38 5000013.587
11.843340000000001 -5.5 -1.38 5000012.7389
11.843340000000001 -5.52 -1.38 5000012.7389
11.843340000000001 -5.54 -1.38 5000012.7389
10.637759999999998 -6.64 -1.38 5000010.7296
10.637759999999998 -6.66 -1.38 5000010.7296
7.338077999999999 4.48 -1.4 5000005.23013
10.637759999999998 -6.62 -1.4 5000010.7296
10.637759999999998 -6.64 -1.4 5000010.7296
10.637759999999998 -6.66 -1.4 5000010.7296
7.338077999999999 4.48 -1.42 5000005.23013
10.637759999999998 -6.64 -1.42 5000010.7296
10.637759999999998 -6.66 -1.42 5000010.7296
7.298376 4.86 -1.44 5000005.16396
7.338077999999999 4.48 -1.44 5000005.23013
7.338077999999999 4.48 -1.46 5000005.23013
7.338077999999999 4.48 -1.48 5000005.23013
7.338077999999999 4.48 -1.5 5000005.23013
11.394240000000002 2.84 -1.5 5000011.9904
10.637759999999998 -6.68 -1.5 5000010.7296
7.338077999999999 4.48 -1.52 5000005.23013
10.637759999999998 -6.68 -1.52 5000010.7296
10.637759999999998 -6.7 -1.52 5000010.7296
7.338077999999999 4.48 -1.54 5000005.23013
11.18892 1.14 -1.54 5000011.6482
11.18892 1.12 -1.54 5000011.6482
7.338077999999999 4.48 -1.56 5000005.23013
11.18892 3.56 -1.56 5000011.6482
10.637759999999998 -6.72 -1.56 5000010.7296
10.637759999999998 -6.74 -1.56 5000010.7296
7.338077999999999 4.48 -1.58 5000005.23013
7.338077999999999 4.48 -1.6 5000005.23013
7.338077999999999 4.48 -1.62 5000005.23013
7.338077999999999 4.48 -1.64 5000005.23013
7.338077999999999 4.48 -1.66 5000005.23013
10.637759999999998 3.76 -1.66 5000010.7296
10.811580000000001 -5.98 -1.66 5000011.0193
10.811580000000001 -6.0 -1.66 5000011.0193
10.811580000000001 -6.02 -1.66 5000011.0193
7.338077999999999 4.48 -1.68 5000005.23013
10.637759999999998 3.76 -1.68 5000010.7296
10.472879999999998 3.82 -1.7 5000010.4548
10.316220000000001 2.42 -1.7 5000010.1937
10.995 -6.68 -1.7 5000011.325
7.338077999999999 4.48 -1.72 5000005.23013
10.316220000000001 2.42 -1.72 5000010.1937
10.637759999999998 -6.74 -1.72 5000010.7296
7.338077999999999 4.48 -1.74 5000005.23013
7.338077999999999 4.48 -1.76 5000005.23013
10.16718 3.98 -1.76 5000009.9453
10.025244 3.72 -1.8 5000009.70874
9.889902000000001 3.98 -1.86 5000009.48317
9.760704 1.88 -1.86 5000009.26784
9.760704 1.86 -1.86 5000009.26784
9.760704 1.86 -1.88 5000009.26784
9.760704 4.4 -1.9 5000009.26784
9.51915 2.12 -1.92 5000008.86525
9.406074 2.78 -1.94 5000008.67679
9.406074 2.74 -1.94 5000008.67679
7.378806 4.82 -1.96 5000005.29801
9.406074 2.72 -1.96 5000008.67679
9.637241999999999 2.34 -1.96 5000009.06207
9.637241999999999 2.32 -1.96 5000009.06207
9.297708 2.84 -1.98 5000008.49618
9.297708 2.82 -1.98 5000008.49618
10.16718 2.92 -2.0 5000009.9453
9.297708 2.84 -2.0 5000008.49618
9.297708 2.82 -2.0 5000008.49618
9.193757999999999 5.2 -2.02 5000008.32293
9.51915 4.3 -2.02 5000008.86525
9.51915 4.26 -2.02 5000008.86525
10.16718 2.96 -2.02 5000009.9453
9.297708 2.82 -2.02 5000008.49618
9.193757999999999 5.2 -2.04 5000008.32293
9.193757999999999 5.18 -2.04 5000008.32293
8.905884 3.54 -2.04 5000007.84314
8.905884 3.52 -2.04 5000007.84314
9.193757999999999 3.06 -2.04 5000008.32293
8.905884 3.54 -2.06 5000007.84314
7.259664000000001 4.86 -2.08 5000005.09944
7.259664000000001 4.86 -2.1 5000005.09944
7.259664000000001 4.84 -2.1 5000005.09944
7.259664000000001 4.86 -2.12 5000005.09944
7.259664000000001 4.84 -2.12 5000005.09944
9.093966 4.56 -2.12 5000008.15661
8.817162000000001 3.22 -2.12 5000007.69527
8.817162000000001 3.2 -2.12 5000007.69527
8.817162000000001 3.1 -2.12 5000007.69527
7.259664000000001 4.86 -2.14 5000005.09944
8.817162000000001 3.22 -2.14 5000007.69527
8.817162000000001 3.2 -2.14 5000007.69527
8.817162000000001 3.08 -2.14 5000007.69527
9.193757999999999 2.88 -2.14 5000008.32293
9.093966 5.44 -2.16 5000008.15661
7.259664000000001 4.86 -2.16 5000005.09944
8.817162000000001 3.06 -2.16 5000007.69527
8.817162000000001 3.04 -2.16 5000007.69527
8.99808 2.78 -2.16 5000007.9968
7.259664000000001 4.86 -2.18 5000005.09944
8.731722000000001 3.14 -2.18 5000007.55287
8.731722000000001 3.12 -2.18 5000007.55287
8.731722000000001 5.0 -2.2 5000007.55287
8.731722000000001 4.98 -2.2 5000007.55287
7.259664000000001 4.86 -2.2 5000005.09944
7.259664000000001 4.84 -2.2 5000005.09944
8.817162000000001 3.28 -2.2 5000007.69527
8.731722000000001 3.12 -2.2 5000007.55287
8.731722000000001 3.1 -2.2 5000007.55287
8.731722000000001 5.02 -2.22 5000007.55287
8.731722000000001 5.0 -2.22 5000007.55287
8.817162000000001 3.26 -2.22 5000007.69527
8.569992 5.92 -2.26 5000007.28332
7.259664000000001 4.86 -2.26 5000005.09944
7.259664000000001 4.84 -2.26 5000005.09944
8.731722000000001 3.0 -2.26 5000007.55287
8.569992 5.92 -2.28 5000007.28332
8.569992 5.9 -2.28 5000007.28332
7.259664000000001 4.86 -2.28 5000005.09944
7.259664000000001 4.84 -2.28 5000005.09944
8.817162000000001 1.9 -2.28 5000007.69527
8.817162000000001 1.88 -2.28 5000007.69527
7.259664000000001 4.86 -2.3 5000005.09944
8.64939 2.84 -2.3 5000007.41565
8.817162000000001 1.88 -2.3 5000007.69527
8.817162000000001 1.86 -2.3 5000007.69527
7.259664000000001 4.86 -2.32 5000005.09944
8.493384 3.52 -2.32 5000007.15564
8.905884 2.58 -2.32 5000007.84314
8.493384 5.2 -2.34 5000007.15564
7.259664000000001 4.86 -2.34 5000005.09944
8.493384 3.52 -2.34 5000007.15564
8.569992 3.5 -2.34 5000007.28332
8.569992 3.46 -2.34 5000007.28332
8.569992 3.42 -2.34 5000007.28332
8.493384 3.4 -2.34 5000007.15564
8.493384 5.2 -2.36 5000007.15564
7.259664000000001 4.86 -2.36 5000005.09944
8.569992 3.42 -2.36 5000007.28332
8.493384 3.4 -2.36 5000007.15564
8.493384 3.38 -2.36 5000007.15564
7.259664000000001 4.86 -2.38 5000005.09944
7.259664000000001 4.86 -2.4 5000005.09944
7.259664000000001 4.84 -2.4 5000005.09944
8.419410000000001 2.98 -2.4 5000007.03235
7.259664000000001 4.88 -2.44 5000005.09944
7.259664000000001 4.9 -2.46 5000005.09944
7.259664000000001 4.88 -2.46 5000005.09944
7.259664000000001 4.86 -2.46 5000005.09944
7.259664000000001 4.84 -2.46 5000005.09944
8.212038 3.96 -2.46 5000006.68673
8.212038 3.94 -2.46 5000006.68673
8.212038 5.56 -2.48 5000006.68673
8.212038 3.92 -2.48 5000006.68673
8.347944 3.58 -2.48 5000006.91324
8.212038 5.6 -2.5 5000006.68673
8.212038 5.56 -2.5 5000006.68673
8.212038 3.7 -2.5 5000006.68673
8.347944 3.58 -2.5 5000006.91324
8.212038 5.6 -2.52 5000006.68673
8.024094 3.96 -2.54 5000006.37349
8.084754 3.78 -2.54 5000006.47459
8.731722000000001 -3.96 -2.54 5000007.55287
8.731722000000001 -3.98 -2.54 5000007.55287
8.731722000000001 -4.0 -2.54 5000007.55287
8.569992 -4.02 -2.54 5000007.28332
8.569992 -4.12 -2.54 5000007.28332
8.569992 -4.14 -2.54 5000007.28332
8.569992 -4.16 -2.54 5000007.28332
8.493384 -4.18 -2.54 5000007.15564
8.493384 -4.2 -2.54 5000007.15564
8.024094 3.96 -2.56 5000006.37349
8.024094 3.94 -2.56 5000006.37349
8.084754 3.04 -2.56 5000006.47459
8.731722000000001 -4.0 -2.56 5000007.55287
8.569992 -4.02 -2.56 5000007.28332
8.493384 -4.04 -2.56 5000007.15564
8.493384 -4.06 -2.56 5000007.15564
8.419410000000001 -4.08 -2.56 5000007.03235
8.493384 -4.1 -2.56 5000007.15564
8.493384 -4.18 -2.56 5000007.15564
8.493384 -4.2 -2.56 5000007.15564
8.419410000000001 -4.22 -2.56 5000007.03235
8.024094 5.58 -2.58 5000006.37349
8.024094 3.94 -2.58 5000006.37349
8.084754 5.66 -2.6 5000006.47459
7.965294 3.46 -2.6 5000006.27549
7.298376 4.64 -2.62 5000005.16396
7.965294 3.46 -2.62 5000006.27549
8.024094 3.0 -2.62 5000006.37349
7.965294 3.46 -2.64 5000006.27549
7.965294 3.44 -2.64 5000006.27549
7.8529680000000015 5.54 -2.66 5000006.08828
7.908282 4.4 -2.66 5000006.18047
7.908282 3.44 -2.66 5000006.18047
7.908282 3.42 -2.66 5000006.18047
7.908282 3.38 -2.66 5000006.18047
7.965294 5.38 -2.68 5000006.27549
7.908282 5.36 -2.68 5000006.18047
7.908282 5.34 -2.68 5000006.18047
7.8529680000000015 5.26 -2.68 5000006.08828
8.024094 4.18 -2.68 5000006.37349
8.147369999999999 2.48 -2.68 5000006.57895
7.965294 5.38 -2.7 5000006.27549
7.908282 5.36 -2.7 5000006.18047
7.908282 5.34 -2.7 5000006.18047
7.908282 3.68 -2.7 5000006.18047
7.908282 3.12 -2.7 5000006.18047
7.965294 3.1 -2.7 5000006.27549
7.908282 5.36 -2.72 5000006.18047
7.908282 5.34 -2.72 5000006.18047
7.908282 5.32 -2.72 5000006.18047
7.908282 3.08 -2.72 5000006.18047
8.27886 2.14 -2.72 5000006.7981
7.7992799999999995 4.98 -2.74 5000005.9988
8.347944 3.46 -2.74 5000006.91324
7.8529680000000015 3.38 -2.74 5000006.08828
7.8529680000000015 3.36 -2.74 5000006.08828
7.8529680000000015 3.18 -2.74 5000006.08828
7.8529680000000015 3.16 -2.74 5000006.08828
7.8529680000000015 3.14 -2.74 5000006.08828
7.8529680000000015 4.28 -2.76 5000006.08828
7.8529680000000015 3.38 -2.76 5000006.08828
7.8529680000000015 3.36 -2.76 5000006.08828
7.8529680000000015 3.34 -2.76 5000006.08828
7.8529680000000015 3.16 -2.76 5000006.08828
7.8529680000000015 3.14 -2.76 5000006.08828
7.8529680000000015 3.12 -2.76 5000006.08828
7.8529680000000015 3.1 -2.76 5000006.08828
7.7992799999999995 4.26 -2.78 5000005.9988
7.8529680000000015 3.52 -2.78 5000006.08828
7.8529680000000015 3.5 -2.78 5000006.08828
7.747145999999999 4.36 -2.8 5000005.91191
7.747145999999999 4.34 -2.8 5000005.91191
7.7992799999999995 4.26 -2.8 5000005.9988
7.7992799999999995 4.24 -2.8 5000005.9988
7.7992799999999995 4.06 -2.8 5000005.9988
7.7992799999999995 4.04 -2.8 5000005.9988
7.7992799999999995 4.02 -2.8 5000005.9988
8.212038 0.0 -2.8 5000006.68673
8.212038 -0.02 -2.8 5000006.68673
7.747145999999999 4.36 -2.82 5000005.91191
7.747145999999999 4.34 -2.82 5000005.91191
7.747145999999999 4.32 -2.82 5000005.91191
7.7992799999999995 4.3 -2.82 5000005.9988
7.7992799999999995 4.28 -2.82 5000005.9988
7.7992799999999995 4.16 -2.82 5000005.9988
7.7992799999999995 4.0 -2.82 5000005.9988
8.212038 0.0 -2.82 5000006.68673
8.212038 -0.02 -2.82 5000006.68673
8.147369999999999 -0.04 -2.82 5000006.57895
8.147369999999999 -0.06 -2.82 5000006.57895
8.084754 -0.08 -2.82 5000006.47459
7.338077999999999 4.46 -2.84 5000005.23013
7.8529680000000015 4.18 -2.84 5000006.08828
7.7992799999999995 4.16 -2.84 5000005.9988
7.7992799999999995 4.14 -2.84 5000005.9988
7.7992799999999995 4.12 -2.84 5000005.9988
7.747145999999999 4.1 -2.84 5000005.91191
7.7992799999999995 4.08 -2.84 5000005.9988
7.6472880000000005 5.46 -2.86 5000005.74548
7.338077999999999 4.46 -2.86 5000005.23013
7.8529680000000015 4.2 -2.86 5000006.08828
7.8529680000000015 4.18 -2.86 5000006.08828
7.7992799999999995 4.12 -2.86 5000005.9988
7.747145999999999 4.1 -2.86 5000005.91191
7.7992799999999995 4.08 -2.86 5000005.9988
7.6472880000000005 5.46 -2.88 5000005.74548
7.6472880000000005 5.44 -2.88 5000005.74548
7.338077999999999 4.46 -2.88 5000005.23013
7.338077999999999 4.46 -2.9 5000005.23013
7.338077999999999 4.46 -2.92 5000005.23013
7.463532 5.44 -2.94 5000005.43922
7.338077999999999 4.46 -2.94 5000005.23013
7.507607999999999 5.44 -2.96 5000005.51268
7.507607999999999 5.42 -2.96 5000005.51268
7.338077999999999 4.46 -2.96 5000005.23013
7.747145999999999 3.04 -2.96 5000005.91191
7.7992799999999995 3.0 -2.96 5000005.9988
124.19999999999999 4.92 -2.98 5000200.0
7.6472880000000005 3.04 -2.98 5000005.74548
7.6472880000000005 3.02 -2.98 5000005.74548
7.747145999999999 3.0 -2.98 5000005.91191
7.6472880000000005 2.98 -2.98 5000005.74548
7.463532 5.56 -3.0 5000005.43922
7.463532 5.44 -3.0 5000005.43922
7.6472880000000005 3.08 -3.0 5000005.74548
7.6472880000000005 3.06 -3.0 5000005.74548
7.463532 5.56 -3.02 5000005.43922
124.19999999999999 5.0 -3.02 5000200.0
7.507607999999999 4.32 -3.02 5000005.51268
7.463532 4.3 -3.02 5000005.43922
7.552889999999999 3.8 -3.02 5000005.58815
7.6472880000000005 3.08 -3.02 5000005.74548
7.6472880000000005 3.06 -3.02 5000005.74548
7.6472880000000005 3.04 -3.02 5000005.74548
7.6472880000000005 3.02 -3.02 5000005.74548
7.463532 4.3 -3.04 5000005.43922
7.463532 4.28 -3.04 5000005.43922
7.463532 4.26 -3.04 5000005.43922
7.507607999999999 3.86 -3.06 5000005.51268
7.507607999999999 5.58 -3.08 5000005.51268
7.298376 4.46 -3.08 5000005.16396
7.507607999999999 3.86 -3.08 5000005.51268
7.507607999999999 3.84 -3.08 5000005.51268
7.599432 3.04 -3.08 5000005.66572
7.599432 3.02 -3.08 5000005.66572
7.298376 4.46 -3.1 5000005.16396
7.378806 4.4 -3.1 5000005.29801
7.420614 5.1 -3.12 5000005.36769
7.420614 5.08 -3.12 5000005.36769
7.420614 5.06 -3.12 5000005.36769
7.378806 4.4 -3.12 5000005.29801
7.378806 4.38 -3.12 5000005.29801
7.420614 3.88 -3.12 5000005.36769
84.7368 5.22 -3.14 5000134.228
7.378806 4.38 -3.14 5000005.29801
7.378806 4.36 -3.14 5000005.29801
7.420614 3.88 -3.14 5000005.36769
7.420614 3.86 -3.14 5000005.36769
7.420614 4.0 -3.16 5000005.36769
7.7992799999999995 3.96 -3.16 5000005.9988
7.420614 3.86 -3.16 5000005.36769
7.378806 5.42 -3.18 5000005.29801
7.378806 4.04 -3.18 5000005.29801
7.420614 3.86 -3.18 5000005.36769
7.420614 3.38 -3.18 5000005.36769
7.298376 5.56 -3.2 5000005.16396
7.338077999999999 4.38 -3.2 5000005.23013
7.378806 4.04 -3.2 5000005.29801
7.378806 4.02 -3.2 5000005.29801
7.420614 3.3 -3.2 5000005.36769
7.298376 5.56 -3.22 5000005.16396
7.338077999999999 4.42 -3.22 5000005.23013
7.378806 4.02 -3.22 5000005.29801
7.463532 3.96 -3.22 5000005.43922
7.338077999999999 4.44 -3.24 5000005.23013
7.338077999999999 4.42 -3.24 5000005.23013
7.338077999999999 4.4 -3.24 5000005.23013
7.338077999999999 4.02 -3.24 5000005.23013
7.378806 4.0 -3.24 5000005.29801
7.463532 3.96 -3.24 5000005.43922
7.463532 3.92 -3.24 5000005.43922
7.338077999999999 3.76 -3.24 5000005.23013
7.338077999999999 3.78 -3.26 5000005.23013
7.338077999999999 3.76 -3.26 5000005.23013
7.338077999999999 3.74 -3.26 5000005.23013
7.259664000000001 5.56 -3.28 5000005.09944
7.338077999999999 3.28 -3.28 5000005.23013
7.338077999999999 3.26 -3.28 5000005.23013
7.259664000000001 5.58 -3.3 5000005.09944
7.338077999999999 3.3 -3.3 5000005.23013
7.338077999999999 3.28 -3.3 5000005.23013
7.338077999999999 3.26 -3.3 5000005.23013
7.338077999999999 3.3 -3.32 5000005.23013
7.338077999999999 3.28 -3.32 5000005.23013
7.338077999999999 3.26 -3.32 5000005.23013
7.338077999999999 3.24 -3.32 5000005.23013
7.259664000000001 4.68 -3.34 5000005.09944
7.259664000000001 4.66 -3.34 5000005.09944
7.338077999999999 3.22 -3.34 5000005.23013
7.259664000000001 4.68 -3.36 5000005.09944
7.259664000000001 4.66 -3.36 5000005.09944
7.259664000000001 4.64 -3.36 5000005.09944
7.259664000000001 4.02 -3.36 5000005.09944
7.298376 3.42 -3.36 5000005.16396
7.259664000000001 3.4 -3.36 5000005.09944
7.259664000000001 3.4 -3.38 5000005.09944
7.259664000000001 3.38 -3.38 5000005.09944
7.259664000000001 3.36 -3.38 5000005.09944
7.221906000000001 3.34 -3.38 5000005.03651
7.185072 3.52 -3.44 5000004.97512
7.185072 3.5 -3.44 5000004.97512
7.378806 2.96 -3.44 5000005.29801
7.378806 2.94 -3.44 5000005.29801
7.079772 4.84 -3.46 5000004.79962
7.114037999999999 4.78 -3.46 5000004.85673
7.079772 4.62 -3.46 5000004.79962
7.185072 3.54 -3.46 5000004.97512
7.185072 3.52 -3.46 5000004.97512
7.185072 3.5 -3.46 5000004.97512
7.185072 3.48 -3.46 5000004.97512
7.185072 3.46 -3.46 5000004.97512
7.378806 2.94 -3.46 5000005.29801
7.378806 2.92 -3.46 5000005.29801
7.378806 2.9 -3.46 5000005.29801
7.013598 4.84 -3.48 5000004.68933
7.079772 4.78 -3.48 5000004.79962
7.046298 4.64 -3.48 5000004.74383
7.079772 4.6 -3.48 5000004.79962
7.079772 4.58 -3.48 5000004.79962
7.185072 3.52 -3.48 5000004.97512
7.185072 3.5 -3.48 5000004.97512
7.338077999999999 3.0 -3.48 5000005.23013
7.338077999999999 2.98 -3.48 5000005.23013
7.378806 2.96 -3.48 5000005.29801
7.378806 2.94 -3.48 5000005.29801
7.013598 4.84 -3.5 5000004.68933
7.013598 4.82 -3.5 5000004.68933
7.079772 4.76 -3.5 5000004.79962
7.046298 4.62 -3.5 5000004.74383
7.046298 4.6 -3.5 5000004.74383
7.046298 4.58 -3.5 5000004.74383
7.079772 4.56 -3.5 5000004.79962
7.079772 4.52 -3.5 5000004.79962
7.114037999999999 4.5 -3.5 5000004.85673
7.079772 3.96 -3.5 5000004.79962
7.338077999999999 3.0 -3.5 5000005.23013
7.298376 2.98 -3.5 5000005.16396
7.378806 2.94 -3.5 5000005.29801
7.013598 4.84 -3.52 5000004.68933
6.981642 4.82 -3.52 5000004.63607
6.981642 4.8 -3.52 5000004.63607
6.981642 4.78 -3.52 5000004.63607
7.079772 4.74 -3.52 5000004.79962
7.046298 4.6 -3.52 5000004.74383
7.046298 4.58 -3.52 5000004.74383
7.079772 4.52 -3.52 5000004.79962
7.114037999999999 4.5 -3.52 5000004.85673
7.149126 4.28 -3.52 5000004.91521
7.079772 3.58 -3.52 5000004.79962
7.338077999999999 3.0 -3.52 5000005.23013
6.981642 4.78 -3.54 5000004.63607
6.981642 4.76 -3.54 5000004.63607
7.013598 4.58 -3.54 5000004.68933
7.046298 4.56 -3.54 5000004.74383
7.114037999999999 4.5 -3.54 5000004.85673
7.079772 4.48 -3.54 5000004.79962
7.046298 4.44 -3.54 5000004.74383
7.114037999999999 4.28 -3.54 5000004.85673
7.079772 3.62 -3.54 5000004.79962
7.079772 3.6 -3.54 5000004.79962
7.079772 3.58 -3.54 5000004.79962
7.463532 4.94 -3.56 5000005.43922
7.046298 3.9 -3.56 5000004.74383
7.046298 3.88 -3.56 5000004.74383
7.149126 4.24 -3.58 5000004.91521
6.88998 5.02 -3.6 5000004.4833
7.149126 4.94 -3.6 5000004.91521
7.013598 4.86 -3.6 5000004.68933
7.079772 3.66 -3.6 5000004.79962
7.079772 3.64 -3.6 5000004.79962
6.88998 5.04 -3.62 5000004.4833
6.88998 5.02 -3.62 5000004.4833
7.114037999999999 4.94 -3.62 5000004.85673
7.013598 4.84 -3.62 5000004.68933
6.981642 4.14 -3.62 5000004.63607
6.9504 5.92 -3.64 5000004.584
7.046298 4.92 -3.64 5000004.74383
7.013598 4.86 -3.64 5000004.68933
7.013598 4.32 -3.64 5000004.68933
6.860754 5.92 -3.66 5000004.43459
7.046298 5.14 -3.66 5000004.74383
6.981642 5.04 -3.66 5000004.63607
6.88998 5.0 -3.66 5000004.4833
7.013598 4.9 -3.66 5000004.68933
7.013598 4.32 -3.66 5000004.68933
6.88998 5.0 -3.68 5000004.4833
6.860754 4.98 -3.68 5000004.43459
6.88998 4.96 -3.68 5000004.4833
6.832158 5.2 -3.7 5000004.38693
6.981642 5.12 -3.7 5000004.63607
6.860754 4.98 -3.7 5000004.43459
6.860754 4.96 -3.7 5000004.43459
6.860754 4.94 -3.7 5000004.43459
6.860754 4.92 -3.7 5000004.43459
7.046298 4.64 -3.7 5000004.74383
6.832158 5.22 -3.72 5000004.38693
6.832158 5.2 -3.72 5000004.38693
6.9504 5.12 -3.72 5000004.584
6.860754 5.1 -3.72 5000004.43459
6.832158 5.06 -3.72 5000004.38693
6.860754 4.92 -3.72 5000004.43459
6.860754 4.9 -3.72 5000004.43459
7.114037999999999 3.22 -3.72 5000004.85673
7.149126 3.2 -3.72 5000004.91521
6.832158 5.22 -3.74 5000004.38693
6.832158 5.2 -3.74 5000004.38693
6.832158 5.08 -3.74 5000004.38693
6.832158 5.06 -3.74 5000004.38693
6.860754 4.76 -3.74 5000004.43459
7.046298 4.64 -3.74 5000004.74383
6.919854 4.56 -3.74 5000004.53309
6.919854 4.54 -3.74 5000004.53309
7.149126 3.28 -3.74 5000004.91521
7.149126 2.06 -3.74 5000004.91521
7.149126 2.04 -3.74 5000004.91521
6.832158 5.1 -3.76 5000004.38693
6.832158 5.08 -3.76 5000004.38693
6.832158 5.06 -3.76 5000004.38693
6.804168 5.0 -3.76 5000004.34028
6.860754 4.72 -3.76 5000004.43459
6.860754 4.7 -3.76 5000004.43459
7.149126 3.28 -3.76 5000004.91521
7.149126 3.26 -3.76 5000004.91521
7.114037999999999 1.64 -3.76 5000004.85673
7.114037999999999 1.62 -3.76 5000004.85673
6.804168 5.08 -3.78 5000004.34028
6.804168 5.06 -3.78 5000004.34028
6.804168 5.04 -3.78 5000004.34028
6.860754 4.74 -3.78 5000004.43459
6.919854 3.9 -3.8 5000004.53309
6.919854 4.98 -3.82 5000004.53309
6.919854 3.88 -3.82 5000004.53309
6.72366 5.06 -3.84 5000004.2061
6.72366 5.04 -3.84 5000004.2061
6.860754 3.8 -3.84 5000004.43459
6.72366 5.08 -3.86 5000004.2061
6.72366 5.06 -3.86 5000004.2061
6.72366 5.04 -3.86 5000004.2061
6.7499340000000005 5.02 -3.86 5000004.24989
6.860754 3.78 -3.86 5000004.43459
6.860754 3.76 -3.86 5000004.43459
6.860754 5.26 -3.88 5000004.43459
6.832158 5.24 -3.88 5000004.38693
6.7499340000000005 5.2 -3.88 5000004.24989
6.72366 5.18 -3.88 5000004.2061
6.72366 5.08 -3.88 5000004.2061
6.7499340000000005 4.98 -3.88 5000004.24989
6.804168 4.6 -3.88 5000004.34028
6.804168 4.12 -3.88 5000004.34028
6.72366 5.24 -3.9 5000004.2061
6.72366 5.2 -3.9 5000004.2061
6.72366 5.18 -3.9 5000004.2061
6.7499340000000005 5.02 -3.9 5000004.24989
6.7499340000000005 5.0 -3.9 5000004.24989
6.7499340000000005 4.98 -3.9 5000004.24989
6.776765999999999 4.96 -3.9 5000004.29461
6.804168 4.66 -3.9 5000004.34028
6.804168 4.64 -3.9 5000004.34028
6.804168 4.1 -3.9 5000004.34028
6.804168 4.08 -3.9 5000004.34028
6.72366 5.2 -3.92 5000004.2061
6.72366 5.18 -3.92 5000004.2061
6.804168 4.62 -3.92 5000004.34028
6.804168 4.6 -3.92 5000004.34028
6.69792 5.26 -3.94 5000004.1632
6.72366 5.2 -3.94 5000004.2061
6.776765999999999 4.22 -3.94 5000004.29461
6.804168 4.04 -3.94 5000004.34028
6.981642 -5.9 -3.94 5000004.63607
6.9504 -5.92 -3.94 5000004.584
6.9504 -5.94 -3.94 5000004.584
6.88998 -6.0 -3.94 5000004.4833
6.88998 -6.1 -3.94 5000004.4833
6.88998 -6.14 -3.94 5000004.4833
6.88998 -6.16 -3.94 5000004.4833
6.9504 -6.18 -3.94 5000004.584
6.919854 -6.2 -3.94 5000004.53309
6.88998 -6.22 -3.94 5000004.4833
6.88998 -6.24 -3.94 5000004.4833
6.69792 5.26 -3.96 5000004.1632
6.69792 5.2 -3.96 5000004.1632
6.776765999999999 4.22 -3.96 5000004.29461
6.776765999999999 4.2 -3.96 5000004.29461
6.981642 -5.9 -3.96 5000004.63607
6.9504 -5.92 -3.96 5000004.584
6.9504 -5.94 -3.96 5000004.584
6.919854 -5.96 -3.96 5000004.53309
6.919854 -5.98 -3.96 5000004.53309
6.88998 -6.0 -3.96 5000004.4833
6.88998 -6.02 -3.96 5000004.4833
6.88998 -6.04 -3.96 5000004.4833
6.88998 -6.06 -3.96 5000004.4833
6.88998 -6.08 -3.96 5000004.4833
6.88998 -6.1 -3.96 5000004.4833
6.88998 -6.12 -3.96 5000004.4833
6.88998 -6.14 -3.96 5000004.4833
6.88998 -6.16 -3.96 5000004.4833
6.9504 -6.18 -3.96 5000004.584
6.919854 -6.2 -3.96 5000004.53309
6.88998 -6.22 -3.96 5000004.4833
6.88998 -6.24 -3.96 5000004.4833
6.88998 -6.26 -3.96 5000004.4833
6.7499340000000005 4.42 -3.98 5000004.24989
6.776765999999999 3.92 -3.98 5000004.29461
6.919854 -5.98 -3.98 5000004.53309
6.672695999999999 5.58 -4.02 5000004.12116
6.72366 4.26 -4.02 5000004.2061
6.776765999999999 4.0 -4.02 5000004.29461
6.672695999999999 5.58 -4.04 5000004.12116
6.72366 4.8 -4.04 5000004.2061
6.72366 4.24 -4.04 5000004.2061
6.72366 4.22 -4.04 5000004.2061
6.623754 4.88 -4.06 5000004.03959
6.72366 4.44 -4.08 5000004.2061
6.7499340000000005 3.96 -4.08 5000004.24989
6.623754 5.72 -4.1 5000004.03959
6.860754 -5.1 -4.1 5000004.43459
6.623754 5.72 -4.12 5000004.03959
6.804168 3.82 -4.14 5000004.34028
6.804168 3.8 -4.14 5000004.34028
6.623754 4.7 -4.16 5000004.03959
6.623754 4.68 -4.16 5000004.03959
6.804168 3.84 -4.16 5000004.34028
6.804168 3.82 -4.16 5000004.34028
6.623754 5.32 -4.18 5000004.03959
6.776765999999999 -5.42 -4.18 5000004.29461
6.776765999999999 -5.44 -4.18 5000004.29461
6.804168 -5.58 -4.18 5000004.34028
6.623754 5.3 -4.2 5000004.03959
6.776765999999999 -5.8 -4.2 5000004.29461
6.776765999999999 -5.82 -4.2 5000004.29461
6.623754 5.06 -4.22 5000004.03959
6.623754 5.04 -4.22 5000004.03959
6.7499340000000005 -6.2 -4.22 5000004.24989
6.623754 5.06 -4.24 5000004.03959
6.623754 5.04 -4.24 5000004.03959
6.647982 4.76 -4.24 5000004.07997
6.647982 4.74 -4.24 5000004.07997
6.623754 5.12 -4.26 5000004.03959
6.623754 5.06 -4.26 5000004.03959
6.72366 -2.98 -4.26 5000004.2061
6.72366 -3.0 -4.26 5000004.2061
6.72366 -3.02 -4.26 5000004.2061
6.623754 5.14 -4.28 5000004.03959
6.623754 5.12 -4.28 5000004.03959
6.623754 5.12 -4.3 5000004.03959
6.623754 4.82 -4.3 5000004.03959
6.623754 4.8 -4.3 5000004.03959
6.623754 4.8 -4.32 5000004.03959
6.647982 4.76 -4.32 5000004.07997
6.647982 4.76 -4.34 5000004.07997
6.672695999999999 4.0 -4.42 5000004.12116
6.647982 4.16 -4.44 5000004.07997
6.623754 -5.12 -4.52 5000004.03959
6.623754 -5.12 -4.54 5000004.03959
6.623754 1.42 -4.56 5000004.03959
6.623754 1.4 -4.56 5000004.03959
6.623754 4.14 -4.6 5000004.03959
7.68244 5.06 -3.86 5000004.2061
7.68244 5.04 -3.86 5000004.2061
7.699956 5.02 -3.86 5000004.24989
7.773835999999999 3.78 -3.86 5000004.43459
7.773835999999999 3.76 -3.86 5000004.43459
7.773835999999999 5.26 -3.88 5000004.43459
7.754772 5.24 -3.88 5000004.38693
7.699956 5.2 -3.88 5000004.24989
7.68244 5.18 -3.88 5000004.2061
7.68244 5.08 -3.88 5000004.2061
7.699956 4.98 -3.88 5000004.24989
7.736111999999999 4.6 -3.88 5000004.34028
7.736111999999999 4.12 -3.88 5000004.34028
7.68244 5.24 -3.9 5000004.2061
7.68244 5.2 -3.9 5000004.2061
7.68244 5.18 -3.9 5000004.2061
7.699956 5.02 -3.9 5000004.24989
7.699956 5.0 -3.9 5000004.24989
7.699956 4.98 -3.9 5000004.24989
7.7178439999999995 4.96 -3.9 5000004.29461
7.736111999999999 4.66 -3.9 5000004.34028
7.736111999999999 4.64 -3.9 5000004.34028
7.736111999999999 4.1 -3.9 5000004.34028
7.736111999999999 4.08 -3.9 5000004.34028
7.68244 5.2 -3.92 5000004.2061
7.68244 5.18 -3.92 5000004.2061
7.736111999999999 4.62 -3.92 5000004.34028
7.736111999999999 4.6 -3.92 5000004.34028
7.66528 5.26 -3.94 5000004.1632
7.68244 5.2 -3.94 5000004.2061
7.7178439999999995 4.22 -3.94 5000004.29461
7.736111999999999 4.04 -3.94 5000004.34028
7.854428 -5.9 -3.94 5000004.63607
7.8336 -5.92 -3.94 5000004.584
7.8336 -5.94 -3.94 5000004.584
7.7933200000000005 -6.0 -3.94 5000004.4833
7.7933200000000005 -6.1 -3.94 5000004.4833
7.7933200000000005 -6.14 -3.94 5000004.4833
7.7933200000000005 -6.16 -3.94 5000004.4833
7.8336 -6.18 -3.94 5000004.584
7.813236 -6.2 -3.94 5000004.53309
7.7933200000000005 -6.22 -3.94 5000004.4833
7.7933200000000005 -6.24 -3.94 5000004.4833
7.66528 5.26 -3.96 5000004.1632
7.66528 5.2 -3.96 5000004.1632
7.7178439999999995 4.22 -3.96 5000004.29461
7.7178439999999995 4.2 -3.96 5000004.29461
7.854428 -5.9 -3.96 5000004.63607
7.8336 -5.92 -3.96 5000004.584
7.8336 -5.94 -3.96 5000004.584
7.813236 -5.96 -3.96 5000004.53309
7.813236 -5.98 -3.96 5000004.53309
7.7933200000000005 -6.0 -3.96 5000004.4833
7.7933200000000005 -6.02 -3.96 5000004.4833
7.7933200000000005 -6.04 -3.96 5000004.4833
7.7933200000000005 -6.06 -3.96 5000004.4833
7.7933200000000005 -6.08 -3.96 5000004.4833
7.7933200000000005 -6.1 -3.96 5000004.4833
7.7933200000000005 -6.12 -3.96 5000004.4833
7.7933200000000005 -6.14 -3.96 5000004.4833
7.7933200000000005 -6.16 -3.96 5000004.4833
7.8336 -6.18 -3.96 5000004.584
7.813236 -6.2 -3.96 5000004.53309
7.7933200000000005 -6.22 -3.96 5000004.4833
7.7933200000000005 -6.24 -3.96 5000004.4833
7.7933200000000005 -6.26 -3.96 5000004.4833
7.699956 4.42 -3.98 5000004.24989
7.7178439999999995 3.92 -3.98 5000004.29461
7.813236 -5.98 -3.98 5000004.53309
7.648464000000001 5.58 -4.02 5000004.12116
7.68244 4.26 -4.02 5000004.2061
7.7178439999999995 4.0 -4.02 5000004.29461
7.648464000000001 5.58 -4.04 5000004.12116
7.68244 4.8 -4.04 5000004.2061
7.68244 4.24 -4.04 5000004.2061
7.68244 4.22 -4.04 5000004.2061
7.615836 4.88 -4.06 5000004.03959
7.68244 4.44 -4.08 5000004.2061
7.699956 3.96 -4.08 5000004.24989
7.615836 5.72 -4.1 5000004.03959
7.773835999999999 -5.1 -4.1 5000004.43459
7.615836 5.72 -4.12 5000004.03959
7.736111999999999 3.82 -4.14 5000004.34028
7.736111999999999 3.8 -4.14 5000004.34028
7.615836 4.7 -4.16 5000004.03959
7.615836 4.68 -4.16 5000004.03959
7.736111999999999 3.84 -4.16 5000004.34028
7.736111999999999 3.82 -4.16 5000004.34028
7.615836 5.32 -4.18 5000004.03959
7.7178439999999995 -5.42 -4.18 5000004.29461
7.7178439999999995 -5.44 -4.18 5000004.29461
7.736111999999999 -5.58 -4.18 5000004.34028
7.615836 5.3 -4.2 5000004.03959
7.7178439999999995 -5.8 -4.2 5000004.29461
7.7178439999999995 -5.82 -4.2 5000004.29461
7.615836 5.06 -4.22 5000004.03959
7.615836 5.04 -4.22 5000004.03959
7.699956 -6.2 -4.22 5000004.24989
7.615836 5.06 -4.24 5000004.03959
7.615836 5.04 -4.24 5000004.03959
7.631988 4.76 -4.24 5000004.07997
7.631988 4.74 -4.24 5000004.07997
7.615836 5.12 -4.26 5000004.03959
7.615836 5.06 -4.26 5000004.03959
7.68244 -2.98 -4.26 5000004.2061
7.68244 -3.0 -4.26 5000004.2061
7.68244 -3.02 -4.26 5000004.2061
7.615836 5.14 -4.28 5000004.03959
7.615836 5.12 -4.28 5000004.03959
7.615836 5.12 -4.3 5000004.03959
7.615836 4.82 -4.3 5000004.03959
7.615836 4.8 -4.3 5000004.03959
7.615836 4.8 -4.32 5000004.03959
7.631988 4.76 -4.32 5000004.07997
7.631988 4.76 -4.34 5000004.07997
7.648464000000001 4.0 -4.42 5000004.12116
7.631988 4.16 -4.44 5000004.07997
7.615836 -5.12 -4.52 5000004.03959
7.615836 -5.12 -4.54 5000004.03959
7.615836 1.42 -4.56 5000004.03959
7.615836 1.4 -4.56 5000004.03959
7.615836 4.14 -4.6 5000004.03959
.94 5000004.4833
9.79332 -6.1 -3.94 5000004.4833
9.79332 -6.14 -3.94 5000004.4833
9.79332 -6.16 -3.94 5000004.4833
9.8336 -6.18 -3.94 5000004.584
9.813236 -6.2 -3.94 5000004.53309
9.79332 -6.22 -3.94 5000004.4833
9.79332 -6.24 -3.94 5000004.4833
9.66528 5.26 -3.96 5000004.1632
9.66528 5.2 -3.96 5000004.1632
9.717844 4.22 -3.96 5000004.29461
9.717844 4.2 -3.96 5000004.29461
9.854427999999999 -5.9 -3.96 5000004.63607
9.8336 -5.92 -3.96 5000004.584
9.8336 -5.94 -3.96 5000004.584
9.813236 -5.96 -3.96 5000004.53309
9.813236 -5.98 -3.96 5000004.53309
9.79332 -6.0 -3.96 5000004.4833
9.79332 -6.02 -3.96 5000004.4833
9.79332 -6.04 -3.96 5000004.4833
9.79332 -6.06 -3.96 5000004.4833
9.79332 -6.08 -3.96 5000004.4833
9.79332 -6.1 -3.96 5000004.4833
9.79332 -6.12 -3.96 5000004.4833
9.79332 -6.14 -3.96 5000004.4833
9.79332 -6.16 -3.96 5000004.4833
9.8336 -6.18 -3.96 5000004.584
9.813236 -6.2 -3.96 5000004.53309
9.79332 -6.22 -3.96 5000004.4833
9.79332 -6.24 -3.96 5000004.4833
9.79332 -6.26 -3.96 5000004.4833
9.699956 4.42 -3.98 5000004.24989
9.717844 3.92 -3.98 5000004.29461
9.813236 -5.98 -3.98 5000004.53309
9.648464 5.58 -4.02 5000004.12116
9.68244 4.26 -4.02 5000004.2061
9.717844 4.0 -4.02 5000004.29461
9.648464 5.58 -4.04 5000004.12116
9.68244 4.8 -4.04 5000004.2061
9.68244 4.24 -4.04 5000004.2061
9.68244 4.22 -4.04 5000004.2061
9.615836 4.88 -4.06 5000004.03959
9.68244 4.44 -4.08 5000004.2061
9.699956 3.96 -4.08 5000004.24989
9.615836 5.72 -4.1 5000004.03959
9.773836 -5.1 -4.1 5000004.43459
9.615836 5.72 -4.12 5000004.03959
9.736112 3.82 -4.14 5000004.34028
9.736112 3.8 -4.14 5000004.34028
9.615836 4.7 -4.16 5000004.03959
9.615836 4.68 -4.16 5000004.03959
9.736112 3.84 -4.16 5000004.34028
9.736112 3.82 -4.16 5000004.34028
9.615836 5.32 -4.18 5000004.03959
9.717844 -5.42 -4.18 5000004.29461
9.717844 -5.44 -4.18 5000004.29461
9.736112 -5.58 -4.18 5000004.34028
9.615836 5.3 -4.2 5000004.03959
9.717844 -5.8 -4.2 5000004.29461
9.717844 -5.82 -4.2 5000004.29461
9.615836 5.06 -4.22 5000004.03959
9.615836 5.04 -4.22 5000004.03959
9.699956 -6.2 -4.22 5000004.24989
9.615836 5.06 -4.24 5000004.03959
9.615836 5.04 -4.24 5000004.03959
9.631988 4.76 -4.24 5000004.07997
9.631988 4.74 -4.24 5000004.07997
9.615836 5.12 -4.26 5000004.03959
9.615836 5.06 -4.26 5000004.03959
9.68244 -2.98 -4.26 5000004.2061
9.68244 -3.0 -4.26 5000004.2061
9.68244 -3.02 -4.26 5000004.2061
9.615836 5.14 -4.28 5000004.03959
9.615836 5.12 -4.28 5000004.03959
9.615836 5.12 -4.3 5000004.03959
9.615836 4.82 -4.3 5000004.03959
9.615836 4.8 -4.3 5000004.03959
9.615836 4.8 -4.32 5000004.03959
9.631988 4.76 -4.32 5000004.07997
9.631988 4.76 -4.34 5000004.07997
9.648464 4.0 -4.42 5000004.12116
9.631988 4.16 -4.44 5000004.07997
9.615836 -5.12 -4.52 5000004.03959
9.615836 -5.12 -4.54 5000004.03959
9.615836 1.42 -4.56 5000004.03959
9.615836 1.4 -4.56 5000004.03959
9.615836 4.14 -4.6 5000004.03959
3333 5000019.3986
10.56593 -14.833333333333334 2.6333333333333333 5000016.9779
10.54333 -15.833333333333334 2.6333333333333333 5000016.2999
10.54333 -15.866666666666667 2.6333333333333333 5000016.2999
10.39968 -16.8 2.6333333333333333 5000011.9904
10.411776666666666 -16.833333333333332 2.6333333333333333 5000012.3533
11.043296666666667 2.8 2.6 5000031.2989
11.043296666666667 2.7666666666666666 2.6 5000031.2989
11.129943333333333 2.6333333333333333 2.6 5000033.8983
11.129943333333333 2.6 2.6 5000033.8983
11.043296666666667 2.2 2.6 5000031.2989
10.172132 1.4333333333333333 2.6 5000005.16396
10.172132 1.4 2.6 5000005.16396
10.754146666666667 -12.533333333333333 2.6 5000022.6244
10.64662 -13.433333333333334 2.6 5000019.3986
10.411776666666666 -16.733333333333334 2.6 5000012.3533
11.129943333333333 2.6333333333333333 2.566666666666667 5000033.8983
11.043296666666667 2.2 2.566666666666667 5000031.2989
10.172132 1.4333333333333333 2.566666666666667 5000005.16396
10.172132 1.4 2.566666666666667 5000005.16396
10.64662 -13.433333333333334 2.566666666666667 5000019.3986
10.56593 -14.0 2.566666666666667 5000016.9779
10.56593 -14.033333333333333 2.566666666666667 5000016.9779
10.56593 -14.066666666666666 2.566666666666667 5000016.9779
10.503143333333334 -15.566666666666666 2.566666666666667 5000015.0943
10.503143333333334 -15.6 2.566666666666667 5000015.0943
10.503143333333334 -15.633333333333333 2.566666666666667 5000015.0943
10.411776666666666 -16.7 2.566666666666667 5000012.3533
10.411776666666666 -16.733333333333334 2.566666666666667 5000012.3533
11.043296666666667 2.2 2.533333333333333 5000031.2989
11.50489 1.7666666666666666 2.533333333333333 5000045.1467
10.169981333333334 1.4333333333333333 2.533333333333333 5000005.09944
10.169981333333334 1.4 2.533333333333333 5000005.09944
10.968993333333334 0.1 2.533333333333333 5000029.0698
11.129943333333333 -11.133333333333333 2.533333333333333 5000033.8983
10.678886666666667 -13.133333333333333 2.533333333333333 5000020.3666
10.56593 -13.233333333333333 2.533333333333333 5000016.9779
10.56593 -14.033333333333333 2.533333333333333 5000016.9779
11.043296666666667 2.2 2.5 5000031.2989
10.169981333333334 1.4333333333333333 2.5 5000005.09944
10.169981333333334 1.4 2.5 5000005.09944
10.174337666666666 0.8 2.5 5000005.23013
11.692046666666666 0.2 2.5 5000050.7614
10.678886666666667 -13.1 2.5 5000020.3666
10.678886666666667 -13.133333333333333 2.5 5000020.3666
10.56593 -13.266666666666667 2.5 5000016.9779
10.56593 -14.166666666666666 2.5 5000016.9779
11.043296666666667 2.2 2.466666666666667 5000031.2989
10.172132 1.4333333333333333 2.466666666666667 5000005.16396
10.172132 1.4 2.466666666666667 5000005.16396
10.798403333333333 -12.433333333333334 2.466666666666667 5000023.9521
10.678886666666667 -13.1 2.466666666666667 5000020.3666
10.678886666666667 -13.133333333333333 2.466666666666667 5000020.3666
10.56593 -13.266666666666667 2.466666666666667 5000016.9779
10.56593 -13.3 2.466666666666667 5000016.9779
11.043296666666667 2.2 2.433333333333333 5000031.2989
10.172132 1.4333333333333333 2.433333333333333 5000005.16396
10.172132 1.4 2.433333333333333 5000005.16396
11.129943333333333 -0.7666666666666667 2.433333333333333 5000033.8983
10.798403333333333 -12.433333333333334 2.433333333333333 5000023.9521
10.798403333333333 -12.466666666666667 2.433333333333333 5000023.9521
10.678886666666667 -13.1 2.433333333333333 5000020.3666
10.678886666666667 -13.133333333333333 2.433333333333333 5000020.3666
10.4852 -15.3 2.433333333333333 5000014.556
10.4852 -15.333333333333334 2.433333333333333 5000014.556
10.39968 -16.366666666666667 2.433333333333333 5000011.9904
10.968993333333334 3.1666666666666665 2.4 5000029.0698
10.169981333333334 1.4333333333333333 2.4 5000005.09944
10.169981333333334 1.4 2.4 5000005.09944
