VERSION .7
FIELDS x y z rgb
SIZE 4 4 4 4
TYPE F F F F
COUNT 1 1 1 1
WIDTH 826
HEIGHT 1
VIEWPOINT 0 0 0 1 0 0 0
POINTS 826
DATA ascii
10.522466666666666 -15.0 2.3666666666666667 5000015.674
10.468493333333333 -15.3 2.3666666666666667 5000014.0548
10.468493333333333 -15.6 2.3666666666666667 5000014.0548
10.468493333333333 -15.866666666666667 2.3666666666666667 5000014.0548
10.522466666666666 -16.066666666666666 2.3666666666666667 5000015.674
10.503143333333334 -16.1 2.3666666666666667 5000015.0943
10.468493333333333 -16.166666666666668 2.3666666666666667 5000014.0548
10.468493333333333 -16.2 2.3666666666666667 5000014.0548
10.388273333333334 -17.0 2.3666666666666667 5000011.6482
10.3775 -17.033333333333335 2.3666666666666667 5000011.325
10.3775 -17.066666666666666 2.3666666666666667 5000011.325
10.140203333333334 2.7 2.3333333333333335 5000004.2061
11.043296666666667 2.5 2.3333333333333335 5000031.2989
10.64662 -13.366666666666667 2.3333333333333335 5000019.3986
10.64662 -13.4 2.3333333333333335 5000019.3986
10.56593 -14.3 2.3333333333333335 5000016.9779
10.468493333333333 -15.6 2.3333333333333335 5000014.0548
10.4529 -15.866666666666667 2.3333333333333335 5000013.587
10.4529 -15.9 2.3333333333333335 5000013.587
10.468493333333333 -16.166666666666668 2.3333333333333335 5000014.0548
10.468493333333333 -16.2 2.3333333333333335 5000014.0548
10.968993333333334 2.933333333333333 2.3 5000029.0698
10.968993333333334 2.9 2.3 5000029.0698
10.138773333333333 2.7 2.3 5000004.1632
11.043296666666667 2.6 2.3 5000031.2989
10.468493333333333 -15.6 2.3 5000014.0548
10.468493333333333 -15.866666666666667 2.3 5000014.0548
10.468493333333333 -15.9 2.3 5000014.0548
10.468493333333333 -16.3 2.3 5000014.0548
10.468493333333333 -16.333333333333332 2.3 5000014.0548
10.3775 -17.233333333333334 2.3 5000011.325
10.3775 -17.266666666666666 2.3 5000011.325
10.3775 -17.3 2.3 5000011.325
10.138773333333333 2.7 2.2666666666666666 5000004.1632
10.56593 -14.1 2.2666666666666666 5000016.9779
10.56593 -14.133333333333333 2.2666666666666666 5000016.9779
10.56593 -14.166666666666666 2.2666666666666666 5000016.9779
10.468493333333333 -15.6 2.2666666666666666 5000014.0548
10.4529 -15.866666666666667 2.2666666666666666 5000013.587
10.4529 -15.9 2.2666666666666666 5000013.587
10.4529 -15.933333333333334 2.2666666666666666 5000013.587
10.468493333333333 -16.3 2.2666666666666666 5000014.0548
10.468493333333333 -16.333333333333332 2.2666666666666666 5000014.0548
10.388273333333334 -17.133333333333333 2.2666666666666666 5000011.6482
10.3775 -17.233333333333334 2.2666666666666666 5000011.325
10.3775 -17.266666666666666 2.2666666666666666 5000011.325
10.3775 -17.3 2.2666666666666666 5000011.325
10.138773333333333 2.7 2.2333333333333334 5000004.1632
10.968993333333334 0.8333333333333334 2.2333333333333334 5000029.0698
10.678886666666667 -13.366666666666667 2.2333333333333334 5000020.3666
10.678886666666667 -13.4 2.2333333333333334 5000020.3666
10.56593 -14.1 2.2333333333333334 5000016.9779
10.56593 -14.133333333333333 2.2333333333333334 5000016.9779
10.468493333333333 -15.6 2.2333333333333334 5000014.0548
10.468493333333333 -16.3 2.2333333333333334 5000014.0548
10.468493333333333 -16.333333333333332 2.2333333333333334 5000014.0548
10.388273333333334 -17.066666666666666 2.2333333333333334 5000011.6482
10.388273333333334 -17.1 2.2333333333333334 5000011.6482
10.388273333333334 -17.133333333333333 2.2333333333333334 5000011.6482
10.3775 -17.266666666666666 2.2333333333333334 5000011.325
10.138773333333333 2.7 2.2 5000004.1632
10.754146666666667 -12.9 2.2 5000022.6244
10.754146666666667 -12.933333333333334 2.2 5000022.6244
10.678886666666667 -13.366666666666667 2.2 5000020.3666
10.678886666666667 -13.4 2.2 5000020.3666
10.56593 -14.1 2.2 5000016.9779
10.56593 -14.133333333333333 2.2 5000016.9779
10.468493333333333 -15.6 2.2 5000014.0548
10.468493333333333 -16.3 2.2 5000014.0548
10.468493333333333 -16.333333333333332 2.2 5000014.0548
10.3775 -17.266666666666666 2.2 5000011.325
10.968993333333334 0.8333333333333334 2.1666666666666665 5000029.0698
10.754146666666667 -12.7 2.1666666666666665 5000022.6244
10.754146666666667 -12.733333333333333 2.1666666666666665 5000022.6244
10.754146666666667 -12.9 2.1666666666666665 5000022.6244
10.754146666666667 -12.933333333333334 2.1666666666666665 5000022.6244
10.468493333333333 -15.6 2.1666666666666665 5000014.0548
10.468493333333333 -15.633333333333333 2.1666666666666665 5000014.0548
10.468493333333333 -15.866666666666667 2.1666666666666665 5000014.0548
10.468493333333333 -15.9 2.1666666666666665 5000014.0548
10.468493333333333 -15.933333333333334 2.1666666666666665 5000014.0548
10.4529 -15.966666666666667 2.1666666666666665 5000013.587
10.39968 -16.566666666666666 2.1666666666666665 5000011.9904
10.39968 -16.6 2.1666666666666665 5000011.9904
10.968993333333334 0.03333333333333333 2.1333333333333333 5000029.0698
10.754146666666667 -12.733333333333333 2.1333333333333333 5000022.6244
10.754146666666667 -12.9 2.1333333333333333 5000022.6244
10.468493333333333 -15.633333333333333 2.1333333333333333 5000014.0548
10.4852 -15.833333333333334 2.1333333333333333 5000014.556
10.468493333333333 -15.866666666666667 2.1333333333333333 5000014.0548
10.468493333333333 -15.9 2.1333333333333333 5000014.0548
10.468493333333333 -15.933333333333334 2.1333333333333333 5000014.0548
10.4529 -15.966666666666667 2.1333333333333333 5000013.587
10.42463 -16.466666666666665 2.1333333333333333 5000012.7389
10.411776666666666 -16.5 2.1333333333333333 5000012.3533
10.754146666666667 -12.733333333333333 2.1 5000022.6244
10.4852 -15.266666666666667 2.1 5000014.556
10.42463 -16.433333333333334 2.1 5000012.7389
10.4852 -15.2 2.066666666666667 5000014.556
10.4852 -15.233333333333333 2.066666666666667 5000014.556
10.4852 -15.266666666666667 2.066666666666667 5000014.556
10.4529 -15.4 2.066666666666667 5000013.587
10.468493333333333 -15.433333333333334 2.066666666666667 5000014.0548
10.42463 -16.4 2.066666666666667 5000012.7389
10.42463 -16.433333333333334 2.066666666666667 5000012.7389
10.141663 2.7 2.033333333333333 5000004.24989
10.4852 -15.2 2.033333333333333 5000014.556
10.4852 -15.233333333333333 2.033333333333333 5000014.556
10.42463 -16.366666666666667 2.033333333333333 5000012.7389
10.42463 -16.4 2.033333333333333 5000012.7389
10.141663 2.7 2.0 5000004.24989
10.4852 -15.2 2.0 5000014.556
10.4852 -15.233333333333333 2.0 5000014.556
10.468493333333333 -15.333333333333334 2.0 5000014.0548
10.411776666666666 -16.366666666666667 2.0 5000012.3533
10.411776666666666 -16.4 2.0 5000012.3533
10.411776666666666 -16.433333333333334 2.0 5000012.3533
10.388273333333334 -16.766666666666666 2.0 5000011.6482
10.388273333333334 -16.8 2.0 5000011.6482
10.4852 -15.2 1.9666666666666666 5000014.556
10.388273333333334 -16.766666666666666 1.9666666666666666 5000011.6482
10.388273333333334 -16.8 1.9666666666666666 5000011.6482
10.357653333333333 -17.7 1.9666666666666666 5000010.7296
10.357653333333333 -17.733333333333334 1.9666666666666666 5000010.7296
10.42463 -16.333333333333332 1.9333333333333333 5000012.7389
10.411776666666666 -16.366666666666667 1.9333333333333333 5000012.3533
10.388273333333334 -16.833333333333332 1.9333333333333333 5000011.6482
10.357653333333333 -17.733333333333334 1.9333333333333333 5000010.7296
10.357653333333333 -17.766666666666666 1.9333333333333333 5000010.7296
10.42463 -16.333333333333332 1.9 5000012.7389
10.411776666666666 -16.466666666666665 1.9 5000012.3533
10.411776666666666 -16.5 1.9 5000012.3533
10.388273333333334 -16.833333333333332 1.9 5000011.6482
10.71454 -13.433333333333334 1.8666666666666667 5000021.4362
10.71454 -13.466666666666667 1.8666666666666667 5000021.4362
10.411776666666666 -16.433333333333334 1.8666666666666667 5000012.3533
10.39968 -16.633333333333333 1.8666666666666667 5000011.9904
10.468493333333333 -15.433333333333334 1.8333333333333333 5000014.0548
10.468493333333333 -15.466666666666667 1.8333333333333333 5000014.0548
10.468493333333333 -15.5 1.8333333333333333 5000014.0548
10.42463 -16.3 1.8333333333333333 5000012.7389
10.42463 -16.333333333333332 1.8333333333333333 5000012.7389
10.411776666666666 -16.4 1.8333333333333333 5000012.3533
10.411776666666666 -16.433333333333334 1.8333333333333333 5000012.3533
10.39968 -16.633333333333333 1.8333333333333333 5000011.9904
10.39968 -16.666666666666668 1.8333333333333333 5000011.9904
10.39968 -16.7 1.8333333333333333 5000011.9904
10.388273333333334 -16.733333333333334 1.8333333333333333 5000011.6482
10.4852 -15.4 1.8 5000014.556
10.468493333333333 -15.433333333333334 1.8 5000014.0548
10.468493333333333 -15.466666666666667 1.8 5000014.0548
10.468493333333333 -15.5 1.8 5000014.0548
10.42463 -16.3 1.8 5000012.7389
10.411776666666666 -16.366666666666667 1.8 5000012.3533
10.411776666666666 -16.4 1.8 5000012.3533
10.39968 -16.7 1.8 5000011.9904
10.388273333333334 -16.733333333333334 1.8 5000011.6482
10.468493333333333 -15.466666666666667 1.7666666666666666 5000014.0548
10.411776666666666 -16.4 1.7666666666666666 5000012.3533
10.42463 -16.266666666666666 1.7333333333333334 5000012.7389
10.42463 -16.3 1.7333333333333334 5000012.7389
10.411776666666666 -16.4 1.7333333333333334 5000012.3533
10.388273333333334 -16.733333333333334 1.7333333333333334 5000011.6482
10.388273333333334 -16.766666666666666 1.7333333333333334 5000011.6482
10.56593 -14.166666666666666 1.7 5000016.9779
10.56593 -14.2 1.7 5000016.9779
10.56593 -14.233333333333333 1.7 5000016.9779
10.56593 -14.4 1.7 5000016.9779
10.56593 -14.433333333333334 1.7 5000016.9779
10.468493333333333 -15.433333333333334 1.7 5000014.0548
10.468493333333333 -15.466666666666667 1.7 5000014.0548
10.42463 -16.266666666666666 1.7 5000012.7389
10.42463 -16.3 1.7 5000012.7389
10.388273333333334 -16.766666666666666 1.7 5000011.6482
10.56593 -14.2 1.6666666666666667 5000016.9779
10.56593 -14.4 1.6666666666666667 5000016.9779
10.56593 -14.433333333333334 1.6666666666666667 5000016.9779
10.468493333333333 -15.433333333333334 1.6666666666666667 5000014.0548
10.468493333333333 -15.466666666666667 1.6666666666666667 5000014.0548
10.468493333333333 -15.5 1.6666666666666667 5000014.0548
10.42463 -16.266666666666666 1.6666666666666667 5000012.7389
10.42463 -16.3 1.6666666666666667 5000012.7389
10.388273333333334 -16.766666666666666 1.6666666666666667 5000011.6482
10.388273333333334 -16.8 1.6666666666666667 5000011.6482
10.56593 -14.166666666666666 1.6333333333333333 5000016.9779
10.56593 -14.2 1.6333333333333333 5000016.9779
10.56593 -14.233333333333333 1.6333333333333333 5000016.9779
10.468493333333333 -15.466666666666667 1.6333333333333333 5000014.0548
10.468493333333333 -15.5 1.6333333333333333 5000014.0548
10.388273333333334 -16.766666666666666 1.6333333333333333 5000011.6482
10.388273333333334 -16.8 1.6333333333333333 5000011.6482
10.388273333333334 -16.833333333333332 1.6333333333333333 5000011.6482
10.141663 2.7 1.6 5000004.24989
10.4852 -15.233333333333333 1.6 5000014.556
10.388273333333334 -16.766666666666666 1.6 5000011.6482
10.388273333333334 -16.8 1.6 5000011.6482
10.388273333333334 -16.833333333333332 1.6 5000011.6482
10.141663 2.7 1.5666666666666667 5000004.24989
10.4852 -15.233333333333333 1.5666666666666667 5000014.556
10.141663 2.7 1.5333333333333334 5000004.24989
10.4852 -15.2 1.5333333333333334 5000014.556
10.4852 -15.233333333333333 1.5333333333333334 5000014.556
10.4852 -15.366666666666667 1.5333333333333334 5000014.556
10.4852 -15.4 1.5333333333333334 5000014.556
10.4852 -15.433333333333334 1.5333333333333334 5000014.556
10.39968 -16.566666666666666 1.5333333333333334 5000011.9904
10.388273333333334 -16.8 1.5333333333333334 5000011.6482
10.388273333333334 -16.833333333333332 1.5333333333333334 5000011.6482
10.140203333333334 2.7 1.5 5000004.2061
10.4852 -15.233333333333333 1.5 5000014.556
10.4852 -15.266666666666667 1.5 5000014.556
10.39968 -16.566666666666666 1.5 5000011.9904
10.388273333333334 -16.833333333333332 1.5 5000011.6482
10.140203333333334 2.7 1.4666666666666666 5000004.2061
10.4852 -15.266666666666667 1.4666666666666666 5000014.556
10.411776666666666 -16.233333333333334 1.4666666666666666 5000012.3533
10.388273333333334 -16.833333333333332 1.4666666666666666 5000011.6482
10.140203333333334 2.7 1.4333333333333333 5000004.2061
10.411776666666666 -16.233333333333334 1.4333333333333333 5000012.3533
10.388273333333334 -16.833333333333332 1.4333333333333333 5000011.6482
10.140203333333334 2.7 1.4 5000004.2061
10.4852 -15.366666666666667 1.4 5000014.556
10.4852 -15.4 1.4 5000014.556
10.468493333333333 -15.433333333333334 1.4 5000014.0548
10.468493333333333 -15.466666666666667 1.4 5000014.0548
10.4529 -15.5 1.4 5000013.587
10.411776666666666 -16.233333333333334 1.4 5000012.3533
10.388273333333334 -16.833333333333332 1.4 5000011.6482
10.388273333333334 -16.866666666666667 1.4 5000011.6482
10.140203333333334 2.7 1.3666666666666667 5000004.2061
10.4852 -4.633333333333334 1.3666666666666667 5000014.556
10.4852 -4.666666666666667 1.3666666666666667 5000014.556
10.411776666666666 -16.233333333333334 1.3666666666666667 5000012.3533
10.388273333333334 -16.833333333333332 1.3666666666666667 5000011.6482
10.388273333333334 -16.866666666666667 1.3666666666666667 5000011.6482
10.140203333333334 2.7 1.3333333333333333 5000004.2061
10.4852 -4.666666666666667 1.3333333333333333 5000014.556
10.411776666666666 -16.233333333333334 1.3333333333333333 5000012.3533
10.388273333333334 -16.833333333333332 1.3333333333333333 5000011.6482
10.388273333333334 -16.866666666666667 1.3333333333333333 5000011.6482
10.388273333333334 -16.9 1.3333333333333333 5000011.6482
10.140203333333334 2.7 1.3 5000004.2061
10.4852 -5.166666666666667 1.3 5000014.556
10.503143333333334 -15.266666666666667 1.3 5000015.0943
10.503143333333334 -15.3 1.3 5000015.0943
10.388273333333334 -16.866666666666667 1.3 5000011.6482
10.388273333333334 -16.9 1.3 5000011.6482
10.140203333333334 2.7 1.2666666666666666 5000004.2061
10.388273333333334 -16.866666666666667 1.2666666666666666 5000011.6482
10.140203333333334 2.7 1.2333333333333334 5000004.2061
10.140203333333334 2.7 1.2 5000004.2061
10.468493333333333 -14.3 1.2 5000014.0548
10.468493333333333 -14.333333333333334 1.2 5000014.0548
10.468493333333333 -16.133333333333333 1.2 5000014.0548
10.411776666666666 -16.266666666666666 1.2 5000012.3533
10.388273333333334 -16.9 1.2 5000011.6482
10.140203333333334 2.7 1.1666666666666667 5000004.2061
10.411776666666666 -16.266666666666666 1.1666666666666667 5000012.3533
10.411776666666666 -16.3 1.1666666666666667 5000012.3533
10.411776666666666 -16.333333333333332 1.1666666666666667 5000012.3533
10.39968 -16.566666666666666 1.1666666666666667 5000011.9904
10.39968 -16.6 1.1666666666666667 5000011.9904
10.39968 -16.633333333333333 1.1666666666666667 5000011.9904
10.388273333333334 -16.9 1.1666666666666667 5000011.6482
10.140203333333334 2.7 1.1333333333333333 5000004.2061
10.411776666666666 -16.333333333333332 1.1333333333333333 5000012.3533
10.39968 -16.766666666666666 1.1333333333333333 5000011.9904
10.39968 -16.8 1.1333333333333333 5000011.9904
10.39968 -16.833333333333332 1.1333333333333333 5000011.9904
10.140203333333334 2.7 1.1 5000004.2061
10.42463 -5.0 1.1 5000012.7389
10.42463 -5.033333333333333 1.1 5000012.7389
10.411776666666666 -16.3 1.1 5000012.3533
10.411776666666666 -16.333333333333332 1.1 5000012.3533
10.411776666666666 -16.366666666666667 1.1 5000012.3533
10.140203333333334 2.7 1.0666666666666667 5000004.2061
10.42463 -5.033333333333333 1.0666666666666667 5000012.7389
10.42463 -5.066666666666666 1.0666666666666667 5000012.7389
10.411776666666666 -16.366666666666667 1.0666666666666667 5000012.3533
10.39968 -16.8 1.0666666666666667 5000011.9904
10.140203333333334 2.7 1.0333333333333334 5000004.2061
10.411776666666666 -16.366666666666667 1.0333333333333334 5000012.3533
10.140203333333334 2.7 1.0 5000004.2061
10.39968 -16.4 1.0 5000011.9904
10.39968 -16.433333333333334 1.0 5000011.9904
10.140203333333334 2.7 0.9666666666666667 5000004.2061
10.39968 -16.4 0.9666666666666667 5000011.9904
10.39968 -16.433333333333334 0.9666666666666667 5000011.9904
10.39968 -16.466666666666665 0.9666666666666667 5000011.9904
10.140203333333334 2.7 0.9333333333333333 5000004.2061
10.42463 -11.233333333333333 0.9333333333333333 5000012.7389
10.42463 -11.266666666666667 0.9333333333333333 5000012.7389
10.39968 -16.466666666666665 0.9333333333333333 5000011.9904
10.39968 -16.5 0.9333333333333333 5000011.9904
10.388273333333334 -16.533333333333335 0.9333333333333333 5000011.6482
10.140203333333334 2.7 0.9 5000004.2061
10.140203333333334 2.7 0.8666666666666667 5000004.2061
10.140203333333334 2.7 0.8333333333333334 5000004.2061
10.140203333333334 2.7 0.8 5000004.2061
10.141663 2.7 0.7666666666666667 5000004.24989
10.141663 2.7 0.7333333333333333 5000004.24989
10.3775 -2.3666666666666667 0.7333333333333333 5000011.325
10.141663 2.7 0.7 5000004.24989
10.141663 2.6666666666666665 0.7 5000004.24989
10.3775 -1.0 0.7 5000011.325
10.36731 -1.4333333333333333 0.7 5000011.0193
10.141663 2.7 0.6666666666666666 5000004.24989
10.36731 -1.4333333333333333 0.6666666666666666 5000011.0193
10.357653333333333 -1.9 0.6666666666666666 5000010.7296
10.36731 -4.633333333333334 0.6666666666666666 5000011.0193
10.141663 2.7 0.6333333333333333 5000004.24989
10.357653333333333 -4.533333333333333 0.6333333333333333 5000010.7296
10.357653333333333 -17.233333333333334 0.6333333333333333 5000010.7296
10.140203333333334 2.7 0.6 5000004.2061
10.357653333333333 -4.533333333333333 0.6 5000010.7296
10.36731 -4.566666666666666 0.6 5000011.0193
10.140203333333334 2.7 0.5666666666666667 5000004.2061
10.140203333333334 2.7 0.5333333333333333 5000004.2061
10.348493333333334 -0.13333333333333333 0.5333333333333333 5000010.4548
10.140203333333334 2.7 0.5 5000004.2061
10.140203333333334 2.7 0.4666666666666667 5000004.2061
10.33151 -1.3333333333333333 0.4666666666666667 5000009.9453
10.140203333333334 2.7 0.43333333333333335 5000004.2061
10.33151 -4.3 0.43333333333333335 5000009.9453
10.33979 -17.4 0.43333333333333335 5000010.1937
10.140203333333334 2.7 0.4 5000004.2061
10.33151 -4.2 0.4 5000009.9453
10.33979 -17.5 0.4 5000010.1937
10.33979 -17.533333333333335 0.4 5000010.1937
10.140203333333334 2.7 0.36666666666666664 5000004.2061
10.323624666666667 0.3 0.36666666666666664 5000009.70874
10.323624666666667 0.26666666666666666 0.36666666666666664 5000009.70874
10.140203333333334 2.7 0.3333333333333333 5000004.2061
10.140203333333334 2.6666666666666665 0.3333333333333333 5000004.2061
10.323624666666667 0.3 0.3333333333333333 5000009.70874
10.316105666666667 -2.8 0.3333333333333333 5000009.48317
10.141663 2.7 0.3 5000004.24989
10.141663 2.6666666666666665 0.3 5000004.24989
10.323624666666667 0.43333333333333335 0.3 5000009.70874
10.308928 -1.3333333333333333 0.3 5000009.26784
10.316105666666667 -2.8 0.3 5000009.48317
10.316105666666667 -3.3 0.3 5000009.48317
10.141663 2.6666666666666665 0.26666666666666666 5000004.24989
10.316105666666667 0.43333333333333335 0.26666666666666666 5000009.48317
10.308928 -1.3333333333333333 0.26666666666666666 5000009.26784
10.308928 -2.1 0.26666666666666666 5000009.26784
10.33979 -4.933333333333334 0.26666666666666666 5000010.1937
10.141663 2.7 0.23333333333333334 5000004.24989
10.141663 2.6666666666666665 0.23333333333333334 5000004.24989
10.308928 -2.1333333333333333 0.23333333333333334 5000009.26784
10.33979 -4.933333333333334 0.23333333333333334 5000010.1937
10.33151 -4.966666666666667 0.23333333333333334 5000009.9453
10.33151 -5.0 0.23333333333333334 5000009.9453
10.33151 -5.033333333333333 0.23333333333333334 5000009.9453
10.141663 2.7 0.2 5000004.24989
10.141663 2.6666666666666665 0.2 5000004.24989
10.302069 0.5 0.2 5000009.06207
10.302069 -2.533333333333333 0.2 5000009.06207
10.302069 -2.566666666666667 0.2 5000009.06207
10.308928 -4.0 0.2 5000009.26784
10.140203333333334 2.6666666666666665 0.16666666666666666 5000004.2061
10.302069 1.1666666666666667 0.16666666666666666 5000009.06207
10.302069 0.5 0.16666666666666666 5000009.06207
10.295508333333334 0.7666666666666667 0.13333333333333333 5000008.86525
10.140203333333334 2.7 0.1 5000004.2061
10.140203333333334 2.6666666666666665 0.1 5000004.2061
10.295508333333334 -4.033333333333333 0.1 5000008.86525
10.140203333333334 2.7 0.06666666666666667 5000004.2061
10.140203333333334 2.6666666666666665 0.06666666666666667 5000004.2061
10.289226333333334 0.3333333333333333 0.06666666666666667 5000008.67679
10.141663 2.7 0.03333333333333333 5000004.24989
10.141663 2.6666666666666665 0.03333333333333333 5000004.24989
10.289226333333334 -3.8666666666666667 0.03333333333333333 5000008.67679
10.141663 2.6666666666666665 0.0 5000004.24989
10.141663 2.6666666666666665 -0.03333333333333333 5000004.24989
10.277431 1.3333333333333333 -0.03333333333333333 5000008.32293
10.283206 0.8333333333333334 -0.03333333333333333 5000008.49618
10.283206 0.8 -0.03333333333333333 5000008.49618
10.283206 0.26666666666666666 -0.03333333333333333 5000008.49618
10.271887 -2.8333333333333335 -0.03333333333333333 5000008.15661
10.277431 -3.066666666666667 -0.03333333333333333 5000008.32293
10.277431 -3.1 -0.03333333333333333 5000008.32293
10.141663 2.6666666666666665 -0.06666666666666667 5000004.24989
10.271887 1.4 -0.06666666666666667 5000008.15661
10.283206 0.8 -0.06666666666666667 5000008.49618
10.283206 0.26666666666666666 -0.06666666666666667 5000008.49618
10.271887 -2.8333333333333335 -0.06666666666666667 5000008.15661
10.271887 -2.8666666666666667 -0.06666666666666667 5000008.15661
10.277431 -3.066666666666667 -0.06666666666666667 5000008.32293
10.277431 -3.1 -0.06666666666666667 5000008.32293
10.140203333333334 2.7 -0.1 5000004.2061
10.140203333333334 2.6666666666666665 -0.1 5000004.2061
10.271887 1.6 -0.1 5000008.15661
10.271887 1.4666666666666666 -0.1 5000008.15661
10.271887 -3.1666666666666665 -0.1 5000008.15661
10.140203333333334 2.6666666666666665 -0.13333333333333333 5000004.2061
10.271887 1.6 -0.13333333333333333 5000008.15661
10.277431 -3.933333333333333 -0.13333333333333333 5000008.32293
10.140203333333334 2.6666666666666665 -0.16666666666666666 5000004.2061
10.271887 1.5666666666666667 -0.16666666666666666 5000008.15661
10.271887 0.9 -0.16666666666666666 5000008.15661
10.277431 -3.933333333333333 -0.16666666666666666 5000008.32293
10.277431 -3.966666666666667 -0.16666666666666666 5000008.32293
10.140203333333334 2.6666666666666665 -0.2 5000004.2061
10.26656 1.9333333333333333 -0.2 5000007.9968
10.271887 0.6666666666666666 -0.2 5000008.15661
10.251762333333334 -2.6 -0.2 5000007.55287
10.256509 -1.4 -0.23333333333333334 5000007.69527
10.256509 -1.4333333333333333 -0.23333333333333334 5000007.69527
10.256509 -2.0 -0.23333333333333334 5000007.69527
10.261438 0.9666666666666667 -0.26666666666666666 5000007.84314
10.256509 -1.3 -0.26666666666666666 5000007.69527
10.256509 -1.3333333333333333 -0.26666666666666666 5000007.69527
10.251762333333334 -1.4333333333333333 -0.26666666666666666 5000007.55287
10.256509 -1.4666666666666666 -0.26666666666666666 5000007.69527
10.256509 -2.2 -0.26666666666666666 5000007.69527
10.251762333333334 0.23333333333333334 -0.3 5000007.55287
10.251762333333334 -1.2333333333333334 -0.3 5000007.55287
10.247188333333334 -1.7333333333333334 -0.3 5000007.41565
10.138773333333333 2.6666666666666665 -0.3333333333333333 5000004.1632
10.283206 -1.1 -0.3333333333333333 5000008.49618
10.251762333333334 -1.2333333333333334 -0.3333333333333333 5000007.55287
10.251762333333334 -1.2666666666666666 -0.3333333333333333 5000007.55287
10.277431 -1.3666666666666667 -0.3333333333333333 5000008.32293
10.247188333333334 -1.7666666666666666 -0.3333333333333333 5000007.41565
10.256509 -2.1333333333333333 -0.3333333333333333 5000007.69527
10.247188333333334 -3.0 -0.3333333333333333 5000007.41565
10.251762333333334 -0.9666666666666667 -0.36666666666666664 5000007.55287
10.247188333333334 -1.2333333333333334 -0.36666666666666664 5000007.41565
10.247188333333334 -1.2666666666666666 -0.36666666666666664 5000007.41565
10.247188333333334 -1.6666666666666667 -0.36666666666666664 5000007.41565
10.247188333333334 -1.7 -0.36666666666666664 5000007.41565
10.247188333333334 -3.0 -0.36666666666666664 5000007.41565
10.247188333333334 1.5666666666666667 -0.4 5000007.41565
10.247188333333334 1.4666666666666666 -0.4 5000007.41565
10.242777333333333 -0.3333333333333333 -0.4 5000007.28332
10.242777333333333 -0.36666666666666664 -0.4 5000007.28332
10.251762333333334 -1.0 -0.4 5000007.55287
10.242777333333333 -1.7333333333333334 -0.4 5000007.28332
10.261438 -3.2 -0.4 5000007.84314
10.247188333333334 1.5666666666666667 -0.43333333333333335 5000007.41565
10.247188333333334 1.4666666666666666 -0.43333333333333335 5000007.41565
10.247188333333334 1.4333333333333333 -0.43333333333333335 5000007.41565
10.226603333333333 0.13333333333333333 -0.43333333333333335 5000006.7981
10.242777333333333 -0.36666666666666664 -0.43333333333333335 5000007.28332
10.242777333333333 -0.4 -0.43333333333333335 5000007.28332
10.242777333333333 -0.7666666666666667 -0.43333333333333335 5000007.28332
10.242777333333333 -0.8 -0.43333333333333335 5000007.28332
10.238521333333333 -1.8 -0.43333333333333335 5000007.15564
10.238521333333333 -1.8333333333333333 -0.43333333333333335 5000007.15564
10.247188333333334 1.5666666666666667 -0.4666666666666667 5000007.41565
10.238521333333333 0.2 -0.4666666666666667 5000007.15564
10.238521333333333 0.06666666666666667 -0.4666666666666667 5000007.15564
10.238521333333333 -1.8333333333333333 -0.4666666666666667 5000007.15564
10.247188333333334 -2.066666666666667 -0.4666666666666667 5000007.41565
10.256509 -3.7333333333333334 -0.4666666666666667 5000007.69527
10.238521333333333 -0.3 -0.5 5000007.15564
10.242777333333333 -2.7333333333333334 -0.5 5000007.28332
10.251762333333334 2.8 -0.5333333333333333 5000007.55287
10.242777333333333 -0.3333333333333333 -0.5333333333333333 5000007.28332
10.234411666666666 2.433333333333333 -0.5666666666666667 5000007.03235
10.215819666666667 0.16666666666666666 -0.5666666666666667 5000006.47459
10.238521333333333 -0.2 -0.5666666666666667 5000007.15564
10.238521333333333 2.1333333333333333 -0.6 5000007.15564
10.238521333333333 2.1 -0.6 5000007.15564
10.238521333333333 2.066666666666667 -0.6 5000007.15564
10.238521333333333 2.033333333333333 -0.6 5000007.15564
10.238521333333333 -2.566666666666667 -0.6 5000007.15564
10.230441333333333 2.2666666666666666 -0.6333333333333333 5000006.91324
10.219298333333333 -0.4 -0.6333333333333333 5000006.57895
10.219298333333333 -0.43333333333333335 -0.6333333333333333 5000006.57895
10.222891 -0.6 -0.6333333333333333 5000006.68673
10.222891 -0.6333333333333333 -0.6333333333333333 5000006.68673
10.230441333333333 -1.8333333333333333 -0.6333333333333333 5000006.91324
10.234411666666666 -2.466666666666667 -0.6333333333333333 5000007.03235
10.219298333333333 -0.4 -0.6666666666666666 5000006.57895
10.219298333333333 -0.43333333333333335 -0.6666666666666666 5000006.57895
10.222891 -0.6333333333333333 -0.6666666666666666 5000006.68673
10.222891 -0.6666666666666666 -0.6666666666666666 5000006.68673
10.238521333333333 -1.1 -0.6666666666666666 5000007.15564
10.238521333333333 -1.1333333333333333 -0.6666666666666666 5000007.15564
10.230441333333333 -1.2666666666666666 -0.6666666666666666 5000006.91324
10.234411666666666 -2.466666666666667 -0.6666666666666666 5000007.03235
10.234411666666666 -2.5 -0.6666666666666666 5000007.03235
10.219298333333333 -0.7 -0.7 5000006.57895
10.219298333333333 -0.7333333333333333 -0.7 5000006.57895
10.230441333333333 -1.2666666666666666 -0.7 5000006.91324
10.230441333333333 -1.3 -0.7 5000006.91324
10.219298333333333 -0.5666666666666667 -0.7333333333333333 5000006.57895
10.219298333333333 -0.7666666666666667 -0.7333333333333333 5000006.57895
10.219298333333333 -0.26666666666666666 -0.7666666666666667 5000006.57895
10.219298333333333 -0.3 -0.7666666666666667 5000006.57895
10.219298333333333 -0.5666666666666667 -0.7666666666666667 5000006.57895
10.219298333333333 -0.6 -0.7666666666666667 5000006.57895
10.219298333333333 -0.6333333333333333 -0.7666666666666667 5000006.57895
10.219298333333333 -0.6666666666666666 -0.7666666666666667 5000006.57895
10.234411666666666 -2.533333333333333 -0.7666666666666667 5000007.03235
10.219298333333333 -0.3 -0.8 5000006.57895
10.219298333333333 -0.6333333333333333 -0.8 5000006.57895
10.226603333333333 -3.1 -0.8 5000006.7981
10.219298333333333 -0.3 -0.8333333333333334 5000006.57895
10.219298333333333 -0.8 -0.9 5000006.57895
10.219298333333333 -0.8333333333333334 -0.9 5000006.57895
10.222891 -2.933333333333333 -0.9 5000006.68673
10.222891 -2.933333333333333 -0.9333333333333333 5000006.68673
10.222891 -2.966666666666667 -0.9333333333333333 5000006.68673
10.209183 0.13333333333333333 -0.9666666666666667 5000006.27549
10.209183 0.1 -0.9666666666666667 5000006.27549
10.222891 -2.966666666666667 -0.9666666666666667 5000006.68673
10.222891 -3.0 -0.9666666666666667 5000006.68673
10.206015666666667 0.23333333333333334 -1.0333333333333334 5000006.18047
10.209183 -1.1 -1.0333333333333334 5000006.27549
10.215819666666667 -2.066666666666667 -1.0333333333333334 5000006.47459
10.215819666666667 -2.1 -1.0333333333333334 5000006.47459
10.219298333333333 -2.8 -1.0333333333333334 5000006.57895
10.209183 0.26666666666666666 -1.0666666666666667 5000006.27549
10.206015666666667 0.23333333333333334 -1.0666666666666667 5000006.18047
10.206015666666667 0.2 -1.0666666666666667 5000006.18047
10.206015666666667 0.03333333333333333 -1.0666666666666667 5000006.18047
10.206015666666667 -0.1 -1.0666666666666667 5000006.18047
10.209183 -0.13333333333333333 -1.0666666666666667 5000006.27549
10.209183 -1.5333333333333334 -1.0666666666666667 5000006.27549
10.209183 -1.6666666666666667 -1.0666666666666667 5000006.27549
10.206015666666667 -1.7666666666666666 -1.0666666666666667 5000006.18047
10.215819666666667 -2.1 -1.0666666666666667 5000006.47459
10.215819666666667 -2.1333333333333333 -1.0666666666666667 5000006.47459
10.191516 1.0333333333333334 -1.1 5000005.74548
10.206015666666667 0.23333333333333334 -1.1 5000006.18047
10.206015666666667 0.2 -1.1 5000006.18047
10.209183 0.16666666666666666 -1.1 5000006.27549
10.206015666666667 0.03333333333333333 -1.1 5000006.18047
10.206015666666667 0.0 -1.1 5000006.18047
10.209183 -1.6666666666666667 -1.1 5000006.27549
10.209183 -1.7 -1.1 5000006.27549
10.19996 2.1666666666666665 -1.1333333333333333 5000005.9988
10.206015666666667 0.03333333333333333 -1.1333333333333333 5000006.18047
10.206015666666667 0.0 -1.1333333333333333 5000006.18047
10.206015666666667 -0.03333333333333333 -1.1333333333333333 5000006.18047
10.209183 -1.7 -1.1333333333333333 5000006.27549
10.19996 2.1666666666666665 -1.1666666666666667 5000005.9988
10.19996 2.1 -1.1666666666666667 5000005.9988
10.209183 -2.066666666666667 -1.1666666666666667 5000006.27549
10.19996 1.8333333333333333 -1.2 5000005.9988
10.194250333333333 1.1 -1.2 5000005.82751
10.19996 0.7666666666666667 -1.2 5000005.9988
10.194250333333333 -0.7666666666666667 -1.2333333333333334 5000005.82751
10.19996 -1.3333333333333333 -1.2333333333333334 5000005.9988
10.206015666666667 -2.2 -1.2333333333333334 5000006.18047
10.206015666666667 -2.2333333333333334 -1.2333333333333334 5000006.18047
10.194250333333333 2.2 -1.2666666666666666 5000005.82751
10.19996 -0.26666666666666666 -1.2666666666666666 5000005.9988
10.194250333333333 -0.8 -1.2666666666666666 5000005.82751
10.206015666666667 -2.2333333333333334 -1.2666666666666666 5000006.18047
10.194250333333333 2.2 -1.3 5000005.82751
10.194250333333333 2.1666666666666665 -1.3 5000005.82751
10.194250333333333 1.2 -1.3 5000005.82751
10.197063666666667 -0.16666666666666666 -1.3 5000005.91191
10.194250333333333 -0.8 -1.3 5000005.82751
10.194250333333333 1.1666666666666667 -1.3333333333333333 5000005.82751
10.194250333333333 1.1333333333333333 -1.3333333333333333 5000005.82751
10.197063666666667 -0.2 -1.3333333333333333 5000005.91191
10.194250333333333 1.1333333333333333 -1.3666666666666667 5000005.82751
10.191516 1.1 -1.3666666666666667 5000005.74548
10.194250333333333 1.0666666666666667 -1.3666666666666667 5000005.82751
10.191516 -0.8666666666666667 -1.3666666666666667 5000005.74548
10.191516 -0.9 -1.3666666666666667 5000005.74548
10.197063666666667 0.6333333333333333 -1.4 5000005.91191
10.197063666666667 0.43333333333333335 -1.4 5000005.91191
10.197063666666667 0.4 -1.4 5000005.91191
10.191516 -0.8666666666666667 -1.4 5000005.74548
10.197063666666667 -1.5666666666666667 -1.4 5000005.91191
10.222891 -14.1 -1.4 5000006.68673
10.215819666666667 -14.133333333333333 -1.4 5000006.47459
10.212449666666666 -14.466666666666667 -1.4 5000006.37349
10.209183 -14.5 -1.4 5000006.27549
10.209183 -14.533333333333333 -1.4 5000006.27549
10.197063666666667 0.4 -1.4333333333333333 5000005.91191
10.194250333333333 -1.4666666666666666 -1.4333333333333333 5000005.82751
10.215819666666667 -14.133333333333333 -1.4333333333333333 5000006.47459
10.215819666666667 -14.166666666666666 -1.4333333333333333 5000006.47459
10.212449666666666 -14.2 -1.4333333333333333 5000006.37349
10.212449666666666 -14.233333333333333 -1.4333333333333333 5000006.37349
10.212449666666666 -14.266666666666667 -1.4333333333333333 5000006.37349
10.206015666666667 -14.3 -1.4333333333333333 5000006.18047
10.202942666666667 -14.333333333333334 -1.4333333333333333 5000006.08828
10.212449666666666 -14.433333333333334 -1.4333333333333333 5000006.37349
10.212449666666666 -14.466666666666667 -1.4333333333333333 5000006.37349
10.209183 -14.5 -1.4333333333333333 5000006.27549
10.209183 -14.533333333333333 -1.4333333333333333 5000006.27549
10.206015666666667 -14.566666666666666 -1.4333333333333333 5000006.18047
10.183756 0.9666666666666667 -1.4666666666666666 5000005.51268
10.197063666666667 0.7 -1.4666666666666666 5000005.91191
10.194250333333333 -1.4666666666666666 -1.4666666666666666 5000005.82751
10.197063666666667 -1.5 -1.4666666666666666 5000005.91191
10.212449666666666 -14.2 -1.4666666666666666 5000006.37349
10.212449666666666 -14.233333333333333 -1.4666666666666666 5000006.37349
10.212449666666666 -14.266666666666667 -1.4666666666666666 5000006.37349
10.206015666666667 -14.3 -1.4666666666666666 5000006.18047
10.202942666666667 -14.333333333333334 -1.4666666666666666 5000006.08828
10.212449666666666 -14.366666666666667 -1.4666666666666666 5000006.37349
10.209183 -14.533333333333333 -1.4666666666666666 5000006.27549
10.206015666666667 -14.566666666666666 -1.4666666666666666 5000006.18047
10.202942666666667 -14.6 -1.4666666666666666 5000006.08828
10.19996 -14.633333333333333 -1.4666666666666666 5000005.9988
10.183756 1.0666666666666667 -1.5 5000005.51268
10.183756 0.9 -1.5 5000005.51268
10.183756 -0.5333333333333333 -1.5 5000005.51268
10.183756 -0.5666666666666667 -1.5 5000005.51268
10.178923 1.3333333333333333 -1.5333333333333334 5000005.36769
10.183756 0.9 -1.5333333333333334 5000005.51268
10.183756 0.8666666666666667 -1.5333333333333334 5000005.51268
10.178923 1.2666666666666666 -1.5666666666666667 5000005.36769
10.176600333333333 1.2333333333333334 -1.5666666666666667 5000005.29801
10.183756 0.8666666666666667 -1.5666666666666667 5000005.51268
10.183756 -0.5333333333333333 -1.5666666666666667 5000005.51268
10.186271666666666 -0.9666666666666667 -1.5666666666666667 5000005.58815
10.176600333333333 1.2666666666666666 -1.6 5000005.29801
10.176600333333333 1.2333333333333334 -1.6 5000005.29801
10.183756 -0.5666666666666667 -1.6 5000005.51268
10.183756 -0.7666666666666667 -1.6 5000005.51268
10.176600333333333 1.2333333333333334 -1.6333333333333333 5000005.29801
10.176600333333333 0.3333333333333333 -1.6333333333333333 5000005.29801
10.183756 -0.6666666666666666 -1.6333333333333333 5000005.51268
10.178923 2.0 -1.6666666666666667 5000005.36769
10.176600333333333 1.2 -1.6666666666666667 5000005.29801
10.176600333333333 0.3333333333333333 -1.6666666666666667 5000005.29801
10.176600333333333 0.3 -1.6666666666666667 5000005.29801
10.176600333333333 0.1 -1.6666666666666667 5000005.29801
10.183756 -0.6666666666666666 -1.6666666666666667 5000005.51268
10.183756 -0.7 -1.6666666666666667 5000005.51268
10.178923 2.0 -1.7 5000005.36769
10.174337666666666 0.3 -1.7 5000005.23013
10.188857333333333 -1.9 -1.7 5000005.66572
10.174337666666666 0.3 -1.7333333333333334 5000005.23013
10.174337666666666 0.26666666666666666 -1.7333333333333334 5000005.23013
10.174337666666666 -0.16666666666666666 -1.7333333333333334 5000005.23013
10.188857333333333 -1.9 -1.7333333333333334 5000005.66572
10.188857333333333 -1.9333333333333333 -1.7333333333333334 5000005.66572
10.188857333333333 -2.3333333333333335 -1.7333333333333334 5000005.66572
10.176600333333333 2.466666666666667 -1.7666666666666666 5000005.29801
10.176600333333333 2.433333333333333 -1.7666666666666666 5000005.29801
10.178923 2.1666666666666665 -1.7666666666666666 5000005.36769
10.178923 2.1333333333333333 -1.7666666666666666 5000005.36769
10.174337666666666 0.3 -1.7666666666666666 5000005.23013
10.174337666666666 0.26666666666666666 -1.7666666666666666 5000005.23013
10.174337666666666 0.23333333333333334 -1.7666666666666666 5000005.23013
10.174337666666666 0.0 -1.7666666666666666 5000005.23013
10.174337666666666 -0.03333333333333333 -1.7666666666666666 5000005.23013
10.174337666666666 -0.2 -1.7666666666666666 5000005.23013
10.19996 -11.733333333333333 -1.7666666666666666 5000005.9988
10.19996 -11.766666666666667 -1.7666666666666666 5000005.9988
10.178923 2.1666666666666665 -1.8 5000005.36769
10.178923 2.1333333333333333 -1.8 5000005.36769
10.178923 1.7 -1.8 5000005.36769
10.178923 1.6666666666666667 -1.8 5000005.36769
10.174337666666666 0.26666666666666666 -1.8 5000005.23013
10.174337666666666 0.23333333333333334 -1.8 5000005.23013
10.174337666666666 0.2 -1.8 5000005.23013
10.174337666666666 -0.1 -1.8 5000005.23013
10.176600333333333 -0.4666666666666667 -1.8 5000005.29801
10.183756 -1.6666666666666667 -1.8 5000005.51268
10.194250333333333 -2.466666666666667 -1.8 5000005.82751
10.178923 1.7 -1.8333333333333333 5000005.36769
10.172132 1.0333333333333334 -1.8333333333333333 5000005.16396
10.174337666666666 0.2 -1.8333333333333333 5000005.23013
10.174337666666666 0.16666666666666666 -1.8333333333333333 5000005.23013
10.178923 -1.1666666666666667 -1.8333333333333333 5000005.36769
10.183756 -1.6666666666666667 -1.8333333333333333 5000005.51268
10.183756 -1.7 -1.8333333333333333 5000005.51268
10.191516 -2.3666666666666667 -1.8666666666666667 5000005.74548
10.212449666666666 -0.03333333333333333 -1.9 5000006.37349
10.174337666666666 -0.36666666666666664 -1.9 5000005.23013
10.172132 -0.4 -1.9 5000005.16396
10.191516 -2.4 -1.9 5000005.74548
10.169981333333334 0.7 -1.9333333333333333 5000005.09944
10.183756 0.36666666666666664 -1.9333333333333333 5000005.51268
10.172132 0.23333333333333334 -1.9333333333333333 5000005.16396
10.212449666666666 0.0 -1.9333333333333333 5000006.37349
10.174337666666666 -0.26666666666666666 -1.9333333333333333 5000005.23013
10.174337666666666 -0.3 -1.9333333333333333 5000005.23013
10.172132 -0.4 -1.9333333333333333 5000005.16396
10.172132 -0.43333333333333335 -1.9333333333333333 5000005.16396
10.188857333333333 -6.666666666666667 -1.9333333333333333 5000005.66572
10.188857333333333 -6.7 -1.9333333333333333 5000005.66572
10.191516 -6.9 -1.9333333333333333 5000005.74548
10.183756 0.36666666666666664 -1.9666666666666666 5000005.51268
10.172132 0.23333333333333334 -1.9666666666666666 5000005.16396
10.169981333333334 0.16666666666666666 -1.9666666666666666 5000005.09944
10.174337666666666 -0.26666666666666666 -1.9666666666666666 5000005.23013
10.172132 -0.3 -1.9666666666666666 5000005.16396
10.172132 -0.3333333333333333 -1.9666666666666666 5000005.16396
10.169981333333334 0.16666666666666666 -2.0 5000005.09944
10.169981333333334 0.13333333333333333 -2.0 5000005.09944
10.174337666666666 -0.26666666666666666 -2.0 5000005.23013
10.172132 -0.3 -2.0 5000005.16396
10.172132 -0.3333333333333333 -2.0 5000005.16396
10.172132 -0.36666666666666664 -2.0 5000005.16396
10.188857333333333 -6.5 -2.0 5000005.66572
10.188857333333333 -6.533333333333333 -2.0 5000005.66572
10.169981333333334 1.9666666666666666 -2.033333333333333 5000005.09944
10.169981333333334 1.0333333333333334 -2.033333333333333 5000005.09944
10.169981333333334 1.0 -2.033333333333333 5000005.09944
10.169981333333334 0.5 -2.033333333333333 5000005.09944
10.169981333333334 0.4666666666666667 -2.033333333333333 5000005.09944
10.169981333333334 0.13333333333333333 -2.033333333333333 5000005.09944
10.169981333333334 -0.36666666666666664 -2.033333333333333 5000005.09944
10.169981333333334 -0.4 -2.033333333333333 5000005.09944
10.188857333333333 -6.5 -2.033333333333333 5000005.66572
10.188857333333333 -6.533333333333333 -2.033333333333333 5000005.66572
10.186271666666666 -6.566666666666666 -2.033333333333333 5000005.58815
10.186271666666666 -6.6 -2.033333333333333 5000005.58815
10.183756 -6.633333333333334 -2.033333333333333 5000005.51268
10.183756 -6.666666666666667 -2.033333333333333 5000005.51268
10.176600333333333 2.066666666666667 -2.066666666666667 5000005.29801
10.172132 2.033333333333333 -2.066666666666667 5000005.16396
10.167883666666667 1.9666666666666666 -2.066666666666667 5000005.03651
10.169981333333334 0.9666666666666667 -2.066666666666667 5000005.09944
10.167883666666667 0.9333333333333333 -2.066666666666667 5000005.03651
10.169981333333334 0.4666666666666667 -2.066666666666667 5000005.09944
10.169981333333334 0.43333333333333335 -2.066666666666667 5000005.09944
10.169981333333334 0.1 -2.066666666666667 5000005.09944
10.188857333333333 -6.533333333333333 -2.066666666666667 5000005.66572
10.186271666666666 -6.566666666666666 -2.066666666666667 5000005.58815
10.186271666666666 -6.6 -2.066666666666667 5000005.58815
10.183756 -6.633333333333334 -2.066666666666667 5000005.51268
10.165837333333334 2.1666666666666665 -2.1 5000004.97512
10.169981333333334 2.033333333333333 -2.1 5000005.09944
10.165837333333334 1.9666666666666666 -2.1 5000004.97512
10.165837333333334 1.9333333333333333 -2.1 5000004.97512
10.165837333333334 1.5666666666666667 -2.1 5000004.97512
10.165837333333334 1.5333333333333334 -2.1 5000004.97512
10.169981333333334 0.8 -2.1 5000005.09944
10.165837333333334 2.1666666666666665 -2.1333333333333333 5000004.97512
10.167883666666667 2.1333333333333333 -2.1333333333333333 5000005.03651
10.167883666666667 2.1 -2.1333333333333333 5000005.03651
10.169981333333334 2.066666666666667 -2.1333333333333333 5000005.09944
10.165837333333334 1.9333333333333333 -2.1333333333333333 5000004.97512
10.165837333333334 1.9 -2.1333333333333333 5000004.97512
10.165837333333334 1.5666666666666667 -2.1333333333333333 5000004.97512
10.165837333333334 1.5333333333333334 -2.1333333333333333 5000004.97512
10.163840333333333 1.5 -2.1333333333333333 5000004.91521
10.163840333333333 1.4666666666666666 -2.1333333333333333 5000004.91521
10.165837333333334 2.1666666666666665 -2.1666666666666665 5000004.97512
10.167883666666667 2.1333333333333333 -2.1666666666666665 5000005.03651
10.167883666666667 2.1 -2.1666666666666665 5000005.03651
10.165837333333334 2.033333333333333 -2.1666666666666665 5000004.97512
10.165837333333334 2.0 -2.1666666666666665 5000004.97512
10.165837333333334 1.9 -2.1666666666666665 5000004.97512
10.163840333333333 1.7666666666666666 -2.1666666666666665 5000004.91521
10.163840333333333 1.5 -2.1666666666666665 5000004.91521
10.163840333333333 1.4666666666666666 -2.1666666666666665 5000004.91521
10.163840333333333 1.7666666666666666 -2.2 5000004.91521
10.163840333333333 1.7 -2.2 5000004.91521
10.163840333333333 1.6666666666666667 -2.2 5000004.91521
10.163840333333333 1.6333333333333333 -2.2 5000004.91521
10.163840333333333 1.6 -2.2 5000004.91521
10.163840333333333 1.4666666666666666 -2.2 5000004.91521
10.163840333333333 1.7666666666666666 -2.2333333333333334 5000004.91521
10.163840333333333 1.7 -2.2333333333333334 5000004.91521
10.163840333333333 1.6666666666666667 -2.2333333333333334 5000004.91521
10.163840333333333 1.6 -2.2333333333333334 5000004.91521
10.163840333333333 1.5666666666666667 -2.2333333333333334 5000004.91521
10.161891 0.8333333333333334 -2.2333333333333334 5000004.85673
10.165837333333334 -0.7 -2.2333333333333334 5000004.97512
10.161891 1.9 -2.2666666666666666 5000004.85673
10.161891 1.7333333333333334 -2.2666666666666666 5000004.85673
10.163840333333333 1.6 -2.2666666666666666 5000004.91521
10.163840333333333 1.5666666666666667 -2.2666666666666666 5000004.91521
10.161891 0.8333333333333334 -2.2666666666666666 5000004.85673
10.161891 0.8 -2.2666666666666666 5000004.85673
10.161891 1.8666666666666667 -2.3 5000004.85673
16.666666666666668 1.0666666666666667 -2.3 5000200.0
10.176600333333333 -1.9 -2.4 5000005.29801
10.176600333333333 -4.666666666666667 -2.4 5000005.29801
10.159987333333333 -0.4666666666666667 -2.433333333333333 5000004.79962
10.163840333333333 -1.0666666666666667 -2.433333333333333 5000004.91521
10.163840333333333 -1.1 -2.433333333333333 5000004.91521
10.163840333333333 -1.1333333333333333 -2.433333333333333 5000004.91521
10.176600333333333 -1.9 -2.433333333333333 5000005.29801
10.176600333333333 -4.666666666666667 -2.433333333333333 5000005.29801
10.176600333333333 -4.7 -2.433333333333333 5000005.29801
10.156311 1.1333333333333333 -2.5 5000004.68933
10.159987333333333 -0.4666666666666667 -2.5 5000004.79962
10.159987333333333 -0.5 -2.5 5000004.79962
10.156311 1.1 -2.533333333333333 5000004.68933
10.158127666666667 -0.4 -2.533333333333333 5000004.74383
10.158127666666667 -0.5 -2.533333333333333 5000004.74383
10.159987333333333 -0.5333333333333333 -2.533333333333333 5000004.79962
10.158127666666667 -0.36666666666666664 -2.566666666666667 5000004.74383
10.158127666666667 -0.4 -2.566666666666667 5000004.74383
10.158127666666667 -0.36666666666666664 -2.6 5000004.74383
10.158127666666667 -0.4 -2.6 5000004.74383
10.158127666666667 -0.43333333333333335 -2.6 5000004.74383
10.151102999999999 2.1666666666666665 -2.6333333333333333 5000004.53309
10.158127666666667 -0.4 -2.6333333333333333 5000004.74383
10.151102999999999 2.2333333333333334 -2.6666666666666665 5000004.53309
10.151102999999999 2.2 -2.6666666666666665 5000004.53309
10.151102999999999 2.1666666666666665 -2.6666666666666665 5000004.53309
10.151102999999999 2.1333333333333333 -2.6666666666666665 5000004.53309
10.151102999999999 1.2 -2.6666666666666665 5000004.53309
10.151102999999999 1.1666666666666667 -2.6666666666666665 5000004.53309
10.151102999999999 0.3333333333333333 -2.6666666666666665 5000004.53309
10.154535666666666 0.2 -2.6666666666666665 5000004.63607
10.154535666666666 0.16666666666666666 -2.6666666666666665 5000004.63607
10.151102999999999 2.1333333333333333 -2.7 5000004.53309
10.149443333333334 1.3333333333333333 -2.7333333333333334 5000004.4833
10.149443333333334 1.0666666666666667 -2.7333333333333334 5000004.4833
10.154535666666666 -0.4 -2.7333333333333334 5000004.63607
10.149443333333334 2.5 -2.7666666666666666 5000004.4833
10.149443333333334 1.4 -2.7666666666666666 5000004.4833
10.149443333333334 1.3 -2.7666666666666666 5000004.4833
10.149443333333334 1.1666666666666667 -2.7666666666666666 5000004.4833
10.149443333333334 1.0666666666666667 -2.7666666666666666 5000004.4833
10.154535666666666 -0.4 -2.7666666666666666 5000004.63607
10.154535666666666 -0.43333333333333335 -2.7666666666666666 5000004.63607
10.149443333333334 1.2666666666666666 -2.8 5000004.4833
10.149443333333334 1.2333333333333334 -2.8 5000004.4833
10.149443333333334 1.1666666666666667 -2.8 5000004.4833
10.154535666666666 -0.43333333333333335 -2.8 5000004.63607
10.141663 2.6333333333333333 -2.8333333333333335 5000004.24989
10.1528 0.4666666666666667 -2.8333333333333335 5000004.584
10.151102999999999 0.03333333333333333 -2.8333333333333335 5000004.53309
10.151102999999999 0.0 -2.8333333333333335 5000004.53309
10.141663 2.6333333333333333 -2.8666666666666667 5000004.24989
10.144676 2.466666666666667 -2.8666666666666667 5000004.34028
10.146231 0.36666666666666664 -2.8666666666666667 5000004.38693
