VERSION .7
FIELDS x y z rgb
SIZE 4 4 4 4
TYPE F F F F
COUNT 1 1 1 1
WIDTH 1610
HEIGHT 1
VIEWPOINT 0 0 0 1 0 0 0
POINTS 1610
DATA ascii
20.4822 5.54 2.12 27.137
20.4822 4.86 2.12 27.137
20.4822 4.5 2.12 27.137
20.4822 4.48 2.12 27.137
20.4822 3.9 2.12 27.137
20.4822 3.88 2.12 27.137
20.4822 3.86 2.12 27.137
28.590239999999998 2.4 2.12 40.6504
28.590239999999998 2.16 2.12 40.6504
28.590239999999998 -6.58 2.12 40.6504
20.4822 5.58 2.1 27.137
20.4822 4.86 2.1 27.137
20.4822 4.48 2.1 27.137
21.64188 4.42 2.1 29.0698
21.64188 3.9 2.1 29.0698
21.64188 3.88 2.1 29.0698
28.590239999999998 2.4 2.1 40.6504
28.590239999999998 2.18 2.1 40.6504
28.590239999999998 2.16 2.1 40.6504
34.65684 1.6 2.1 50.7614
17.77464 -4.6 2.1 22.6244
17.77464 -4.62 2.1 22.6244
17.77464 -4.68 2.1 22.6244
28.590239999999998 -6.58 2.1 40.6504
21.64188 5.92 2.08 29.0698
21.64188 5.9 2.08 29.0698
20.4822 5.78 2.08 27.137
20.4822 5.72 2.08 27.137
20.4822 5.7 2.08 27.137
21.64188 5.34 2.08 29.0698
20.4822 5.24 2.08 27.137
20.4822 4.86 2.08 27.137
21.64188 4.42 2.08 29.0698
21.64188 3.88 2.08 29.0698
28.590239999999998 2.4 2.08 40.6504
28.590239999999998 2.18 2.08 40.6504
124.19999999999999 -4.28 2.08 200.0
17.77464 -4.58 2.08 22.6244
17.77464 -4.6 2.08 22.6244
17.77464 -4.62 2.08 22.6244
21.64188 5.9 2.06 29.0698
20.4822 5.78 2.06 27.137
20.4822 5.54 2.06 27.137
20.4822 5.24 2.06 27.137
20.4822 5.22 2.06 27.137
21.64188 5.16 2.06 29.0698
20.4822 4.84 2.06 27.137
21.64188 4.76 2.06 29.0698
21.64188 5.54 2.04 29.0698
19.467180000000003 5.48 2.04 25.4453
20.4822 5.24 2.04 27.137
20.4822 5.22 2.04 27.137
20.4822 4.84 2.04 27.137
21.64188 4.72 2.04 29.0698
21.64188 3.88 2.04 29.0698
21.64188 3.86 2.04 29.0698
31.28802 -6.58 2.04 45.1467
21.64188 5.58 2.02 29.0698
21.64188 5.56 2.02 29.0698
19.467180000000003 5.48 2.02 25.4453
20.4822 5.28 2.02 27.137
20.4822 5.26 2.02 27.137
20.4822 3.86 2.02 27.137
17.77464 -4.64 2.02 22.6244
17.77464 -4.66 2.02 22.6244
20.4822 5.8 2.0 27.137
20.4822 5.78 2.0 27.137
21.64188 5.58 2.0 29.0698
21.64188 5.56 2.0 29.0698
21.64188 5.3 2.0 29.0698
20.4822 4.82 2.0 27.137
20.4822 3.86 2.0 27.137
26.38116 2.2 2.0 36.9686
17.77464 -4.62 2.0 22.6244
17.77464 -4.64 2.0 22.6244
31.28802 -6.56 2.0 45.1467
21.64188 5.92 1.98 29.0698
20.4822 5.8 1.98 27.137
19.467180000000003 5.62 1.98 25.4453
21.64188 5.3 1.98 29.0698
20.4822 4.82 1.98 27.137
21.64188 4.74 1.98 29.0698
21.64188 4.68 1.98 29.0698
21.64188 4.66 1.98 29.0698
20.4822 3.86 1.98 27.137
26.38116 2.2 1.98 36.9686
24.53898 -3.26 1.98 33.8983
20.4822 5.92 1.96 27.137
20.4822 5.86 1.96 27.137
19.467180000000003 5.62 1.96 25.4453
20.4822 5.5 1.96 27.137
20.4822 5.48 1.96 27.137
19.467180000000003 5.34 1.96 25.4453
19.467180000000003 5.28 1.96 25.4453
21.64188 4.68 1.96 29.0698
21.64188 4.66 1.96 29.0698
20.4822 3.88 1.96 27.137
26.38116 2.2 1.96 36.9686
20.4822 5.86 1.94 27.137
19.467180000000003 5.62 1.94 25.4453
20.4822 5.5 1.94 27.137
20.4822 3.88 1.94 27.137
26.38116 2.2 1.94 36.9686
17.77464 -4.66 1.94 22.6244
17.77464 -4.68 1.94 22.6244
20.4822 5.86 1.92 27.137
21.64188 5.64 1.92 29.0698
17.77464 -4.68 1.92 22.6244
17.06172 -4.82 1.92 21.4362
21.64188 5.36 1.9 29.0698
21.64188 5.34 1.9 29.0698
21.64188 5.24 1.9 29.0698
21.64188 3.7 1.9 29.0698
21.64188 3.68 1.9 29.0698
28.590239999999998 2.38 1.9 40.6504
26.38116 -3.26 1.9 36.9686
17.06172 -4.8 1.9 21.4362
17.06172 -4.82 1.9 21.4362
20.4822 5.9 1.88 27.137
21.64188 5.66 1.88 29.0698
21.64188 5.44 1.88 29.0698
21.64188 5.36 1.88 29.0698
21.64188 5.34 1.88 29.0698
21.64188 4.76 1.88 29.0698
20.4822 3.9 1.88 27.137
21.64188 3.7 1.88 29.0698
28.590239999999998 2.38 1.88 40.6504
19.467180000000003 5.9 1.86 25.4453
21.64188 5.7 1.86 29.0698
21.64188 5.38 1.86 29.0698
21.64188 3.7 1.86 29.0698
20.4822 5.94 1.84 27.137
21.64188 5.76 1.84 29.0698
20.4822 5.74 1.84 27.137
20.4822 5.34 1.84 27.137
21.64188 3.7 1.84 29.0698
17.06172 -4.82 1.84 21.4362
31.28802 -6.56 1.84 45.1467
31.28802 -6.58 1.84 45.1467
20.4822 5.52 1.82 27.137
20.4822 5.34 1.82 27.137
20.4822 4.74 1.82 27.137
21.64188 4.66 1.82 29.0698
21.64188 3.7 1.82 29.0698
31.28802 -6.56 1.82 45.1467
20.4822 5.84 1.8 27.137
20.4822 5.52 1.8 27.137
20.4822 5.4 1.8 27.137
20.4822 4.74 1.8 27.137
21.64188 4.66 1.8 29.0698
21.64188 3.72 1.8 29.0698
21.64188 3.7 1.8 29.0698
20.4822 5.92 1.78 27.137
20.4822 5.9 1.78 27.137
20.4822 5.8 1.78 27.137
20.4822 5.78 1.78 27.137
20.4822 5.4 1.78 27.137
20.4822 5.38 1.78 27.137
21.64188 5.2 1.78 29.0698
20.4822 4.72 1.78 27.137
21.64188 4.2 1.78 29.0698
21.64188 3.72 1.78 29.0698
21.64188 3.7 1.78 29.0698
28.590239999999998 2.14 1.78 40.6504
20.4822 5.74 1.76 27.137
20.4822 5.48 1.76 27.137
20.4822 5.46 1.76 27.137
20.4822 5.38 1.76 27.137
21.64188 5.2 1.76 29.0698
21.64188 5.18 1.76 29.0698
21.64188 4.72 1.76 29.0698
21.64188 4.7 1.76 29.0698
21.64188 3.72 1.76 29.0698
21.64188 3.7 1.76 29.0698
28.590239999999998 2.16 1.76 40.6504
20.4822 5.52 1.74 27.137
20.4822 5.46 1.74 27.137
21.64188 5.2 1.74 29.0698
21.64188 4.7 1.74 29.0698
21.64188 3.72 1.74 29.0698
31.28802 -6.46 1.74 45.1467
20.4822 5.92 1.72 27.137
20.4822 5.9 1.72 27.137
20.4822 5.46 1.72 27.137
21.64188 5.22 1.72 29.0698
21.64188 5.2 1.72 29.0698
21.64188 4.68 1.72 29.0698
21.64188 3.84 1.72 29.0698
21.64188 3.72 1.72 29.0698
34.65684 1.44 1.72 50.7614
20.4822 5.56 1.7 27.137
21.64188 5.46 1.7 29.0698
21.64188 5.24 1.7 29.0698
21.64188 5.22 1.7 29.0698
21.64188 4.68 1.7 29.0698
21.64188 3.84 1.7 29.0698
21.64188 3.72 1.7 29.0698
34.65684 1.66 1.7 50.7614
34.65684 1.44 1.7 50.7614
19.467180000000003 5.66 1.68 25.4453
20.4822 5.6 1.68 27.137
20.4822 5.58 1.68 27.137
21.64188 5.24 1.68 29.0698
21.64188 5.22 1.68 29.0698
28.590239999999998 2.18 1.68 40.6504
34.65684 1.44 1.68 50.7614
26.38116 -3.26 1.68 36.9686
20.4822 5.8 1.66 27.137
19.467180000000003 5.68 1.66 25.4453
20.4822 5.66 1.66 27.137
20.4822 5.6 1.66 27.137
20.4822 5.58 1.66 27.137
28.590239999999998 2.18 1.66 40.6504
34.65684 1.44 1.66 50.7614
20.4822 5.8 1.64 27.137
21.64188 5.4 1.64 29.0698
21.64188 5.16 1.64 29.0698
20.4822 4.02 1.64 27.137
52.78302 3.3 1.64 80.9717
34.65684 1.44 1.64 50.7614
17.06172 -4.86 1.64 21.4362
31.28802 -6.48 1.64 45.1467
20.4822 5.88 1.62 27.137
21.64188 5.62 1.62 29.0698
21.64188 5.6 1.62 29.0698
22.97934 5.26 1.62 31.2989
21.64188 5.16 1.62 29.0698
22.97934 4.66 1.62 31.2989
21.64188 3.8 1.62 29.0698
52.78302 3.3 1.62 80.9717
31.28802 -6.48 1.62 45.1467
20.4822 5.88 1.6 27.137
20.4822 5.86 1.6 27.137
21.64188 5.62 1.6 29.0698
21.64188 5.6 1.6 29.0698
21.64188 5.26 1.6 29.0698
21.64188 5.12 1.6 29.0698
21.64188 3.8 1.6 29.0698
21.64188 3.72 1.6 29.0698
52.78302 2.88 1.6 80.9717
34.65684 1.46 1.6 50.7614
21.64188 5.62 1.58 29.0698
21.64188 5.16 1.58 29.0698
21.64188 3.8 1.58 29.0698
21.64188 3.72 1.58 29.0698
28.590239999999998 2.32 1.58 40.6504
21.64188 5.4 1.56 29.0698
22.97934 5.28 1.56 31.2989
22.97934 5.26 1.56 31.2989
21.64188 3.8 1.56 29.0698
21.64188 3.72 1.56 29.0698
28.590239999999998 2.32 1.56 40.6504
21.64188 5.4 1.54 29.0698
21.64188 5.3 1.54 29.0698
28.590239999999998 2.32 1.54 40.6504
34.65684 1.44 1.54 50.7614
28.590239999999998 -6.54 1.54 40.6504
20.4822 5.62 1.52 27.137
22.97934 5.34 1.52 31.2989
28.590239999999998 2.32 1.52 40.6504
20.4822 5.64 1.5 27.137
21.64188 5.52 1.5 29.0698
21.64188 5.42 1.5 29.0698
21.64188 5.38 1.5 29.0698
21.64188 3.78 1.5 29.0698
28.590239999999998 2.32 1.5 40.6504
20.4822 5.64 1.48 27.137
21.64188 5.42 1.48 29.0698
20.4822 5.78 1.46 27.137
21.64188 5.48 1.46 29.0698
20.4822 3.82 1.46 27.137
21.64188 5.66 1.44 29.0698
20.4822 5.6 1.44 27.137
21.64188 5.48 1.44 29.0698
20.4822 4.66 1.44 27.137
20.4822 3.84 1.44 27.137
20.4822 3.82 1.44 27.137
28.590239999999998 -6.46 1.44 40.6504
21.64188 5.66 1.42 29.0698
20.4822 5.22 1.42 27.137
20.4822 4.66 1.42 27.137
20.4822 4.64 1.42 27.137
20.4822 3.82 1.42 27.137
28.590239999999998 -6.6 1.42 40.6504
21.64188 5.62 1.4 29.0698
21.64188 5.52 1.4 29.0698
20.4822 5.24 1.4 27.137
20.4822 3.84 1.4 27.137
28.590239999999998 -6.48 1.4 40.6504
20.4822 5.94 1.38 27.137
19.467180000000003 5.92 1.38 25.4453
21.64188 5.68 1.38 29.0698
20.4822 5.28 1.38 27.137
20.4822 3.84 1.38 27.137
20.4822 5.94 1.36 27.137
21.64188 5.7 1.36 29.0698
21.64188 5.68 1.36 29.0698
20.4822 5.28 1.36 27.137
20.4822 3.84 1.36 27.137
52.78302 2.96 1.36 80.9717
21.64188 5.7 1.34 29.0698
21.64188 5.34 1.34 29.0698
20.4822 5.26 1.34 27.137
20.4822 4.64 1.34 27.137
20.4822 5.56 1.32 27.137
21.64188 5.36 1.32 29.0698
20.4822 5.26 1.32 27.137
20.4822 4.62 1.32 27.137
20.4822 3.94 1.32 27.137
31.28802 -6.5 1.32 45.1467
20.4822 5.76 1.3 27.137
21.64188 5.36 1.3 29.0698
21.64188 5.34 1.3 29.0698
20.4822 3.94 1.3 27.137
21.64188 3.8 1.3 29.0698
21.64188 3.78 1.3 29.0698
34.65684 1.34 1.3 50.7614
20.4822 5.66 1.28 27.137
28.590239999999998 5.14 1.28 40.6504
20.4822 4.64 1.28 27.137
20.4822 4.16 1.28 27.137
20.4822 3.96 1.28 27.137
21.64188 3.8 1.28 29.0698
34.65684 1.34 1.28 50.7614
21.64188 5.84 1.26 29.0698
20.4822 5.66 1.26 27.137
21.64188 5.56 1.26 29.0698
28.590239999999998 5.14 1.26 40.6504
22.97934 4.62 1.26 31.2989
20.4822 4.16 1.26 27.137
21.64188 3.8 1.26 29.0698
21.64188 5.84 1.24 29.0698
20.4822 5.66 1.24 27.137
21.64188 5.58 1.24 29.0698
21.64188 5.56 1.24 29.0698
21.64188 3.82 1.24 29.0698
21.64188 3.8 1.24 29.0698
31.28802 3.7 1.24 45.1467
28.590239999999998 -6.54 1.24 40.6504
21.64188 5.58 1.22 29.0698
21.64188 5.6 1.2 29.0698
21.64188 3.86 1.2 29.0698
21.64188 5.62 1.18 29.0698
20.4822 5.6 1.18 27.137
21.64188 4.4 1.18 29.0698
21.64188 3.9 1.18 29.0698
20.4822 5.62 1.16 27.137
21.64188 5.56 1.16 29.0698
21.64188 4.4 1.16 29.0698
20.4822 4.14 1.16 27.137
20.4822 4.12 1.16 27.137
20.4822 3.92 1.16 27.137
20.4822 3.9 1.16 27.137
31.28802 3.84 1.16 45.1467
31.28802 -6.52 1.16 45.1467
31.28802 -6.54 1.16 45.1467
21.64188 5.64 1.14 29.0698
20.4822 5.56 1.14 27.137
20.4822 3.94 1.14 27.137
20.4822 3.92 1.14 27.137
21.64188 5.66 1.12 29.0698
21.64188 5.64 1.12 29.0698
20.4822 4.12 1.12 27.137
20.4822 3.96 1.12 27.137
20.4822 3.94 1.12 27.137
21.64188 5.68 1.1 29.0698
21.64188 5.66 1.1 29.0698
20.4822 4.12 1.1 27.137
21.64188 5.92 1.08 29.0698
22.97934 5.68 1.08 31.2989
22.97934 5.66 1.08 31.2989
28.590239999999998 5.14 1.08 40.6504
21.64188 4.42 1.08 29.0698
31.28802 3.86 1.08 45.1467
21.64188 5.78 1.06 29.0698
28.590239999999998 4.84 1.06 40.6504
21.64188 4.42 1.06 29.0698
21.64188 4.4 1.06 29.0698
21.64188 4.42 1.04 29.0698
31.28802 3.9 1.04 45.1467
34.65684 1.38 1.04 50.7614
21.64188 5.76 1.02 29.0698
21.64188 4.42 1.02 29.0698
21.64188 4.02 1.02 29.0698
34.65684 1.38 1.02 50.7614
20.4822 5.54 1.0 27.137
21.64188 4.44 1.0 29.0698
20.4822 4.2 1.0 27.137
21.64188 5.88 0.98 29.0698
21.64188 5.58 0.98 29.0698
21.64188 4.44 0.98 29.0698
20.4822 4.2 0.98 27.137
21.64188 4.02 0.98 29.0698
31.28802 3.92 0.98 45.1467
21.64188 5.88 0.96 29.0698
21.64188 5.58 0.96 29.0698
21.64188 4.44 0.96 29.0698
20.4822 4.18 0.96 27.137
34.65684 1.4 0.96 50.7614
22.97934 5.64 0.94 31.2989
21.64188 5.58 0.94 29.0698
20.4822 4.18 0.94 27.137
20.4822 4.16 0.94 27.137
31.28802 4.8 0.92 45.1467
24.53898 4.5 0.92 33.8983
21.64188 4.46 0.92 29.0698
20.4822 4.18 0.92 27.137
20.4822 4.16 0.92 27.137
31.28802 3.9 0.92 45.1467
20.4822 5.82 0.9 27.137
31.28802 4.78 0.9 45.1467
24.53898 4.5 0.9 33.8983
24.53898 4.46 0.9 33.8983
21.64188 4.18 0.9 29.0698
21.64188 4.16 0.9 29.0698
31.28802 3.9 0.9 45.1467
20.4822 5.82 0.88 27.137
22.97934 5.7 0.88 31.2989
22.97934 5.68 0.88 31.2989
24.53898 4.5 0.88 33.8983
24.53898 4.48 0.88 33.8983
20.4822 4.18 0.88 27.137
20.4822 4.16 0.88 27.137
21.64188 5.88 0.86 29.0698
21.64188 5.8 0.86 29.0698
22.97934 5.48 0.86 31.2989
20.4822 4.18 0.86 27.137
20.4822 4.16 0.86 27.137
20.4822 4.2 0.84 27.137
20.4822 4.18 0.84 27.137
31.28802 3.94 0.84 45.1467
21.64188 5.86 0.82 29.0698
21.64188 5.84 0.82 29.0698
22.97934 5.52 0.82 31.2989
28.590239999999998 4.78 0.82 40.6504
28.590239999999998 4.76 0.82 40.6504
21.64188 4.52 0.82 29.0698
20.4822 4.22 0.82 27.137
20.4822 4.2 0.82 27.137
31.28802 3.94 0.82 45.1467
21.64188 5.84 0.8 29.0698
21.64188 5.62 0.8 29.0698
22.97934 5.54 0.8 31.2989
22.97934 5.52 0.8 31.2989
21.64188 4.52 0.8 29.0698
20.4822 4.22 0.8 27.137
20.4822 4.2 0.8 27.137
21.64188 4.54 0.78 29.0698
21.64188 4.52 0.78 29.0698
20.4822 4.24 0.78 27.137
20.4822 4.22 0.78 27.137
21.64188 5.68 0.76 29.0698
21.64188 4.54 0.76 29.0698
21.64188 4.52 0.76 29.0698
20.4822 4.24 0.76 27.137
20.4822 4.22 0.76 27.137
31.28802 3.88 0.76 45.1467
21.64188 5.78 0.74 29.0698
21.64188 4.52 0.74 29.0698
20.4822 4.24 0.74 27.137
20.4822 4.22 0.74 27.137
22.97934 5.5 0.72 31.2989
22.97934 5.48 0.72 31.2989
21.64188 4.5 0.72 29.0698
20.4822 4.22 0.72 27.137
31.28802 4.0 0.72 45.1467
28.590239999999998 2.48 0.72 40.6504
22.97934 5.48 0.7 31.2989
20.4822 4.5 0.7 27.137
20.4822 4.22 0.7 27.137
20.4822 4.2 0.7 27.137
31.28802 4.0 0.7 45.1467
21.64188 5.66 0.68 29.0698
21.64188 5.58 0.68 29.0698
21.64188 4.5 0.68 29.0698
20.4822 4.22 0.68 27.137
20.4822 4.2 0.68 27.137
28.590239999999998 2.48 0.68 40.6504
28.590239999999998 -6.52 0.68 40.6504
21.64188 4.5 0.66 29.0698
20.4822 4.22 0.66 27.137
20.4822 4.2 0.66 27.137
28.590239999999998 4.62 0.64 40.6504
21.64188 4.22 0.64 29.0698
21.64188 4.2 0.64 29.0698
21.64188 5.7 0.62 29.0698
22.97934 5.68 0.62 31.2989
28.590239999999998 4.58 0.62 40.6504
21.64188 4.22 0.62 29.0698
21.64188 4.2 0.62 29.0698
28.590239999999998 2.48 0.62 40.6504
21.64188 5.74 0.6 29.0698
21.64188 4.22 0.6 29.0698
21.64188 4.2 0.6 29.0698
31.28802 4.0 0.6 45.1467
28.590239999999998 2.48 0.6 40.6504
21.64188 5.74 0.58 29.0698
21.64188 4.22 0.58 29.0698
21.64188 4.2 0.58 29.0698
21.64188 4.2 0.56 29.0698
21.64188 4.54 0.54 29.0698
22.97934 5.72 0.52 31.2989
22.97934 5.7 0.52 31.2989
21.64188 5.46 0.52 29.0698
21.64188 4.54 0.52 29.0698
21.64188 4.52 0.52 29.0698
28.590239999999998 2.48 0.52 40.6504
22.97934 5.7 0.5 31.2989
22.97934 5.68 0.5 31.2989
21.64188 5.48 0.5 29.0698
21.64188 5.46 0.5 29.0698
21.64188 4.54 0.5 29.0698
28.590239999999998 2.46 0.5 40.6504
22.97934 5.7 0.48 31.2989
21.64188 4.54 0.48 29.0698
21.64188 4.18 0.48 29.0698
34.65684 3.92 0.48 50.7614
38.9826 -3.32 0.48 57.971
38.9826 -3.34 0.48 57.971
34.65684 -3.36 0.48 50.7614
31.28802 -3.38 0.48 45.1467
28.590239999999998 -3.4 0.48 40.6504
28.590239999999998 -3.42 0.48 40.6504
21.64188 5.92 0.46 29.0698
44.74056 5.62 0.46 67.5676
21.64188 4.18 0.46 29.0698
44.74056 -3.3 0.46 67.5676
38.9826 -3.32 0.46 57.971
38.9826 -3.34 0.46 57.971
34.65684 -3.36 0.46 50.7614
31.28802 -3.38 0.46 45.1467
28.590239999999998 -3.4 0.46 40.6504
22.97934 5.78 0.44 31.2989
21.64188 4.56 0.44 29.0698
21.64188 4.18 0.44 29.0698
44.74056 -3.28 0.44 67.5676
38.9826 -3.32 0.44 57.971
38.9826 -3.34 0.44 57.971
34.65684 -3.36 0.44 50.7614
31.28802 -3.38 0.44 45.1467
21.64188 4.56 0.42 29.0698
21.64188 4.18 0.42 29.0698
28.590239999999998 3.98 0.42 40.6504
21.64188 5.56 0.4 29.0698
21.64188 4.18 0.4 29.0698
31.28802 4.08 0.4 45.1467
28.590239999999998 3.98 0.4 40.6504
28.590239999999998 2.44 0.4 40.6504
21.64188 5.9 0.38 29.0698
20.4822 4.46 0.38 27.137
20.4822 4.46 0.34 27.137
20.4822 4.18 0.34 27.137
84.7368 -3.38 0.34 134.228
64.806 -3.4 0.34 101.01
64.806 -3.42 0.34 101.01
52.78302 -3.44 0.34 80.9717
52.78302 -3.46 0.34 80.9717
44.74056 -3.48 0.34 67.5676
21.64188 4.56 0.32 29.0698
21.64188 4.46 0.32 29.0698
28.590239999999998 4.1 0.32 40.6504
64.806 -3.4 0.32 101.01
64.806 -3.42 0.32 101.01
52.78302 -3.44 0.32 80.9717
52.78302 -3.46 0.32 80.9717
44.74056 -3.48 0.32 67.5676
28.590239999999998 4.12 0.3 40.6504
28.590239999999998 4.1 0.3 40.6504
28.590239999999998 2.34 0.3 40.6504
44.74056 -3.28 0.3 67.5676
44.74056 -3.3 0.3 67.5676
64.806 -3.42 0.3 101.01
52.78302 -3.44 0.3 80.9717
52.78302 -3.46 0.3 80.9717
13.6044 -5.92 0.3 15.674
13.6044 -5.94 0.3 15.674
13.6044 -5.96 0.3 15.674
21.64188 4.38 0.28 29.0698
28.590239999999998 4.12 0.28 40.6504
28.590239999999998 4.1 0.28 40.6504
28.590239999999998 2.34 0.28 40.6504
44.74056 -3.26 0.28 67.5676
44.74056 -3.28 0.28 67.5676
44.74056 -3.3 0.28 67.5676
13.6044 -5.96 0.28 15.674
13.6044 -5.96 0.26 15.674
28.590239999999998 4.14 0.24 40.6504
31.28802 3.92 0.24 45.1467
28.590239999999998 2.34 0.24 40.6504
13.6044 -4.86 0.22 15.674
13.979940000000001 -5.0 0.22 16.2999
13.979940000000001 -5.02 0.22 16.2999
14.386740000000001 -5.34 0.22 16.9779
13.6044 -5.92 0.22 15.674
13.6044 -5.98 0.22 15.674
13.6044 -5.0 0.2 15.674
14.386740000000001 -5.12 0.2 16.9779
14.386740000000001 -5.32 0.2 16.9779
14.386740000000001 -5.34 0.2 16.9779
13.6044 -5.92 0.2 15.674
13.6044 -5.94 0.2 15.674
21.64188 4.34 0.18 29.0698
13.6044 -5.0 0.18 15.674
14.386740000000001 -5.12 0.18 16.9779
13.6044 -5.0 0.16 15.674
13.6044 -5.02 0.16 15.674
14.386740000000001 -5.48 0.16 16.9779
13.6044 -5.94 0.16 15.674
13.6044 -5.0 0.14 15.674
13.6044 -5.02 0.14 15.674
14.386740000000001 -5.1 0.14 16.9779
14.386740000000001 -5.12 0.14 16.9779
13.6044 -5.94 0.14 15.674
13.6044 -5.96 0.14 15.674
28.590239999999998 4.08 0.12 40.6504
15.83916 -4.62 0.12 19.3986
13.6044 -5.0 0.12 15.674
13.6044 -5.02 0.12 15.674
14.82888 -5.1 0.12 17.7148
14.82888 -5.12 0.12 17.7148
21.64188 5.76 0.1 29.0698
21.64188 5.46 0.1 29.0698
20.4822 4.44 0.1 27.137
13.6044 -5.0 0.1 15.674
13.6044 -5.96 0.1 15.674
13.6044 -6.02 0.1 15.674
20.4822 4.44 0.08 27.137
38.9826 1.52 0.08 57.971
19.467180000000003 -3.72 0.08 25.4453
13.6044 -4.98 0.08 15.674
13.6044 -5.0 0.08 15.674
13.6044 -5.96 0.08 15.674
21.64188 5.6 0.06 29.0698
21.64188 5.5 0.06 29.0698
38.9826 1.52 0.06 57.971
13.6044 -5.0 0.06 15.674
13.6044 -5.96 0.06 15.674
21.64188 5.76 0.04 29.0698
21.64188 5.6 0.04 29.0698
21.64188 5.5 0.04 29.0698
38.9826 1.52 0.04 57.971
16.419959999999996 -4.56 0.04 20.3666
13.6044 -5.0 0.04 15.674
13.6044 -6.04 0.04 15.674
21.64188 5.6 0.02 29.0698
21.64188 5.5 0.02 29.0698
15.3111 -4.34 0.02 18.5185
13.6044 -5.0 0.02 15.674
13.6044 -5.98 0.02 15.674
21.64188 5.6 0.0 29.0698
21.64188 5.5 0.0 29.0698
38.9826 1.52 0.0 57.971
15.3111 -4.34 0.0 18.5185
13.6044 -4.82 0.0 15.674
13.6044 -4.98 0.0 15.674
13.6044 -5.0 0.0 15.674
14.386740000000001 -5.08 0.0 16.9779
14.386740000000001 -5.1 0.0 16.9779
13.6044 -5.98 0.0 15.674
21.64188 5.5 -0.02 29.0698
15.83916 -4.12 -0.02 19.3986
15.83916 -4.14 -0.02 19.3986
13.6044 -4.8 -0.02 15.674
13.6044 -4.82 -0.02 15.674
13.6044 -4.98 -0.02 15.674
13.6044 -5.98 -0.02 15.674
21.64188 5.76 -0.04 29.0698
21.64188 5.58 -0.04 29.0698
21.64188 5.5 -0.04 29.0698
38.9826 1.52 -0.04 57.971
15.3111 -3.98 -0.04 18.5185
15.3111 -4.0 -0.04 18.5185
15.3111 -4.02 -0.04 18.5185
15.83916 -4.14 -0.04 19.3986
13.979940000000001 -4.8 -0.04 16.2999
13.979940000000001 -4.82 -0.04 16.2999
13.6044 -4.98 -0.04 15.674
13.6044 -5.0 -0.04 15.674
14.386740000000001 -5.08 -0.04 16.9779
14.386740000000001 -5.1 -0.04 16.9779
13.6044 -5.98 -0.04 15.674
21.64188 5.76 -0.06 29.0698
21.64188 5.58 -0.06 29.0698
21.64188 5.5 -0.06 29.0698
38.9826 1.52 -0.06 57.971
15.3111 -4.0 -0.06 18.5185
13.979940000000001 -4.8 -0.06 16.2999
13.979940000000001 -4.82 -0.06 16.2999
13.6044 -4.96 -0.06 15.674
13.6044 -4.98 -0.06 15.674
13.6044 -5.0 -0.06 15.674
13.6044 -6.0 -0.06 15.674
13.6044 -6.06 -0.06 15.674
13.6044 -6.08 -0.06 15.674
21.64188 5.58 -0.08 29.0698
21.64188 5.5 -0.08 29.0698
38.9826 1.52 -0.08 57.971
20.4822 -3.28 -0.08 27.137
20.4822 -3.3 -0.08 27.137
19.467180000000003 -4.38 -0.08 25.4453
19.467180000000003 -4.4 -0.08 25.4453
19.467180000000003 -4.42 -0.08 25.4453
13.979940000000001 -4.8 -0.08 16.2999
13.6044 -4.98 -0.08 15.674
13.6044 -5.0 -0.08 15.674
14.386740000000001 -5.08 -0.08 16.9779
13.6044 -5.96 -0.08 15.674
13.6044 -5.98 -0.08 15.674
13.6044 -6.04 -0.08 15.674
13.6044 -6.06 -0.08 15.674
13.6044 -6.08 -0.08 15.674
21.64188 5.58 -0.1 29.0698
21.64188 5.5 -0.1 29.0698
28.590239999999998 5.16 -0.1 40.6504
38.9826 -1.4 -0.1 57.971
64.806 -2.12 -0.1 101.01
64.806 -2.14 -0.1 101.01
19.467180000000003 -4.4 -0.1 25.4453
13.979940000000001 -4.78 -0.1 16.2999
13.979940000000001 -4.8 -0.1 16.2999
13.979940000000001 -4.82 -0.1 16.2999
21.64188 5.58 -0.12 29.0698
21.64188 5.5 -0.12 29.0698
28.590239999999998 5.16 -0.12 40.6504
28.590239999999998 5.0 -0.12 40.6504
15.83916 -4.08 -0.12 19.3986
15.83916 -4.1 -0.12 19.3986
21.64188 5.58 -0.14 29.0698
21.64188 5.5 -0.14 29.0698
28.590239999999998 5.16 -0.14 40.6504
28.590239999999998 5.0 -0.14 40.6504
21.64188 5.64 -0.16 29.0698
21.64188 5.58 -0.16 29.0698
21.64188 5.5 -0.16 29.0698
21.64188 5.48 -0.16 29.0698
28.590239999999998 5.0 -0.16 40.6504
28.590239999999998 4.16 -0.16 40.6504
64.806 -1.72 -0.16 101.01
64.806 -1.74 -0.16 101.01
64.806 -1.76 -0.16 101.01
52.78302 -1.78 -0.16 80.9717
18.57126 -3.46 -0.16 23.9521
18.57126 -3.48 -0.16 23.9521
18.57126 -3.5 -0.16 23.9521
20.4822 4.54 -0.18 27.137
21.64188 4.22 -0.18 29.0698
28.590239999999998 4.16 -0.18 40.6504
34.65684 1.5 -0.18 50.7614
64.806 -1.72 -0.18 101.01
64.806 -1.74 -0.18 101.01
64.806 -1.76 -0.18 101.01
18.57126 -3.46 -0.18 23.9521
18.57126 -3.48 -0.18 23.9521
18.57126 -3.5 -0.18 23.9521
13.6044 -5.5 -0.18 15.674
20.4822 4.54 -0.2 27.137
21.64188 4.22 -0.2 29.0698
28.590239999999998 4.16 -0.2 40.6504
34.65684 1.5 -0.2 50.7614
13.6044 -5.48 -0.2 15.674
13.6044 -5.5 -0.2 15.674
28.590239999999998 4.16 -0.22 40.6504
38.9826 2.78 -0.22 57.971
34.65684 1.5 -0.22 50.7614
13.6044 -5.5 -0.22 15.674
11.61198 -6.12 -0.22 12.3533
11.61198 -6.14 -0.22 12.3533
22.97934 5.5 -0.24 31.2989
20.4822 4.52 -0.24 27.137
28.590239999999998 4.16 -0.24 40.6504
34.65684 1.5 -0.24 50.7614
22.97934 5.9 -0.26 31.2989
22.97934 5.88 -0.26 31.2989
28.590239999999998 4.16 -0.26 40.6504
34.65684 1.5 -0.26 50.7614
11.61198 -6.1 -0.26 12.3533
11.61198 -6.12 -0.26 12.3533
22.97934 5.38 -0.28 31.2989
28.590239999999998 4.16 -0.28 40.6504
34.65684 1.48 -0.28 50.7614
13.6044 -4.84 -0.28 15.674
13.6044 -4.86 -0.28 15.674
22.97934 5.38 -0.3 31.2989
22.97934 5.18 -0.3 31.2989
19.467180000000003 4.7 -0.3 25.4453
19.467180000000003 4.68 -0.3 25.4453
28.590239999999998 4.16 -0.3 40.6504
13.6044 -4.84 -0.3 15.674
13.6044 -4.86 -0.3 15.674
13.6044 -5.26 -0.3 15.674
13.6044 -5.28 -0.3 15.674
13.6044 -5.3 -0.3 15.674
13.6044 -5.32 -0.3 15.674
11.61198 -6.08 -0.3 12.3533
10.995 -6.72 -0.3 11.325
22.97934 5.38 -0.32 31.2989
22.97934 5.18 -0.32 31.2989
22.97934 5.08 -0.32 31.2989
19.467180000000003 4.76 -0.32 25.4453
19.467180000000003 4.7 -0.32 25.4453
19.467180000000003 4.68 -0.32 25.4453
28.590239999999998 4.16 -0.32 40.6504
13.6044 -4.82 -0.32 15.674
13.6044 -4.84 -0.32 15.674
13.6044 -4.86 -0.32 15.674
13.6044 -5.26 -0.32 15.674
13.6044 -5.28 -0.32 15.674
13.6044 -5.3 -0.32 15.674
13.6044 -5.32 -0.32 15.674
12.08952 -5.74 -0.32 13.1492
12.08952 -5.76 -0.32 13.1492
11.61198 -6.08 -0.32 12.3533
22.97934 5.08 -0.34 31.2989
19.467180000000003 4.7 -0.34 25.4453
20.4822 4.52 -0.34 27.137
19.467180000000003 -3.36 -0.34 25.4453
13.6044 -5.28 -0.34 15.674
12.08952 -5.72 -0.34 13.1492
28.590239999999998 5.64 -0.36 40.6504
28.590239999999998 4.16 -0.36 40.6504
19.467180000000003 -3.34 -0.36 25.4453
19.467180000000003 -3.36 -0.36 25.4453
13.6044 -4.98 -0.36 15.674
11.61198 -6.06 -0.36 12.3533
26.38116 5.7 -0.38 36.9686
28.590239999999998 5.64 -0.38 40.6504
28.590239999999998 4.16 -0.38 40.6504
28.590239999999998 2.4 -0.38 40.6504
11.61198 -6.38 -0.38 12.3533
28.590239999999998 4.16 -0.4 40.6504
28.590239999999998 2.4 -0.4 40.6504
28.590239999999998 2.38 -0.4 40.6504
17.77464 -3.64 -0.4 22.6244
15.83916 -3.7 -0.4 19.3986
15.83916 -3.98 -0.4 19.3986
15.83916 -4.0 -0.4 19.3986
13.6044 -4.84 -0.4 15.674
11.843340000000001 -5.68 -0.4 12.7389
11.843340000000001 -5.7 -0.4 12.7389
11.843340000000001 -6.34 -0.4 12.7389
11.843340000000001 -6.36 -0.4 12.7389
22.97934 5.08 -0.42 31.2989
19.467180000000003 4.76 -0.42 25.4453
15.83916 -4.0 -0.42 19.3986
13.6044 -4.84 -0.42 15.674
13.6044 -4.86 -0.42 15.674
11.394240000000002 -6.06 -0.42 11.9904
11.394240000000002 -6.08 -0.42 11.9904
11.843340000000001 -6.32 -0.42 12.7389
11.843340000000001 -6.34 -0.42 12.7389
11.18892 -6.42 -0.42 11.6482
22.97934 5.12 -0.44 31.2989
22.97934 5.08 -0.44 31.2989
19.467180000000003 4.76 -0.44 25.4453
20.4822 4.24 -0.44 27.137
15.83916 -4.0 -0.44 19.3986
15.3111 -4.06 -0.44 18.5185
15.3111 -4.08 -0.44 18.5185
13.6044 -4.84 -0.44 15.674
19.467180000000003 4.76 -0.46 25.4453
28.590239999999998 4.6 -0.46 40.6504
20.4822 4.24 -0.46 27.137
17.77464 -3.62 -0.46 22.6244
15.3111 -4.08 -0.46 18.5185
13.6044 -4.84 -0.46 15.674
12.08952 -5.46 -0.46 13.1492
12.08952 -5.48 -0.46 13.1492
13.979940000000001 -5.82 -0.46 16.2999
12.08952 -6.28 -0.46 13.1492
12.08952 -6.3 -0.46 13.1492
12.08952 -6.32 -0.46 13.1492
11.843340000000001 -6.34 -0.46 12.7389
11.18892 -6.4 -0.46 11.6482
11.18892 -6.42 -0.46 11.6482
26.38116 5.74 -0.48 36.9686
19.467180000000003 4.76 -0.48 25.4453
20.4822 4.7 -0.48 27.137
20.4822 4.24 -0.48 27.137
21.64188 -3.14 -0.48 29.0698
13.6044 -5.0 -0.48 15.674
12.08952 -5.46 -0.48 13.1492
12.08952 -5.48 -0.48 13.1492
11.61198 -5.64 -0.48 12.3533
28.590239999999998 5.64 -0.5 40.6504
19.467180000000003 4.76 -0.5 25.4453
20.4822 4.24 -0.5 27.137
14.386740000000001 -4.56 -0.5 16.9779
14.386740000000001 -4.58 -0.5 16.9779
14.386740000000001 -4.6 -0.5 16.9779
12.08952 -5.46 -0.5 13.1492
12.08952 -5.48 -0.5 13.1492
12.08952 -5.58 -0.5 13.1492
28.590239999999998 5.64 -0.52 40.6504
19.467180000000003 4.76 -0.52 25.4453
20.4822 4.7 -0.52 27.137
17.77464 -3.7 -0.52 22.6244
15.3111 -4.1 -0.52 18.5185
14.386740000000001 -4.56 -0.52 16.9779
14.386740000000001 -4.58 -0.52 16.9779
14.386740000000001 -4.6 -0.52 16.9779
13.979940000000001 -4.68 -0.52 16.2999
13.979940000000001 -4.84 -0.52 16.2999
13.979940000000001 -4.86 -0.52 16.2999
12.08952 -5.56 -0.52 13.1492
12.08952 -5.58 -0.52 13.1492
10.995 -6.64 -0.52 11.325
10.995 -6.66 -0.52 11.325
24.53898 5.76 -0.54 33.8983
28.590239999999998 5.64 -0.54 40.6504
19.467180000000003 4.76 -0.54 25.4453
19.467180000000003 4.74 -0.54 25.4453
20.4822 4.7 -0.54 27.137
16.419959999999996 -3.98 -0.54 20.3666
14.386740000000001 -4.56 -0.54 16.9779
14.386740000000001 -4.58 -0.54 16.9779
13.979940000000001 -4.66 -0.54 16.2999
13.979940000000001 -4.68 -0.54 16.2999
13.979940000000001 -4.7 -0.54 16.2999
13.979940000000001 -4.84 -0.54 16.2999
13.979940000000001 -4.86 -0.54 16.2999
13.6044 -5.02 -0.54 15.674
12.08952 -5.56 -0.54 13.1492
10.995 -6.64 -0.54 11.325
10.995 -6.66 -0.54 11.325
22.97934 5.12 -0.56 31.2989
19.467180000000003 4.74 -0.56 25.4453
22.97934 4.12 -0.56 31.2989
22.97934 4.1 -0.56 31.2989
22.97934 4.08 -0.56 31.2989
19.467180000000003 -3.4 -0.56 25.4453
17.06172 -3.72 -0.56 21.4362
17.77464 -3.9 -0.56 22.6244
17.77464 -3.92 -0.56 22.6244
17.06172 -3.94 -0.56 21.4362
17.06172 -3.96 -0.56 21.4362
16.419959999999996 -3.98 -0.56 20.3666
14.386740000000001 -4.54 -0.56 16.9779
14.386740000000001 -4.56 -0.56 16.9779
14.386740000000001 -4.58 -0.56 16.9779
12.08952 -5.56 -0.56 13.1492
12.08952 -5.78 -0.56 13.1492
20.4822 4.52 -0.58 27.137
22.97934 4.08 -0.58 31.2989
17.06172 -3.72 -0.58 21.4362
17.77464 -3.9 -0.58 22.6244
17.77464 -3.92 -0.58 22.6244
14.386740000000001 -4.54 -0.58 16.9779
14.386740000000001 -4.56 -0.58 16.9779
14.386740000000001 -4.58 -0.58 16.9779
13.979940000000001 -4.7 -0.58 16.2999
13.6044 -5.02 -0.58 15.674
20.4822 4.3 -0.6 27.137
17.77464 -3.7 -0.6 22.6244
17.77464 -3.72 -0.6 22.6244
15.83916 -4.1 -0.6 19.3986
14.386740000000001 -4.54 -0.6 16.9779
14.386740000000001 -4.56 -0.6 16.9779
13.6044 -4.72 -0.6 15.674
13.6044 -4.84 -0.6 15.674
13.6044 -4.86 -0.6 15.674
13.6044 -5.02 -0.6 15.674
13.6044 -5.34 -0.6 15.674
13.6044 -5.36 -0.6 15.674
13.25658 -5.38 -0.6 15.0943
13.25658 -5.4 -0.6 15.0943
12.63288 -5.42 -0.6 14.0548
12.63288 -5.44 -0.6 14.0548
12.63288 -5.46 -0.6 14.0548
12.3522 -5.48 -0.6 13.587
10.811580000000001 -6.52 -0.6 11.0193
10.811580000000001 -6.54 -0.6 11.0193
20.4822 4.52 -0.62 27.137
21.64188 3.8 -0.62 29.0698
17.77464 -3.7 -0.62 22.6244
14.386740000000001 -4.56 -0.62 16.9779
13.6044 -4.72 -0.62 15.674
13.6044 -4.84 -0.62 15.674
13.6044 -4.86 -0.62 15.674
13.6044 -4.88 -0.62 15.674
13.6044 -5.02 -0.62 15.674
12.63288 -5.44 -0.62 14.0548
12.63288 -5.46 -0.62 14.0548
13.25658 -5.78 -0.62 15.0943
13.25658 -5.8 -0.62 15.0943
12.933599999999998 -5.82 -0.62 14.556
12.933599999999998 -5.84 -0.62 14.556
12.3522 -5.86 -0.62 13.587
12.08952 -5.88 -0.62 13.1492
11.843340000000001 -5.9 -0.62 12.7389
11.843340000000001 -5.92 -0.62 12.7389
11.61198 -5.94 -0.62 12.3533
11.61198 -5.96 -0.62 12.3533
11.394240000000002 -5.98 -0.62 11.9904
10.811580000000001 -6.54 -0.62 11.0193
10.811580000000001 -6.56 -0.62 11.0193
10.811580000000001 -6.68 -0.62 11.0193
10.811580000000001 -6.7 -0.62 11.0193
21.64188 5.76 -0.64 29.0698
20.4822 4.5 -0.64 27.137
17.77464 -3.68 -0.64 22.6244
17.77464 -3.7 -0.64 22.6244
14.386740000000001 -4.54 -0.64 16.9779
14.386740000000001 -4.56 -0.64 16.9779
13.6044 -5.02 -0.64 15.674
12.933599999999998 -5.84 -0.64 14.556
12.3522 -5.86 -0.64 13.587
12.08952 -5.88 -0.64 13.1492
11.843340000000001 -5.9 -0.64 12.7389
11.843340000000001 -5.92 -0.64 12.7389
11.61198 -5.94 -0.64 12.3533
11.61198 -5.96 -0.64 12.3533
11.394240000000002 -5.98 -0.64 11.9904
11.18892 -6.0 -0.64 11.6482
10.472879999999998 -6.04 -0.64 10.4548
10.472879999999998 -6.06 -0.64 10.4548
10.811580000000001 -6.5 -0.64 11.0193
10.811580000000001 -6.52 -0.64 11.0193
10.811580000000001 -6.68 -0.64 11.0193
10.811580000000001 -6.7 -0.64 11.0193
10.811580000000001 -6.72 -0.64 11.0193
22.97934 3.62 -0.66 31.2989
22.97934 3.6 -0.66 31.2989
14.386740000000001 -4.54 -0.66 16.9779
14.386740000000001 -4.56 -0.66 16.9779
12.3522 -5.34 -0.66 13.587
12.3522 -5.36 -0.66 13.587
12.3522 -5.38 -0.66 13.587
11.61198 -5.94 -0.66 12.3533
10.811580000000001 -6.5 -0.66 11.0193
10.811580000000001 -6.52 -0.66 11.0193
10.811580000000001 -6.7 -0.66 11.0193
10.811580000000001 -6.72 -0.66 11.0193
15.83916 -4.02 -0.68 19.3986
14.386740000000001 -4.56 -0.68 16.9779
13.979940000000001 -4.66 -0.68 16.2999
10.995 -6.5 -0.68 11.325
10.811580000000001 -6.52 -0.68 11.0193
10.811580000000001 -6.7 -0.68 11.0193
10.811580000000001 -6.72 -0.68 11.0193
19.467180000000003 5.04 -0.7 25.4453
14.386740000000001 -4.56 -0.7 16.9779
14.386740000000001 -4.58 -0.7 16.9779
12.933599999999998 -5.2 -0.7 14.556
12.933599999999998 -5.22 -0.7 14.556
12.63288 -5.24 -0.7 14.0548
12.3522 -5.38 -0.7 13.587
10.995 -6.5 -0.7 11.325
10.811580000000001 -6.52 -0.7 11.0193
10.811580000000001 -6.56 -0.7 11.0193
10.811580000000001 -6.7 -0.7 11.0193
10.811580000000001 -6.72 -0.7 11.0193
10.811580000000001 -6.74 -0.7 11.0193
19.467180000000003 5.1 -0.72 25.4453
19.467180000000003 5.02 -0.72 25.4453
14.386740000000001 -4.56 -0.72 16.9779
14.386740000000001 -4.58 -0.72 16.9779
13.979940000000001 -4.7 -0.72 16.2999
13.979940000000001 -4.72 -0.72 16.2999
12.933599999999998 -5.18 -0.72 14.556
12.933599999999998 -5.2 -0.72 14.556
12.933599999999998 -5.22 -0.72 14.556
10.995 -6.5 -0.72 11.325
10.811580000000001 -6.52 -0.72 11.0193
10.995 -6.68 -0.72 11.325
10.811580000000001 -6.7 -0.72 11.0193
10.811580000000001 -6.72 -0.72 11.0193
10.811580000000001 -6.74 -0.72 11.0193
19.467180000000003 5.1 -0.74 25.4453
19.467180000000003 4.7 -0.74 25.4453
16.419959999999996 -4.08 -0.74 20.3666
15.83916 -4.16 -0.74 19.3986
15.83916 -4.18 -0.74 19.3986
15.83916 -4.2 -0.74 19.3986
14.386740000000001 -4.56 -0.74 16.9779
14.386740000000001 -4.58 -0.74 16.9779
12.933599999999998 -5.18 -0.74 14.556
12.933599999999998 -5.2 -0.74 14.556
10.995 -6.5 -0.74 11.325
10.811580000000001 -6.52 -0.74 11.0193
11.18892 -6.64 -0.74 11.6482
11.18892 -6.66 -0.74 11.6482
10.995 -6.68 -0.74 11.325
10.811580000000001 -6.74 -0.74 11.0193
19.467180000000003 5.1 -0.76 25.4453
16.419959999999996 -4.04 -0.76 20.3666
16.419959999999996 -4.06 -0.76 20.3666
15.83916 -4.16 -0.76 19.3986
15.83916 -4.18 -0.76 19.3986
12.933599999999998 -5.18 -0.76 14.556
12.933599999999998 -5.2 -0.76 14.556
10.995 -6.2 -0.76 11.325
10.995 -6.5 -0.76 11.325
10.995 -6.52 -0.76 11.325
10.811580000000001 -6.74 -0.76 11.0193
19.467180000000003 5.1 -0.78 25.4453
19.467180000000003 5.08 -0.78 25.4453
19.467180000000003 4.82 -0.78 25.4453
16.419959999999996 -4.02 -0.78 20.3666
16.419959999999996 -4.04 -0.78 20.3666
15.83916 -4.16 -0.78 19.3986
15.83916 -4.18 -0.78 19.3986
12.933599999999998 -5.18 -0.78 14.556
12.933599999999998 -5.2 -0.78 14.556
10.995 -6.5 -0.78 11.325
10.995 -6.52 -0.78 11.325
16.419959999999996 -4.04 -0.8 20.3666
16.419959999999996 -4.06 -0.8 20.3666
10.995 -6.5 -0.8 11.325
10.995 -6.52 -0.8 11.325
10.811580000000001 -6.74 -0.8 11.0193
10.995 -6.5 -0.82 11.325
10.995 -6.52 -0.82 11.325
11.843340000000001 -6.62 -0.82 12.7389
11.61198 -6.64 -0.82 12.3533
11.61198 -6.66 -0.82 12.3533
11.394240000000002 -6.68 -0.82 11.9904
11.18892 -6.7 -0.82 11.6482
10.995 -6.72 -0.82 11.325
10.995 -6.74 -0.82 11.325
11.61198 -6.66 -0.84 12.3533
11.394240000000002 -6.68 -0.84 11.9904
11.18892 -6.7 -0.84 11.6482
10.995 -6.72 -0.84 11.325
10.995 -6.74 -0.84 11.325
14.386740000000001 -4.66 -0.86 16.9779
14.386740000000001 -4.68 -0.86 16.9779
11.18892 -6.18 -0.86 11.6482
11.18892 -6.2 -0.86 11.6482
11.18892 -6.22 -0.86 11.6482
12.63288 -5.26 -0.88 14.0548
11.18892 -6.16 -0.88 11.6482
11.18892 -6.18 -0.88 11.6482
11.18892 -6.2 -0.88 11.6482
11.394240000000002 -6.14 -0.92 11.9904
11.394240000000002 -6.16 -0.92 11.9904
11.394240000000002 -6.14 -0.94 11.9904
11.394240000000002 -6.12 -0.96 11.9904
11.394240000000002 -6.14 -0.96 11.9904
11.394240000000002 -6.12 -0.98 11.9904
11.394240000000002 -6.14 -0.98 11.9904
12.63288 -5.3 -1.0 14.0548
12.63288 -5.32 -1.0 14.0548
11.394240000000002 -6.12 -1.0 11.9904
12.63288 -5.3 -1.02 14.0548
11.18892 -6.28 -1.04 11.6482
10.995 -6.38 -1.04 11.325
11.18892 -6.26 -1.06 11.6482
10.995 -6.36 -1.06 11.325
10.995 -6.38 -1.06 11.325
10.995 -6.4 -1.06 11.325
10.995 -6.34 -1.08 11.325
10.995 -6.36 -1.08 11.325
10.995 -6.38 -1.08 11.325
10.995 -6.4 -1.08 11.325
13.979940000000001 -2.42 -1.1 16.2999
13.979940000000001 -2.44 -1.1 16.2999
12.3522 -5.44 -1.1 13.587
12.63288 -5.46 -1.1 14.0548
10.995 -6.36 -1.1 11.325
10.995 -6.38 -1.1 11.325
10.995 -6.4 -1.1 11.325
12.3522 -5.42 -1.12 13.587
12.3522 -5.44 -1.12 13.587
12.63288 -5.46 -1.12 14.0548
10.995 -6.38 -1.12 11.325
10.995 -6.4 -1.12 11.325
12.933599999999998 -5.24 -1.14 14.556
12.933599999999998 -5.26 -1.14 14.556
12.3522 -5.42 -1.14 13.587
12.3522 -5.44 -1.14 13.587
12.63288 -5.5 -1.14 14.0548
12.933599999999998 -5.52 -1.14 14.556
12.63288 -5.54 -1.14 14.0548
12.3522 -5.56 -1.14 13.587
12.3522 -5.58 -1.14 13.587
12.08952 -5.6 -1.14 13.1492
10.995 -6.36 -1.14 11.325
10.995 -6.38 -1.14 11.325
10.995 -6.4 -1.14 11.325
12.3522 2.22 -1.16 13.587
12.933599999999998 -5.22 -1.16 14.556
12.933599999999998 -5.24 -1.16 14.556
12.933599999999998 -5.26 -1.16 14.556
11.18892 -6.18 -1.16 11.6482
12.3522 2.22 -1.18 13.587
12.933599999999998 -5.24 -1.18 14.556
12.933599999999998 -5.26 -1.18 14.556
11.18892 -6.18 -1.18 11.6482
10.995 -6.38 -1.18 11.325
10.995 -6.4 -1.18 11.325
12.3522 2.28 -1.2 13.587
13.25658 -4.14 -1.2 15.0943
13.25658 -4.16 -1.2 15.0943
13.25658 -4.18 -1.2 15.0943
11.18892 -6.18 -1.2 11.6482
11.18892 -6.34 -1.2 11.6482
10.995 -6.36 -1.2 11.325
10.995 -6.38 -1.2 11.325
10.995 -6.4 -1.2 11.325
10.811580000000001 -6.42 -1.2 11.0193
11.18892 -6.18 -1.22 11.6482
11.18892 -6.18 -1.24 11.6482
11.18892 -6.16 -1.26 11.6482
11.18892 -6.18 -1.26 11.6482
11.18892 -6.2 -1.26 11.6482
10.995 -6.38 -1.26 11.325
10.995 -6.4 -1.26 11.325
12.3522 1.28 -1.28 13.587
11.18892 -6.16 -1.28 11.6482
11.18892 -6.18 -1.28 11.6482
11.18892 -6.3 -1.28 11.6482
11.18892 -6.32 -1.28 11.6482
11.18892 -6.34 -1.28 11.6482
12.08952 1.64 -1.3 13.1492
11.18892 -6.2 -1.3 11.6482
11.18892 -6.3 -1.3 11.6482
11.18892 -6.32 -1.3 11.6482
11.843340000000001 2.1 -1.32 12.7389
11.18892 -6.2 -1.32 11.6482
11.18892 -6.22 -1.32 11.6482
12.3522 -3.98 -1.36 13.587
12.3522 -4.0 -1.36 13.587
12.08952 -4.02 -1.36 13.1492
12.08952 -4.04 -1.36 13.1492
12.08952 -4.06 -1.36 13.1492
12.08952 -4.08 -1.36 13.1492
11.843340000000001 -4.1 -1.36 12.7389
11.394240000000002 -6.28 -1.38 11.9904
11.18892 -6.3 -1.38 11.6482
11.18892 -6.32 -1.38 11.6482
10.995 -6.34 -1.38 11.325
10.995 -6.36 -1.38 11.325
11.394240000000002 1.62 -1.4 11.9904
11.18892 -6.32 -1.4 11.6482
10.995 -6.34 -1.4 11.325
10.995 -6.36 -1.4 11.325
10.811580000000001 -6.4 -1.4 11.0193
11.61198 2.42 -1.42 12.3533
11.394240000000002 1.68 -1.42 11.9904
11.394240000000002 1.54 -1.42 11.9904
11.394240000000002 1.52 -1.42 11.9904
11.394240000000002 1.12 -1.42 11.9904
11.61198 2.42 -1.44 12.3533
11.394240000000002 1.68 -1.44 11.9904
11.394240000000002 1.66 -1.44 11.9904
11.394240000000002 1.52 -1.44 11.9904
11.394240000000002 1.5 -1.44 11.9904
11.394240000000002 -6.2 -1.44 11.9904
11.394240000000002 -6.22 -1.44 11.9904
10.995 2.72 -1.48 11.325
10.995 1.32 -1.48 11.325
10.995 1.3 -1.48 11.325
10.995 1.3 -1.5 11.325
10.995 2.44 -1.54 11.325
11.843340000000001 -5.46 -1.54 12.7389
10.995 -5.54 -1.54 11.325
10.811580000000001 -5.56 -1.54 11.0193
10.811580000000001 -5.58 -1.54 11.0193
10.811580000000001 3.26 -1.56 11.0193
10.811580000000001 2.52 -1.56 11.0193
10.995 -5.5 -1.56 11.325
10.995 -5.52 -1.56 11.325
10.995 -5.54 -1.56 11.325
10.811580000000001 -5.56 -1.56 11.0193
10.811580000000001 -5.58 -1.56 11.0193
10.811580000000001 3.26 -1.58 11.0193
10.637759999999998 3.0 -1.6 10.7296
10.811580000000001 2.46 -1.6 11.0193
10.637759999999998 2.2 -1.6 10.7296
10.637759999999998 3.04 -1.62 10.7296
10.316220000000001 1.42 -1.62 10.1937
10.316220000000001 1.4 -1.64 10.1937
10.316220000000001 1.38 -1.64 10.1937
11.394240000000002 -6.04 -1.64 11.9904
11.394240000000002 -6.06 -1.64 11.9904
11.394240000000002 -6.08 -1.64 11.9904
11.18892 -6.1 -1.64 11.6482
10.472879999999998 -6.18 -1.64 10.4548
10.316220000000001 1.48 -1.66 10.1937
10.316220000000001 1.46 -1.66 10.1937
10.472879999999998 -6.18 -1.66 10.4548
10.472879999999998 -6.2 -1.66 10.4548
10.472879999999998 -6.22 -1.66 10.4548
10.316220000000001 2.66 -1.68 10.1937
10.316220000000001 1.48 -1.68 10.1937
10.316220000000001 1.46 -1.68 10.1937
10.316220000000001 1.44 -1.68 10.1937
10.316220000000001 2.66 -1.7 10.1937
10.16718 3.04 -1.72 9.9453
10.16718 1.88 -1.72 9.9453
10.16718 1.86 -1.72 9.9453
10.025244 2.54 -1.76 9.70874
10.025244 2.52 -1.76 9.70874
10.025244 2.52 -1.78 9.70874
10.637759999999998 -3.16 -1.78 10.7296
10.637759999999998 -3.18 -1.78 10.7296
10.637759999999998 -3.2 -1.78 10.7296
10.472879999999998 -3.22 -1.78 10.4548
10.472879999999998 -3.24 -1.78 10.4548
10.316220000000001 -3.26 -1.78 10.1937
10.16718 -3.28 -1.78 9.9453
10.025244 -3.3 -1.78 9.70874
10.025244 -3.32 -1.78 9.70874
9.889902000000001 -3.34 -1.78 9.48317
9.889902000000001 4.02 -1.8 9.48317
9.889902000000001 1.66 -1.8 9.48317
10.637759999999998 -3.18 -1.8 10.7296
10.637759999999998 -3.2 -1.8 10.7296
10.472879999999998 -3.22 -1.8 10.4548
10.472879999999998 -3.24 -1.8 10.4548
10.316220000000001 -3.26 -1.8 10.1937
10.16718 -3.28 -1.8 9.9453
10.025244 -3.3 -1.8 9.70874
10.025244 -3.32 -1.8 9.70874
9.889902000000001 -3.34 -1.8 9.48317
9.889902000000001 3.4 -1.82 9.48317
9.889902000000001 3.04 -1.82 9.48317
10.025244 2.48 -1.82 9.70874
9.889902000000001 3.4 -1.84 9.48317
9.889902000000001 2.92 -1.84 9.48317
9.889902000000001 2.9 -1.84 9.48317
9.760704 2.98 -1.86 9.26784
9.760704 2.96 -1.86 9.26784
9.637241999999999 3.56 -1.9 9.06207
9.51915 3.64 -1.94 8.86525
9.406074 4.02 -1.96 8.67679
9.297708 2.24 -1.96 8.49618
9.406074 4.0 -1.98 8.67679
9.406074 3.98 -1.98 8.67679
9.406074 3.96 -1.98 8.67679
9.406074 3.22 -1.98 8.67679
9.193757999999999 2.02 -1.98 8.32293
9.297708 3.56 -2.0 8.49618
9.193757999999999 2.06 -2.0 8.32293
9.193757999999999 4.78 -2.02 8.32293
9.193757999999999 4.76 -2.02 8.32293
9.193757999999999 3.7 -2.02 8.32293
9.193757999999999 3.62 -2.02 8.32293
9.193757999999999 2.06 -2.02 8.32293
9.193757999999999 2.04 -2.02 8.32293
9.193757999999999 4.78 -2.04 8.32293
9.193757999999999 4.76 -2.04 8.32293
9.193757999999999 4.74 -2.04 8.32293
9.193757999999999 3.7 -2.04 8.32293
9.193757999999999 3.68 -2.04 8.32293
9.193757999999999 3.66 -2.04 8.32293
8.99808 3.36 -2.04 7.9968
9.193757999999999 4.8 -2.06 8.32293
8.99808 3.4 -2.06 7.9968
8.99808 3.36 -2.06 7.9968
9.193757999999999 4.8 -2.08 8.32293
9.093966 4.06 -2.08 8.15661
8.99808 4.54 -2.1 7.9968
8.99808 4.14 -2.1 7.9968
9.093966 4.06 -2.1 8.15661
8.99808 1.92 -2.1 7.9968
9.093966 1.9 -2.1 8.15661
8.99808 4.14 -2.12 7.9968
8.99808 4.12 -2.12 7.9968
9.193757999999999 2.04 -2.12 8.32293
8.99808 1.9 -2.12 7.9968
9.093966 1.88 -2.12 8.15661
8.99808 4.64 -2.14 7.9968
8.99808 2.0 -2.14 7.9968
8.99808 1.98 -2.14 7.9968
8.99808 1.96 -2.14 7.9968
8.905884 5.2 -2.16 7.84314
8.905884 5.18 -2.16 7.84314
8.817162000000001 3.92 -2.16 7.69527
8.817162000000001 3.9 -2.16 7.69527
8.99808 1.98 -2.16 7.9968
8.99808 1.96 -2.16 7.9968
8.99808 1.94 -2.16 7.9968
8.905884 4.98 -2.18 7.84314
8.817162000000001 3.9 -2.18 7.69527
8.905884 4.9 -2.2 7.84314
8.64939 2.28 -2.2 7.41565
8.817162000000001 5.68 -2.22 7.69527
8.731722000000001 5.5 -2.22 7.55287
8.905884 4.96 -2.22 7.84314
8.64939 2.86 -2.22 7.41565
8.64939 5.82 -2.24 7.41565
8.817162000000001 5.14 -2.24 7.69527
8.817162000000001 4.96 -2.24 7.69527
8.905884 4.94 -2.24 7.84314
8.817162000000001 5.68 -2.26 7.69527
8.731722000000001 5.32 -2.26 7.55287
8.64939 3.06 -2.26 7.41565
8.569992 2.94 -2.26 7.28332
8.347944 3.54 -2.28 6.91324
8.493384 3.38 -2.28 7.15564
8.493384 3.36 -2.28 7.15564
8.569992 2.94 -2.28 7.28332
8.347944 3.54 -2.3 6.91324
8.493384 3.36 -2.3 7.15564
8.27886 4.84 -2.34 6.7981
8.419410000000001 4.82 -2.34 7.03235
8.419410000000001 4.8 -2.34 7.03235
8.493384 3.98 -2.34 7.15564
8.493384 3.96 -2.34 7.15564
8.419410000000001 5.52 -2.36 7.03235
8.419410000000001 5.5 -2.36 7.03235
8.493384 4.9 -2.36 7.15564
8.27886 4.84 -2.36 6.7981
8.419410000000001 4.82 -2.36 7.03235
8.419410000000001 4.78 -2.36 7.03235
8.347944 3.62 -2.36 6.91324
8.27886 3.54 -2.38 6.7981
8.27886 2.66 -2.38 6.7981
8.419410000000001 2.32 -2.38 7.03235
8.419410000000001 2.3 -2.38 7.03235
8.419410000000001 2.28 -2.38 7.03235
8.419410000000001 2.26 -2.38 7.03235
8.212038 2.72 -2.4 6.68673
8.347944 2.52 -2.4 6.91324
8.347944 2.4 -2.4 6.91324
8.212038 2.72 -2.42 6.68673
8.212038 2.7 -2.42 6.68673
8.27886 2.6 -2.42 6.7981
8.347944 2.4 -2.42 6.91324
8.347944 2.38 -2.42 6.91324
8.347944 2.36 -2.42 6.91324
8.27886 2.58 -2.44 6.7981
8.147369999999999 3.7 -2.46 6.57895
8.212038 3.5 -2.46 6.68673
8.212038 3.48 -2.46 6.68673
8.147369999999999 2.8 -2.46 6.57895
8.64939 1.62 -2.46 7.41565
8.64939 1.6 -2.46 7.41565
8.212038 5.32 -2.48 6.68673
8.212038 5.28 -2.48 6.68673
8.147369999999999 2.8 -2.48 6.57895
8.569992 1.7 -2.48 7.28332
8.212038 5.28 -2.5 6.68673
8.212038 4.58 -2.5 6.68673
8.147369999999999 3.64 -2.5 6.57895
8.347944 2.0 -2.5 6.91324
8.64939 1.72 -2.5 7.41565
8.569992 1.7 -2.5 7.28332
8.569992 1.68 -2.5 7.28332
8.569992 1.66 -2.5 7.28332
8.569992 1.64 -2.5 7.28332
8.147369999999999 5.4 -2.52 6.57895
8.147369999999999 5.38 -2.52 6.57895
7.965294 4.92 -2.52 6.27549
8.212038 4.58 -2.52 6.68673
8.147369999999999 3.64 -2.52 6.57895
8.147369999999999 3.22 -2.52 6.57895
8.147369999999999 3.2 -2.52 6.57895
8.212038 2.42 -2.52 6.68673
8.212038 2.4 -2.52 6.68673
8.347944 1.98 -2.52 6.91324
8.569992 1.64 -2.52 7.28332
8.569992 1.62 -2.52 7.28332
8.147369999999999 5.38 -2.54 6.57895
7.965294 4.96 -2.54 6.27549
7.965294 4.92 -2.54 6.27549
7.965294 4.9 -2.54 6.27549
8.147369999999999 3.2 -2.54 6.57895
8.147369999999999 3.18 -2.54 6.57895
8.084754 3.16 -2.54 6.47459
8.084754 2.7 -2.54 6.47459
8.569992 -4.32 -2.54 7.28332
7.908282 5.0 -2.56 6.18047
7.908282 4.98 -2.56 6.18047
7.965294 4.9 -2.56 6.27549
7.965294 4.88 -2.56 6.27549
8.084754 3.16 -2.56 6.47459
8.347944 -4.22 -2.56 6.91324
8.347944 -4.24 -2.56 6.91324
8.347944 -4.26 -2.56 6.91324
8.347944 -4.36 -2.56 6.91324
8.347944 -4.38 -2.56 6.91324
8.27886 -4.4 -2.56 6.7981
8.27886 -4.42 -2.56 6.7981
8.27886 -4.44 -2.56 6.7981
8.084754 5.3 -2.58 6.47459
7.965294 4.98 -2.58 6.27549
7.965294 4.88 -2.58 6.27549
7.965294 4.86 -2.58 6.27549
8.084754 2.76 -2.58 6.47459
8.024094 5.46 -2.6 6.37349
7.908282 4.98 -2.6 6.18047
7.965294 4.3 -2.6 6.27549
7.965294 4.28 -2.6 6.27549
8.024094 2.58 -2.6 6.37349
8.27886 1.92 -2.6 6.7981
7.965294 4.98 -2.62 6.27549
7.908282 4.86 -2.62 6.18047
7.908282 4.84 -2.62 6.18047
7.965294 4.32 -2.62 6.27549
7.965294 4.3 -2.62 6.27549
7.965294 4.28 -2.62 6.27549
8.024094 2.64 -2.62 6.37349
8.27886 1.92 -2.62 6.7981
8.024094 5.2 -2.64 6.37349
8.024094 5.18 -2.64 6.37349
8.024094 5.16 -2.64 6.37349
7.8529680000000015 4.86 -2.64 6.08828
7.8529680000000015 4.84 -2.64 6.08828
7.908282 3.92 -2.64 6.18047
7.908282 3.28 -2.64 6.18047
8.024094 2.64 -2.64 6.37349
8.024094 2.62 -2.64 6.37349
8.024094 2.6 -2.64 6.37349
8.024094 5.18 -2.66 6.37349
7.908282 3.98 -2.66 6.18047
7.908282 3.96 -2.66 6.18047
7.908282 3.94 -2.66 6.18047
7.908282 3.9 -2.66 6.18047
7.908282 3.88 -2.66 6.18047
7.908282 3.84 -2.66 6.18047
7.908282 3.28 -2.66 6.18047
7.908282 3.26 -2.66 6.18047
7.8529680000000015 5.52 -2.68 6.08828
7.7992799999999995 5.32 -2.68 5.9988
7.8529680000000015 4.96 -2.68 6.08828
7.908282 3.96 -2.68 6.18047
7.908282 3.36 -2.68 6.18047
7.908282 3.34 -2.68 6.18047
8.024094 2.54 -2.68 6.37349
8.024094 2.36 -2.68 6.37349
7.747145999999999 4.9 -2.7 5.91191
7.747145999999999 4.88 -2.7 5.91191
7.696506 4.86 -2.7 5.82751
7.908282 3.34 -2.7 6.18047
7.908282 3.32 -2.7 6.18047
7.908282 3.26 -2.7 6.18047
7.747145999999999 4.88 -2.72 5.91191
7.696506 4.86 -2.72 5.82751
7.696506 4.84 -2.72 5.82751
7.7992799999999995 3.16 -2.72 5.9988
8.024094 2.58 -2.72 6.37349
7.696506 4.82 -2.74 5.82751
7.696506 4.8 -2.74 5.82751
7.696506 4.78 -2.74 5.82751
7.8529680000000015 3.92 -2.74 6.08828
7.8529680000000015 3.9 -2.74 6.08828
7.747145999999999 3.64 -2.74 5.91191
7.747145999999999 3.62 -2.74 5.91191
7.908282 2.68 -2.74 6.18047
7.747145999999999 4.6 -2.76 5.91191
7.908282 2.68 -2.76 6.18047
7.747145999999999 3.66 -2.78 5.91191
7.8529680000000015 2.58 -2.78 6.08828
7.747145999999999 4.58 -2.8 5.91191
7.6472880000000005 3.64 -2.8 5.74548
7.7992799999999995 2.82 -2.8 5.9988
7.8529680000000015 2.56 -2.8 6.08828
7.6472880000000005 4.88 -2.82 5.74548
7.696506 4.26 -2.82 5.82751
7.696506 4.04 -2.82 5.82751
7.6472880000000005 3.62 -2.82 5.74548
7.696506 3.46 -2.82 5.82751
7.7992799999999995 2.82 -2.82 5.9988
7.7992799999999995 2.8 -2.82 5.9988
7.7992799999999995 2.64 -2.82 5.9988
7.6472880000000005 4.96 -2.84 5.74548
7.6472880000000005 4.88 -2.84 5.74548
7.6472880000000005 3.84 -2.84 5.74548
7.6472880000000005 3.82 -2.84 5.74548
7.6472880000000005 3.12 -2.84 5.74548
7.7992799999999995 2.62 -2.84 5.9988
7.6472880000000005 4.96 -2.86 5.74548
7.6472880000000005 4.94 -2.86 5.74548
7.6472880000000005 4.32 -2.86 5.74548
7.6472880000000005 3.82 -2.86 5.74548
7.696506 2.86 -2.86 5.82751
7.7992799999999995 2.84 -2.86 5.9988
8.024094 1.14 -2.86 6.37349
7.6472880000000005 4.94 -2.88 5.74548
7.6472880000000005 3.3 -2.88 5.74548
7.6472880000000005 3.12 -2.88 5.74548
7.6472880000000005 3.1 -2.88 5.74548
7.747145999999999 2.38 -2.88 5.91191
7.507607999999999 4.74 -2.9 5.51268
7.507607999999999 3.5 -2.9 5.51268
7.507607999999999 4.74 -2.92 5.51268
7.552889999999999 4.58 -2.92 5.58815
7.696506 4.54 -2.92 5.82751
7.552889999999999 5.36 -2.96 5.58815
7.552889999999999 4.62 -2.96 5.58815
7.552889999999999 4.6 -2.96 5.58815
7.378806 3.84 -2.96 5.29801
7.463532 3.64 -2.96 5.43922
7.599432 3.28 -2.96 5.66572
7.599432 3.24 -2.96 5.66572
7.599432 3.22 -2.96 5.66572
7.378806 3.9 -2.98 5.29801
7.378806 3.82 -2.98 5.29801
7.463532 3.66 -2.98 5.43922
7.463532 3.64 -2.98 5.43922
7.420614 4.56 -3.0 5.36769
7.420614 4.54 -3.0 5.36769
7.378806 3.9 -3.0 5.29801
7.378806 3.88 -3.0 5.29801
7.463532 3.64 -3.0 5.43922
7.463532 3.62 -3.0 5.43922
7.507607999999999 3.16 -3.0 5.51268
7.552889999999999 2.8 -3.0 5.58815
7.7992799999999995 2.32 -3.0 5.9988
7.8529680000000015 1.52 -3.0 6.08828
7.378806 3.9 -3.02 5.29801
7.378806 3.88 -3.02 5.29801
7.378806 3.86 -3.02 5.29801
7.463532 3.66 -3.02 5.43922
7.463532 3.64 -3.02 5.43922
7.463532 3.6 -3.02 5.43922
7.463532 3.58 -3.02 5.43922
7.463532 3.56 -3.02 5.43922
