VERSION .7
FIELDS x y z rgb
SIZE 4 4 4 4
TYPE F F F F
COUNT 1 1 1 1
WIDTH 1149
HEIGHT 1
VIEWPOINT 0 0 0 1 0 0 0
POINTS 1149
DATA ascii
9.889902000000001 -4.68 -1.68 5000009.48317
9.889902000000001 -4.7 -1.68 5000009.48317
9.760704 -4.72 -1.68 5000009.26784
9.760704 -4.74 -1.68 5000009.26784
9.637241999999999 -4.76 -1.68 5000009.06207
10.316220000000001 1.9 -1.7 5000010.1937
10.16718 2.06 -1.72 5000009.9453
10.16718 1.88 -1.72 5000009.9453
10.316220000000001 -5.3 -1.72 5000010.1937
10.316220000000001 -5.32 -1.72 5000010.1937
10.316220000000001 -5.34 -1.72 5000010.1937
10.316220000000001 3.0 -1.74 5000010.1937
10.16718 2.14 -1.74 5000009.9453
10.16718 2.12 -1.74 5000009.9453
10.16718 1.96 -1.74 5000009.9453
10.316220000000001 1.94 -1.74 5000010.1937
10.316220000000001 1.48 -1.74 5000010.1937
10.316220000000001 1.46 -1.74 5000010.1937
10.316220000000001 3.0 -1.76 5000010.1937
10.316220000000001 2.74 -1.76 5000010.1937
10.16718 2.12 -1.76 5000009.9453
10.16718 2.1 -1.76 5000009.9453
10.16718 1.94 -1.76 5000009.9453
10.16718 1.92 -1.76 5000009.9453
9.889902000000001 -5.52 -1.76 5000009.48317
9.889902000000001 -5.54 -1.76 5000009.48317
10.16718 2.12 -1.78 5000009.9453
10.16718 2.1 -1.78 5000009.9453
10.16718 2.08 -1.78 5000009.9453
10.16718 1.92 -1.78 5000009.9453
10.472879999999998 -5.64 -1.78 5000010.4548
10.316220000000001 -5.68 -1.78 5000010.1937
10.316220000000001 -5.7 -1.78 5000010.1937
10.472879999999998 3.72 -1.8 5000010.4548
10.316220000000001 -5.72 -1.8 5000010.1937
10.025244 -5.74 -1.8 5000009.70874
10.16718 -6.0 -1.8 5000009.9453
9.760704 3.4 -1.82 5000009.26784
10.025244 2.72 -1.82 5000009.70874
9.889902000000001 1.72 -1.82 5000009.48317
9.760704 3.38 -1.84 5000009.26784
9.889902000000001 1.72 -1.84 5000009.48317
9.889902000000001 1.7 -1.84 5000009.48317
10.16718 -6.0 -1.84 5000009.9453
10.16718 -6.02 -1.84 5000009.9453
10.025244 -6.04 -1.84 5000009.70874
10.025244 -6.06 -1.84 5000009.70874
9.889902000000001 -6.08 -1.84 5000009.48317
9.760704 3.38 -1.86 5000009.26784
9.889902000000001 1.7 -1.86 5000009.48317
9.889902000000001 1.68 -1.86 5000009.48317
10.025244 -5.1 -1.86 5000009.70874
9.889902000000001 -5.16 -1.86 5000009.48317
10.025244 -6.06 -1.86 5000009.70874
9.889902000000001 -6.08 -1.86 5000009.48317
9.889902000000001 3.0 -1.88 5000009.48317
9.760704 1.68 -1.88 5000009.26784
9.889902000000001 -5.12 -1.88 5000009.48317
9.889902000000001 -5.14 -1.88 5000009.48317
9.889902000000001 -5.16 -1.88 5000009.48317
9.760704 3.06 -1.9 5000009.26784
9.760704 2.9 -1.9 5000009.26784
9.637241999999999 -6.26 -1.9 5000009.06207
9.637241999999999 3.2 -1.92 5000009.06207
10.316220000000001 -6.4 -1.92 5000010.1937
10.16718 -6.42 -1.92 5000009.9453
9.760704 -6.5 -1.92 5000009.26784
9.637241999999999 -6.54 -1.92 5000009.06207
9.637241999999999 -6.56 -1.92 5000009.06207
9.637241999999999 -6.58 -1.92 5000009.06207
9.51915 4.12 -1.94 5000008.86525
9.51915 4.1 -1.94 5000008.86525
9.637241999999999 3.2 -1.94 5000009.06207
9.406074 2.08 -1.94 5000008.67679
9.637241999999999 1.96 -1.94 5000009.06207
9.889902000000001 -6.46 -1.94 5000009.48317
9.760704 -6.48 -1.94 5000009.26784
9.760704 -6.5 -1.94 5000009.26784
9.760704 -6.52 -1.94 5000009.26784
9.637241999999999 -6.54 -1.94 5000009.06207
9.637241999999999 -6.56 -1.94 5000009.06207
9.637241999999999 -6.58 -1.94 5000009.06207
9.51915 -6.6 -1.94 5000008.86525
9.193757999999999 -6.64 -1.94 5000008.32293
9.093966 -6.66 -1.94 5000008.15661
9.51915 4.1 -1.96 5000008.86525
9.51915 4.08 -1.96 5000008.86525
9.406074 3.06 -1.96 5000008.67679
9.51915 2.72 -1.96 5000008.86525
9.637241999999999 1.96 -1.96 5000009.06207
9.093966 -6.66 -1.96 5000008.15661
9.51915 3.8 -1.98 5000008.86525
9.297708 3.14 -1.98 5000008.49618
9.51915 2.82 -1.98 5000008.86525
9.406074 3.86 -2.0 5000008.67679
9.297708 3.14 -2.0 5000008.49618
9.297708 3.12 -2.0 5000008.49618
9.51915 2.9 -2.0 5000008.86525
9.51915 2.82 -2.0 5000008.86525
9.406074 3.84 -2.02 5000008.67679
9.093966 1.88 -2.06 5000008.15661
9.093966 1.86 -2.06 5000008.15661
9.297708 3.06 -2.08 5000008.49618
9.093966 2.12 -2.08 5000008.15661
9.093966 1.96 -2.08 5000008.15661
9.093966 1.86 -2.08 5000008.15661
9.193757999999999 4.14 -2.1 5000008.32293
9.093966 1.96 -2.1 5000008.15661
9.093966 1.94 -2.1 5000008.15661
9.193757999999999 4.14 -2.12 5000008.32293
9.193757999999999 3.42 -2.12 5000008.32293
9.193757999999999 3.4 -2.12 5000008.32293
8.99808 2.34 -2.12 5000007.9968
8.99808 2.22 -2.12 5000007.9968
9.093966 1.96 -2.12 5000008.15661
9.093966 1.94 -2.12 5000008.15661
9.093966 1.92 -2.12 5000008.15661
8.99808 1.9 -2.12 5000007.9968
8.905884 1.88 -2.12 5000007.84314
8.905884 2.84 -2.14 5000007.84314
8.99808 3.3 -2.16 5000007.9968
8.905884 2.5 -2.16 5000007.84314
8.905884 2.48 -2.16 5000007.84314
8.99808 4.3 -2.18 5000007.9968
8.905884 3.52 -2.18 5000007.84314
8.905884 2.48 -2.18 5000007.84314
8.905884 2.46 -2.18 5000007.84314
8.817162000000001 1.7 -2.18 5000007.69527
8.99808 4.34 -2.2 5000007.9968
8.905884 3.52 -2.2 5000007.84314
8.905884 3.5 -2.2 5000007.84314
8.905884 3.34 -2.2 5000007.84314
8.905884 2.06 -2.2 5000007.84314
8.905884 3.3 -2.22 5000007.84314
9.889902000000001 -3.68 -2.22 5000009.48317
9.760704 -3.7 -2.22 5000009.26784
8.905884 3.3 -2.24 5000007.84314
8.905884 3.28 -2.24 5000007.84314
8.64939 5.22 -2.26 5000007.41565
8.64939 4.2 -2.26 5000007.41565
9.093966 -3.74 -2.26 5000008.15661
9.093966 -3.76 -2.26 5000008.15661
9.093966 -3.78 -2.26 5000008.15661
9.093966 -3.8 -2.26 5000008.15661
8.99808 -3.82 -2.26 5000007.9968
8.817162000000001 -3.84 -2.26 5000007.69527
8.817162000000001 -3.86 -2.26 5000007.69527
8.64939 -3.92 -2.26 5000007.41565
8.493384 -3.94 -2.26 5000007.15564
8.64939 5.22 -2.28 5000007.41565
8.64939 2.26 -2.28 5000007.41565
9.093966 -3.76 -2.28 5000008.15661
9.093966 -3.78 -2.28 5000008.15661
9.093966 -3.8 -2.28 5000008.15661
8.99808 -3.82 -2.28 5000007.9968
8.817162000000001 -3.84 -2.28 5000007.69527
8.817162000000001 -3.86 -2.28 5000007.69527
8.64939 -3.88 -2.28 5000007.41565
8.64939 -3.9 -2.28 5000007.41565
8.64939 -3.92 -2.28 5000007.41565
8.493384 -3.94 -2.28 5000007.15564
8.419410000000001 -3.96 -2.28 5000007.03235
8.347944 -3.98 -2.28 5000006.91324
8.731722000000001 4.36 -2.3 5000007.55287
8.817162000000001 3.96 -2.3 5000007.69527
8.64939 3.3 -2.3 5000007.41565
8.569992 3.12 -2.3 5000007.28332
8.64939 2.26 -2.3 5000007.41565
8.64939 2.24 -2.3 5000007.41565
8.64939 -3.92 -2.3 5000007.41565
8.493384 -3.94 -2.3 5000007.15564
8.419410000000001 -3.96 -2.3 5000007.03235
8.347944 -3.98 -2.3 5000006.91324
8.212038 -4.0 -2.3 5000006.68673
8.212038 -4.02 -2.3 5000006.68673
8.731722000000001 4.44 -2.32 5000007.55287
8.731722000000001 4.42 -2.32 5000007.55287
8.731722000000001 4.36 -2.32 5000007.55287
8.817162000000001 3.96 -2.32 5000007.69527
8.64939 3.3 -2.32 5000007.41565
8.64939 2.24 -2.32 5000007.41565
8.64939 2.22 -2.32 5000007.41565
8.147369999999999 -4.04 -2.32 5000006.57895
8.024094 -4.06 -2.32 5000006.37349
8.731722000000001 4.44 -2.34 5000007.55287
8.731722000000001 4.42 -2.34 5000007.55287
8.64939 5.48 -2.38 5000007.41565
8.569992 4.14 -2.38 5000007.28332
8.569992 3.92 -2.38 5000007.28332
8.569992 3.9 -2.38 5000007.28332
8.569992 3.88 -2.38 5000007.28332
8.493384 2.64 -2.38 5000007.15564
8.64939 5.48 -2.4 5000007.41565
8.64939 5.46 -2.4 5000007.41565
8.569992 4.14 -2.4 5000007.28332
8.493384 2.64 -2.4 5000007.15564
8.493384 2.62 -2.4 5000007.15564
8.64939 5.46 -2.42 5000007.41565
8.419410000000001 3.14 -2.44 5000007.03235
8.419410000000001 2.22 -2.44 5000007.03235
8.347944 4.08 -2.46 5000006.91324
8.347944 3.94 -2.46 5000006.91324
8.419410000000001 3.14 -2.46 5000007.03235
8.212038 4.72 -2.48 5000006.68673
8.27886 4.9 -2.5 5000006.7981
8.212038 4.84 -2.5 5000006.68673
8.27886 4.82 -2.5 5000006.7981
8.212038 5.38 -2.52 5000006.68673
8.212038 5.36 -2.52 5000006.68673
8.27886 4.9 -2.52 5000006.7981
8.212038 4.82 -2.52 5000006.68673
8.347944 4.12 -2.52 5000006.91324
8.27886 3.2 -2.52 5000006.7981
8.212038 5.38 -2.54 5000006.68673
8.212038 5.36 -2.54 5000006.68673
8.147369999999999 5.34 -2.54 5000006.57895
8.212038 5.26 -2.54 5000006.68673
8.27886 4.88 -2.54 5000006.7981
8.212038 4.8 -2.54 5000006.68673
8.212038 4.42 -2.54 5000006.68673
8.347944 4.12 -2.54 5000006.91324
8.147369999999999 5.44 -2.56 5000006.57895
8.147369999999999 5.34 -2.56 5000006.57895
8.147369999999999 5.32 -2.56 5000006.57895
8.147369999999999 5.3 -2.56 5000006.57895
8.212038 5.26 -2.56 5000006.68673
8.27886 5.24 -2.56 5000006.7981
8.212038 4.86 -2.56 5000006.68673
8.212038 4.84 -2.56 5000006.68673
8.084754 4.32 -2.56 5000006.47459
8.147369999999999 5.42 -2.58 5000006.57895
8.147369999999999 5.3 -2.58 5000006.57895
8.147369999999999 5.28 -2.58 5000006.57895
7.965294 3.14 -2.58 5000006.27549
7.965294 3.08 -2.58 5000006.27549
8.147369999999999 5.42 -2.62 5000006.57895
8.084754 4.88 -2.62 5000006.47459
7.965294 3.2 -2.62 5000006.27549
8.024094 2.88 -2.62 5000006.37349
7.965294 2.86 -2.62 5000006.27549
8.084754 2.02 -2.62 5000006.47459
8.147369999999999 5.42 -2.64 5000006.57895
8.084754 4.98 -2.64 5000006.47459
8.024094 4.96 -2.64 5000006.37349
8.024094 4.88 -2.64 5000006.37349
7.965294 2.86 -2.64 5000006.27549
7.965294 2.84 -2.64 5000006.27549
8.147369999999999 5.34 -2.66 5000006.57895
8.024094 4.96 -2.66 5000006.37349
8.024094 4.94 -2.66 5000006.37349
7.8529680000000015 4.5 -2.66 5000006.08828
7.8529680000000015 4.48 -2.66 5000006.08828
7.965294 3.08 -2.66 5000006.27549
7.965294 3.0 -2.66 5000006.27549
7.965294 2.86 -2.66 5000006.27549
7.965294 2.84 -2.66 5000006.27549
7.965294 2.82 -2.66 5000006.27549
8.084754 2.0 -2.66 5000006.47459
8.084754 1.98 -2.66 5000006.47459
8.024094 5.64 -2.68 5000006.37349
8.024094 4.92 -2.68 5000006.37349
7.8529680000000015 4.5 -2.68 5000006.08828
7.908282 4.44 -2.68 5000006.18047
7.965294 3.08 -2.68 5000006.27549
8.084754 2.22 -2.68 5000006.47459
8.084754 2.2 -2.68 5000006.47459
8.084754 1.96 -2.68 5000006.47459
7.965294 5.08 -2.7 5000006.27549
7.908282 4.44 -2.7 5000006.18047
7.908282 4.72 -2.72 5000006.18047
7.8529680000000015 4.68 -2.72 5000006.08828
7.7992799999999995 4.6 -2.72 5000005.9988
7.8529680000000015 4.44 -2.72 5000006.08828
7.7992799999999995 5.54 -2.74 5000005.9988
7.8529680000000015 4.68 -2.74 5000006.08828
7.8529680000000015 4.66 -2.74 5000006.08828
7.507607999999999 4.54 -2.74 5000005.51268
7.7992799999999995 5.64 -2.76 5000005.9988
7.7992799999999995 5.54 -2.76 5000005.9988
7.8529680000000015 4.64 -2.76 5000006.08828
7.908282 2.72 -2.76 5000006.18047
7.908282 2.7 -2.76 5000006.18047
7.7992799999999995 5.64 -2.78 5000005.9988
7.7992799999999995 5.62 -2.78 5000005.9988
7.7992799999999995 5.52 -2.78 5000005.9988
7.908282 2.72 -2.78 5000006.18047
7.908282 2.7 -2.78 5000006.18047
7.7992799999999995 5.64 -2.8 5000005.9988
7.7992799999999995 5.62 -2.8 5000005.9988
7.7992799999999995 2.88 -2.8 5000005.9988
7.908282 2.7 -2.8 5000006.18047
7.908282 2.68 -2.8 5000006.18047
7.747145999999999 5.68 -2.82 5000005.91191
7.7992799999999995 2.86 -2.82 5000005.9988
7.7992799999999995 2.84 -2.82 5000005.9988
7.908282 2.14 -2.82 5000006.18047
7.696506 3.02 -2.84 5000005.82751
7.7992799999999995 2.84 -2.84 5000005.9988
7.7992799999999995 2.82 -2.84 5000005.9988
7.747145999999999 2.8 -2.84 5000005.91191
7.696506 2.78 -2.84 5000005.82751
7.696506 2.76 -2.84 5000005.82751
7.599432 4.3 -2.86 5000005.66572
7.599432 3.32 -2.86 5000005.66572
7.696506 3.02 -2.86 5000005.82751
7.696506 3.0 -2.86 5000005.82751
7.747145999999999 2.8 -2.86 5000005.91191
7.696506 2.78 -2.86 5000005.82751
7.696506 2.76 -2.86 5000005.82751
7.696506 2.74 -2.86 5000005.82751
7.6472880000000005 5.42 -2.88 5000005.74548
7.599432 4.3 -2.88 5000005.66572
7.599432 4.28 -2.88 5000005.66572
7.599432 3.32 -2.88 5000005.66572
7.6472880000000005 2.72 -2.88 5000005.74548
7.6472880000000005 2.7 -2.88 5000005.74548
7.552889999999999 4.24 -2.9 5000005.58815
7.599432 3.16 -2.92 5000005.66572
7.463532 4.58 -2.94 5000005.43922
7.463532 4.56 -2.94 5000005.43922
7.599432 3.16 -2.94 5000005.66572
7.599432 3.14 -2.94 5000005.66572
7.463532 4.56 -2.96 5000005.43922
7.463532 3.32 -2.96 5000005.43922
7.599432 3.14 -2.96 5000005.66572
7.6472880000000005 2.86 -2.96 5000005.74548
7.463532 3.3 -2.98 5000005.43922
7.6472880000000005 2.84 -2.98 5000005.74548
7.463532 4.3 -3.0 5000005.43922
7.463532 3.36 -3.0 5000005.43922
7.507607999999999 4.22 -3.02 5000005.51268
7.463532 3.34 -3.02 5000005.43922
7.378806 4.86 -3.04 5000005.29801
7.507607999999999 4.22 -3.04 5000005.51268
7.507607999999999 4.2 -3.04 5000005.51268
7.338077999999999 4.86 -3.06 5000005.23013
7.338077999999999 4.84 -3.06 5000005.23013
7.507607999999999 4.2 -3.06 5000005.51268
7.463532 3.1 -3.06 5000005.43922
7.599432 2.42 -3.06 5000005.66572
7.463532 5.86 -3.08 5000005.43922
7.338077999999999 4.84 -3.08 5000005.23013
7.338077999999999 4.82 -3.08 5000005.23013
7.338077999999999 4.38 -3.08 5000005.23013
7.338077999999999 4.36 -3.08 5000005.23013
7.338077999999999 4.34 -3.08 5000005.23013
7.463532 4.2 -3.08 5000005.43922
7.463532 3.08 -3.08 5000005.43922
7.338077999999999 4.84 -3.1 5000005.23013
7.338077999999999 4.82 -3.1 5000005.23013
7.338077999999999 4.36 -3.1 5000005.23013
7.338077999999999 4.34 -3.1 5000005.23013
7.298376 4.3 -3.1 5000005.16396
7.338077999999999 4.84 -3.12 5000005.23013
7.338077999999999 4.82 -3.12 5000005.23013
7.298376 4.3 -3.12 5000005.16396
7.463532 4.24 -3.12 5000005.43922
7.259664000000001 3.48 -3.12 5000005.09944
7.298376 4.84 -3.14 5000005.16396
7.298376 4.82 -3.14 5000005.16396
7.221906000000001 3.46 -3.14 5000005.03651
7.221906000000001 3.44 -3.14 5000005.03651
7.378806 3.16 -3.14 5000005.29801
7.338077999999999 5.68 -3.16 5000005.23013
7.298376 4.84 -3.16 5000005.16396
7.298376 4.82 -3.16 5000005.16396
7.185072 3.88 -3.16 5000004.97512
7.221906000000001 3.44 -3.16 5000005.03651
7.221906000000001 3.42 -3.16 5000005.03651
7.259664000000001 5.68 -3.18 5000005.09944
7.149126 5.12 -3.18 5000004.91521
7.298376 4.84 -3.18 5000005.16396
7.221906000000001 3.42 -3.18 5000005.03651
7.221906000000001 3.4 -3.18 5000005.03651
7.259664000000001 5.72 -3.2 5000005.09944
7.259664000000001 5.7 -3.2 5000005.09944
7.221906000000001 5.78 -3.22 5000005.03651
7.259664000000001 5.7 -3.22 5000005.09944
7.259664000000001 4.34 -3.22 5000005.09944
7.221906000000001 5.5 -3.24 5000005.03651
7.149126 5.26 -3.24 5000004.91521
7.259664000000001 4.34 -3.24 5000005.09944
7.259664000000001 4.32 -3.24 5000005.09944
7.221906000000001 5.5 -3.26 5000005.03651
7.259664000000001 4.32 -3.26 5000005.09944
7.221906000000001 3.38 -3.26 5000005.03651
7.114037999999999 3.98 -3.28 5000004.85673
7.221906000000001 3.38 -3.28 5000005.03651
7.221906000000001 3.36 -3.28 5000005.03651
7.221906000000001 3.34 -3.28 5000005.03651
7.114037999999999 5.0 -3.3 5000004.85673
7.114037999999999 4.98 -3.3 5000004.85673
7.079772 4.92 -3.3 5000004.79962
7.079772 4.9 -3.3 5000004.79962
7.114037999999999 3.98 -3.3 5000004.85673
7.114037999999999 3.96 -3.3 5000004.85673
7.149126 3.74 -3.3 5000004.91521
7.221906000000001 3.34 -3.3 5000005.03651
7.221906000000001 3.32 -3.3 5000005.03651
7.114037999999999 4.98 -3.32 5000004.85673
7.149126 4.86 -3.32 5000004.91521
7.114037999999999 3.96 -3.32 5000004.85673
7.114037999999999 3.94 -3.32 5000004.85673
7.149126 3.72 -3.32 5000004.91521
7.149126 3.52 -3.32 5000004.91521
7.6472880000000005 2.52 -3.32 5000005.74548
7.463532 2.4 -3.32 5000005.43922
7.114037999999999 4.96 -3.34 5000004.85673
7.046298 4.04 -3.34 5000004.74383
7.114037999999999 3.92 -3.34 5000004.85673
7.149126 3.56 -3.34 5000004.91521
7.149126 3.5 -3.34 5000004.91521
7.149126 3.48 -3.34 5000004.91521
7.185072 3.4 -3.34 5000004.97512
7.599432 2.54 -3.34 5000005.66572
7.599432 2.52 -3.34 5000005.66572
7.463532 2.4 -3.34 5000005.43922
7.463532 2.38 -3.34 5000005.43922
7.046298 4.04 -3.36 5000004.74383
7.046298 4.02 -3.36 5000004.74383
7.046298 4.0 -3.36 5000004.74383
7.114037999999999 3.88 -3.36 5000004.85673
7.114037999999999 3.86 -3.36 5000004.85673
7.149126 3.54 -3.36 5000004.91521
7.149126 3.52 -3.36 5000004.91521
7.149126 3.48 -3.36 5000004.91521
7.149126 3.46 -3.36 5000004.91521
7.463532 2.56 -3.36 5000005.43922
7.046298 4.0 -3.38 5000004.74383
7.046298 3.98 -3.38 5000004.74383
7.046298 3.96 -3.38 5000004.74383
7.114037999999999 3.86 -3.38 5000004.85673
7.114037999999999 3.62 -3.38 5000004.85673
7.420614 2.56 -3.38 5000005.36769
7.420614 2.54 -3.38 5000005.36769
6.981642 5.18 -3.4 5000004.63607
7.046298 3.94 -3.4 5000004.74383
7.114037999999999 3.86 -3.4 5000004.85673
7.114037999999999 3.62 -3.4 5000004.85673
7.114037999999999 3.6 -3.4 5000004.85673
7.420614 2.56 -3.4 5000005.36769
7.338077999999999 2.52 -3.4 5000005.23013
7.298376 2.5 -3.4 5000005.16396
7.298376 2.48 -3.4 5000005.16396
7.298376 2.46 -3.4 5000005.16396
7.298376 2.44 -3.4 5000005.16396
6.981642 5.18 -3.42 5000004.63607
7.046298 3.94 -3.42 5000004.74383
7.079772 3.86 -3.42 5000004.79962
7.149126 3.22 -3.42 5000004.91521
7.298376 2.52 -3.42 5000005.16396
7.298376 2.5 -3.42 5000005.16396
7.298376 2.48 -3.42 5000005.16396
7.298376 2.46 -3.42 5000005.16396
7.298376 2.44 -3.42 5000005.16396
7.298376 2.42 -3.42 5000005.16396
7.185072 2.4 -3.42 5000004.97512
7.185072 2.36 -3.42 5000004.97512
6.9504 5.48 -3.44 5000004.584
6.981642 5.18 -3.44 5000004.63607
6.981642 5.16 -3.44 5000004.63607
7.046298 3.94 -3.44 5000004.74383
7.046298 3.92 -3.44 5000004.74383
7.149126 2.94 -3.44 5000004.91521
7.149126 2.92 -3.44 5000004.91521
7.114037999999999 2.9 -3.44 5000004.85673
6.9504 5.48 -3.46 5000004.584
6.981642 5.16 -3.46 5000004.63607
6.981642 5.14 -3.46 5000004.63607
7.013598 4.22 -3.46 5000004.68933
6.981642 4.08 -3.46 5000004.63607
7.046298 3.8 -3.46 5000004.74383
7.114037999999999 3.58 -3.46 5000004.85673
7.114037999999999 3.56 -3.46 5000004.85673
7.114037999999999 3.02 -3.46 5000004.85673
7.114037999999999 2.9 -3.46 5000004.85673
7.114037999999999 2.88 -3.46 5000004.85673
6.9504 5.48 -3.48 5000004.584
6.981642 5.14 -3.48 5000004.63607
7.013598 4.22 -3.48 5000004.68933
6.981642 4.08 -3.48 5000004.63607
6.981642 4.06 -3.48 5000004.63607
6.981642 4.0 -3.48 5000004.63607
7.046298 3.8 -3.48 5000004.74383
7.046298 3.78 -3.48 5000004.74383
7.079772 3.62 -3.48 5000004.79962
7.114037999999999 3.6 -3.48 5000004.85673
7.114037999999999 3.02 -3.48 5000004.85673
7.079772 3.0 -3.48 5000004.79962
7.114037999999999 2.88 -3.48 5000004.85673
7.149126 2.86 -3.48 5000004.91521
6.9504 5.46 -3.5 5000004.584
6.9504 4.68 -3.5 5000004.584
6.9504 4.66 -3.5 5000004.584
6.981642 4.06 -3.5 5000004.63607
6.981642 4.04 -3.5 5000004.63607
7.046298 3.78 -3.5 5000004.74383
6.860754 3.7 -3.5 5000004.43459
6.860754 3.68 -3.5 5000004.43459
7.079772 3.62 -3.5 5000004.79962
7.114037999999999 3.6 -3.5 5000004.85673
7.114037999999999 3.58 -3.5 5000004.85673
7.079772 3.0 -3.5 5000004.79962
6.981642 2.96 -3.5 5000004.63607
6.981642 2.94 -3.5 5000004.63607
7.114037999999999 2.92 -3.5 5000004.85673
6.919854 5.42 -3.52 5000004.53309
6.9504 5.4 -3.52 5000004.584
6.981642 4.78 -3.52 5000004.63607
6.9504 4.68 -3.52 5000004.584
6.9504 4.66 -3.52 5000004.584
6.981642 4.02 -3.52 5000004.63607
7.079772 3.58 -3.52 5000004.79962
7.114037999999999 3.08 -3.52 5000004.85673
6.919854 5.72 -3.54 5000004.53309
6.919854 5.4 -3.54 5000004.53309
6.981642 4.78 -3.54 5000004.63607
6.981642 4.76 -3.54 5000004.63607
6.9504 4.66 -3.54 5000004.584
7.149126 -5.56 -3.54 5000004.91521
7.149126 -5.58 -3.54 5000004.91521
7.046298 -5.84 -3.54 5000004.74383
6.919854 5.72 -3.56 5000004.53309
6.919854 5.38 -3.56 5000004.53309
6.919854 5.36 -3.56 5000004.53309
6.919854 5.04 -3.56 5000004.53309
6.9504 4.78 -3.56 5000004.584
6.9504 4.76 -3.56 5000004.584
6.9504 4.74 -3.56 5000004.584
6.981642 3.98 -3.56 5000004.63607
7.149126 -5.54 -3.56 5000004.91521
7.149126 -5.56 -3.56 5000004.91521
7.149126 -5.58 -3.56 5000004.91521
7.114037999999999 -5.6 -3.56 5000004.85673
7.079772 -5.62 -3.56 5000004.79962
7.046298 -5.64 -3.56 5000004.74383
7.046298 -5.66 -3.56 5000004.74383
7.046298 -5.68 -3.56 5000004.74383
7.046298 -5.7 -3.56 5000004.74383
7.046298 -5.72 -3.56 5000004.74383
7.046298 -5.74 -3.56 5000004.74383
7.046298 -5.76 -3.56 5000004.74383
7.046298 -5.78 -3.56 5000004.74383
7.046298 -5.82 -3.56 5000004.74383
7.046298 -5.84 -3.56 5000004.74383
7.046298 -5.86 -3.56 5000004.74383
7.013598 -5.88 -3.56 5000004.68933
6.919854 5.72 -3.58 5000004.53309
6.919854 5.38 -3.58 5000004.53309
6.919854 5.36 -3.58 5000004.53309
6.919854 5.04 -3.58 5000004.53309
6.9504 4.76 -3.58 5000004.584
6.9504 4.74 -3.58 5000004.584
6.919854 4.22 -3.58 5000004.53309
6.9504 4.1 -3.58 5000004.584
6.981642 3.98 -3.58 5000004.63607
6.981642 3.96 -3.58 5000004.63607
7.046298 3.32 -3.58 5000004.74383
7.149126 2.92 -3.58 5000004.91521
7.046298 -5.64 -3.58 5000004.74383
7.046298 -5.66 -3.58 5000004.74383
7.046298 -5.68 -3.58 5000004.74383
7.046298 -5.7 -3.58 5000004.74383
7.046298 -5.72 -3.58 5000004.74383
7.046298 -5.74 -3.58 5000004.74383
7.013598 -5.92 -3.58 5000004.68933
6.88998 5.36 -3.6 5000004.4833
6.9504 4.74 -3.6 5000004.584
6.919854 4.72 -3.6 5000004.53309
6.919854 4.66 -3.6 5000004.53309
6.776765999999999 4.54 -3.6 5000004.29461
6.919854 4.22 -3.6 5000004.53309
6.9504 4.1 -3.6 5000004.584
6.9504 4.08 -3.6 5000004.584
7.149126 2.92 -3.6 5000004.91521
6.88998 5.34 -3.62 5000004.4833
6.919854 4.72 -3.62 5000004.53309
6.919854 4.7 -3.62 5000004.53309
6.919854 4.2 -3.62 5000004.53309
7.149126 2.92 -3.62 5000004.91521
7.149126 2.9 -3.62 5000004.91521
6.860754 5.32 -3.64 5000004.43459
6.919854 4.7 -3.64 5000004.53309
6.776765999999999 4.42 -3.64 5000004.29461
6.919854 4.2 -3.64 5000004.53309
7.149126 2.92 -3.64 5000004.91521
7.149126 2.9 -3.64 5000004.91521
6.860754 5.32 -3.66 5000004.43459
6.919854 4.2 -3.66 5000004.53309
6.919854 4.18 -3.66 5000004.53309
7.149126 2.9 -3.66 5000004.91521
6.804168 5.28 -3.68 5000004.34028
7.149126 2.88 -3.68 5000004.91521
6.776765999999999 5.26 -3.7 5000004.29461
6.919854 4.06 -3.7 5000004.53309
6.88998 4.04 -3.7 5000004.4833
6.88998 4.04 -3.72 5000004.4833
6.88998 4.02 -3.72 5000004.4833
6.88998 4.0 -3.72 5000004.4833
6.860754 3.94 -3.72 5000004.43459
6.776765999999999 5.38 -3.74 5000004.29461
7.149126 4.1 -3.74 5000004.91521
6.88998 4.02 -3.74 5000004.4833
6.860754 4.0 -3.74 5000004.43459
6.860754 3.98 -3.74 5000004.43459
6.88998 3.52 -3.74 5000004.4833
6.88998 3.5 -3.74 5000004.4833
6.804168 5.86 -3.76 5000004.34028
6.776765999999999 5.36 -3.76 5000004.29461
7.149126 4.12 -3.76 5000004.91521
6.860754 4.02 -3.76 5000004.43459
6.860754 4.0 -3.76 5000004.43459
6.860754 3.98 -3.76 5000004.43459
6.88998 3.5 -3.76 5000004.4833
6.69792 5.88 -3.78 5000004.1632
6.7499340000000005 5.78 -3.78 5000004.24989
6.776765999999999 5.0 -3.78 5000004.29461
6.860754 3.98 -3.78 5000004.43459
6.860754 3.96 -3.78 5000004.43459
6.69792 5.9 -3.8 5000004.1632
6.7499340000000005 5.86 -3.8 5000004.24989
6.776765999999999 5.0 -3.8 5000004.29461
6.776765999999999 4.4 -3.8 5000004.29461
6.776765999999999 4.34 -3.8 5000004.29461
6.860754 3.62 -3.8 5000004.43459
6.7499340000000005 5.92 -3.82 5000004.24989
6.69792 5.9 -3.82 5000004.1632
6.69792 5.86 -3.82 5000004.1632
6.72366 5.16 -3.82 5000004.2061
6.776765999999999 5.0 -3.82 5000004.29461
6.776765999999999 4.4 -3.82 5000004.29461
6.804168 4.38 -3.82 5000004.34028
6.860754 3.62 -3.82 5000004.43459
6.860754 3.6 -3.82 5000004.43459
6.72366 5.14 -3.84 5000004.2061
6.72366 5.12 -3.84 5000004.2061
6.72366 5.1 -3.84 5000004.2061
6.776765999999999 4.4 -3.84 5000004.29461
6.804168 4.38 -3.84 5000004.34028
6.981642 5.58 -3.86 5000004.63607
6.72366 5.14 -3.86 5000004.2061
6.72366 5.12 -3.86 5000004.2061
6.72366 5.1 -3.86 5000004.2061
6.72366 5.08 -3.86 5000004.2061
6.88998 4.2 -3.86 5000004.4833
6.7499340000000005 5.02 -3.88 5000004.24989
6.69792 4.46 -3.9 5000004.1632
6.776765999999999 4.08 -3.9 5000004.29461
6.776765999999999 4.06 -3.9 5000004.29461
6.69792 5.72 -3.92 5000004.1632
6.647982 5.64 -3.92 5000004.07997
6.647982 5.56 -3.92 5000004.07997
6.69792 5.14 -3.92 5000004.1632
6.72366 5.04 -3.92 5000004.2061
6.69792 4.46 -3.92 5000004.1632
6.69792 4.44 -3.92 5000004.1632
6.7499340000000005 4.06 -3.92 5000004.24989
6.7499340000000005 4.04 -3.92 5000004.24989
6.69792 5.72 -3.94 5000004.1632
6.647982 5.56 -3.94 5000004.07997
6.647982 5.54 -3.94 5000004.07997
6.69792 5.02 -3.94 5000004.1632
6.69792 4.44 -3.94 5000004.1632
6.69792 4.42 -3.94 5000004.1632
6.72366 4.22 -3.94 5000004.2061
6.69792 5.72 -3.96 5000004.1632
6.623754 5.66 -3.96 5000004.03959
6.623754 5.64 -3.96 5000004.03959
6.647982 5.0 -3.96 5000004.07997
6.623754 4.98 -3.96 5000004.03959
6.623754 4.96 -3.96 5000004.03959
6.623754 4.78 -3.96 5000004.03959
6.69792 4.2 -3.96 5000004.1632
6.69792 4.08 -3.96 5000004.1632
6.672695999999999 3.66 -3.96 5000004.12116
6.623754 5.66 -3.98 5000004.03959
6.623754 5.64 -3.98 5000004.03959
6.69792 4.2 -3.98 5000004.1632
6.69792 4.08 -3.98 5000004.1632
6.623754 5.64 -4.0 5000004.03959
6.623754 5.62 -4.0 5000004.03959
6.623754 5.02 -4.0 5000004.03959
6.672695999999999 4.2 -4.0 5000004.12116
6.672695999999999 4.18 -4.0 5000004.12116
6.69792 4.08 -4.0 5000004.1632
6.69792 4.06 -4.0 5000004.1632
6.623754 5.02 -4.02 5000004.03959
6.672695999999999 4.2 -4.02 5000004.12116
6.672695999999999 4.18 -4.02 5000004.12116
6.69792 4.06 -4.02 5000004.1632
6.69792 4.04 -4.02 5000004.1632
6.623754 4.36 -4.04 5000004.03959
6.672695999999999 4.18 -4.04 5000004.12116
6.672695999999999 4.04 -4.04 5000004.12116
6.860754 1.94 -4.04 5000004.43459
6.647982 4.44 -4.06 5000004.07997
6.623754 4.26 -4.06 5000004.03959
6.647982 4.16 -4.06 5000004.07997
6.672695999999999 4.04 -4.06 5000004.12116
6.672695999999999 4.02 -4.06 5000004.12116
6.672695999999999 3.6 -4.06 5000004.12116
6.860754 1.94 -4.06 5000004.43459
6.860754 1.92 -4.06 5000004.43459
6.860754 -1.34 -4.06 5000004.43459
6.623754 5.88 -4.08 5000004.03959
6.623754 5.86 -4.08 5000004.03959
6.647982 4.44 -4.08 5000004.07997
6.623754 4.42 -4.08 5000004.03959
6.647982 4.02 -4.08 5000004.07997
6.647982 4.0 -4.08 5000004.07997
6.860754 1.92 -4.08 5000004.43459
6.860754 1.9 -4.08 5000004.43459
6.804168 1.88 -4.08 5000004.34028
6.623754 5.86 -4.1 5000004.03959
6.647982 4.44 -4.1 5000004.07997
6.623754 4.42 -4.1 5000004.03959
6.623754 4.34 -4.1 5000004.03959
6.623754 3.96 -4.1 5000004.03959
6.804168 1.88 -4.1 5000004.34028
6.623754 5.92 -4.12 5000004.03959
6.647982 4.48 -4.12 5000004.07997
6.623754 4.42 -4.12 5000004.03959
6.623754 4.4 -4.12 5000004.03959
6.623754 4.2 -4.12 5000004.03959
6.623754 5.28 -4.14 5000004.03959
6.623754 4.94 -4.14 5000004.03959
6.623754 4.92 -4.14 5000004.03959
6.623754 4.18 -4.14 5000004.03959
6.623754 4.12 -4.14 5000004.03959
6.623754 4.1 -4.14 5000004.03959
6.623754 4.94 -4.16 5000004.03959
6.623754 4.92 -4.16 5000004.03959
6.623754 4.56 -4.16 5000004.03959
6.623754 4.1 -4.16 5000004.03959
6.72366 3.64 -4.16 5000004.2061
6.623754 4.56 -4.18 5000004.03959
6.623754 4.56 -4.2 5000004.03959
6.623754 3.84 -4.2 5000004.03959
6.623754 4.56 -4.22 5000004.03959
6.623754 4.52 -4.22 5000004.03959
6.672695999999999 3.64 -4.22 5000004.12116
6.672695999999999 3.64 -4.24 5000004.12116
6.672695999999999 3.7 -4.26 5000004.12116
6.672695999999999 3.64 -4.26 5000004.12116
6.672695999999999 3.7 -4.28 5000004.12116
6.672695999999999 3.64 -4.28 5000004.12116
6.672695999999999 3.7 -4.3 5000004.12116
6.672695999999999 3.64 -4.3 5000004.12116
6.672695999999999 3.7 -4.32 5000004.12116
6.672695999999999 -4.38 -4.32 5000004.12116
6.672695999999999 -4.4 -4.32 5000004.12116
6.672695999999999 -4.52 -4.32 5000004.12116
6.672695999999999 -4.54 -4.32 5000004.12116
6.647982 3.7 -4.34 5000004.07997
6.672695999999999 3.68 -4.34 5000004.12116
6.647982 2.54 -4.34 5000004.07997
6.647982 3.7 -4.36 5000004.07997
6.647982 3.68 -4.36 5000004.07997
6.647982 2.54 -4.36 5000004.07997
6.647982 3.68 -4.38 5000004.07997
6.647982 2.54 -4.38 5000004.07997
6.647982 2.52 -4.38 5000004.07997
6.647982 2.5 -4.38 5000004.07997
6.647982 2.52 -4.4 5000004.07997
6.647982 2.5 -4.4 5000004.07997
6.623754 3.66 -4.42 5000004.03959
 -4.04 5000004.43459
9.631988 4.44 -4.06 5000004.07997
9.615836 4.26 -4.06 5000004.03959
9.631988 4.16 -4.06 5000004.07997
9.648464 4.04 -4.06 5000004.12116
9.648464 4.02 -4.06 5000004.12116
9.648464 3.6 -4.06 5000004.12116
9.773836 1.94 -4.06 5000004.43459
9.773836 1.92 -4.06 5000004.43459
9.773836 -1.34 -4.06 5000004.43459
9.615836 5.88 -4.08 5000004.03959
9.615836 5.86 -4.08 5000004.03959
9.631988 4.44 -4.08 5000004.07997
9.615836 4.42 -4.08 5000004.03959
9.631988 4.02 -4.08 5000004.07997
9.631988 4.0 -4.08 5000004.07997
9.773836 1.92 -4.08 5000004.43459
9.773836 1.9 -4.08 5000004.43459
9.736112 1.88 -4.08 5000004.34028
9.615836 5.86 -4.1 5000004.03959
9.631988 4.44 -4.1 5000004.07997
9.615836 4.42 -4.1 5000004.03959
9.615836 4.34 -4.1 5000004.03959
9.615836 3.96 -4.1 5000004.03959
9.736112 1.88 -4.1 5000004.34028
9.615836 5.92 -4.12 5000004.03959
9.631988 4.48 -4.12 5000004.07997
9.615836 4.42 -4.12 5000004.03959
9.615836 4.4 -4.12 5000004.03959
9.615836 4.2 -4.12 5000004.03959
9.615836 5.28 -4.14 5000004.03959
9.615836 4.94 -4.14 5000004.03959
9.615836 4.92 -4.14 5000004.03959
9.615836 4.18 -4.14 5000004.03959
9.615836 4.12 -4.14 5000004.03959
9.615836 4.1 -4.14 5000004.03959
9.615836 4.94 -4.16 5000004.03959
9.615836 4.92 -4.16 5000004.03959
9.615836 4.56 -4.16 5000004.03959
9.615836 4.1 -4.16 5000004.03959
9.68244 3.64 -4.16 5000004.2061
9.615836 4.56 -4.18 5000004.03959
9.615836 4.56 -4.2 5000004.03959
9.615836 3.84 -4.2 5000004.03959
9.615836 4.56 -4.22 5000004.03959
9.615836 4.52 -4.22 5000004.03959
9.648464 3.64 -4.22 5000004.12116
9.648464 3.64 -4.24 5000004.12116
9.648464 3.7 -4.26 5000004.12116
9.648464 3.64 -4.26 5000004.12116
9.648464 3.7 -4.28 5000004.12116
9.648464 3.64 -4.28 5000004.12116
9.648464 3.7 -4.3 5000004.12116
9.648464 3.64 -4.3 5000004.12116
9.648464 3.7 -4.32 5000004.12116
9.648464 -4.38 -4.32 5000004.12116
9.648464 -4.4 -4.32 5000004.12116
9.648464 -4.52 -4.32 5000004.12116
9.648464 -4.54 -4.32 5000004.12116
9.631988 3.7 -4.34 5000004.07997
9.648464 3.68 -4.34 5000004.12116
9.631988 2.54 -4.34 5000004.07997
9.631988 3.7 -4.36 5000004.07997
9.631988 3.68 -4.36 5000004.07997
9.631988 2.54 -4.36 5000004.07997
9.631988 3.68 -4.38 5000004.07997
9.631988 2.54 -4.38 5000004.07997
9.631988 2.52 -4.38 5000004.07997
9.631988 2.5 -4.38 5000004.07997
9.631988 2.52 -4.4 5000004.07997
9.631988 2.5 -4.4 5000004.07997
9.615836 3.66 -4.42 5000004.03959
6666666666668 2.1 5000011.325
10.3775 -17.7 2.1 5000011.325
10.848176666666667 1.5 2.066666666666667 5000025.4453
10.904566666666666 0.16666666666666666 2.066666666666667 5000027.137
10.678886666666667 -13.3 2.066666666666667 5000020.3666
10.678886666666667 -13.333333333333334 2.066666666666667 5000020.3666
10.503143333333334 -15.033333333333333 2.066666666666667 5000015.0943
10.503143333333334 -15.066666666666666 2.066666666666667 5000015.0943
10.468493333333333 -15.366666666666667 2.066666666666667 5000014.0548
10.468493333333333 -15.4 2.066666666666667 5000014.0548
10.468493333333333 -15.633333333333333 2.066666666666667 5000014.0548
10.468493333333333 -15.666666666666666 2.066666666666667 5000014.0548
10.468493333333333 -15.7 2.066666666666667 5000014.0548
10.468493333333333 -15.966666666666667 2.066666666666667 5000014.0548
10.468493333333333 -16.0 2.066666666666667 5000014.0548
10.617283333333333 -16.533333333333335 2.066666666666667 5000018.5185
10.617283333333333 -16.566666666666666 2.066666666666667 5000018.5185
10.590493333333333 -16.6 2.066666666666667 5000017.7148
10.56593 -16.633333333333333 2.066666666666667 5000016.9779
10.54333 -16.666666666666668 2.066666666666667 5000016.2999
10.522466666666666 -16.7 2.066666666666667 5000015.674
10.503143333333334 -16.733333333333334 2.066666666666667 5000015.0943
10.468493333333333 -16.766666666666666 2.066666666666667 5000014.0548
10.4529 -16.8 2.066666666666667 5000013.587
10.438306666666668 -16.833333333333332 2.066666666666667 5000013.1492
10.42463 -16.866666666666667 2.066666666666667 5000012.7389
10.411776666666666 -16.9 2.066666666666667 5000012.3533
10.39968 -16.933333333333334 2.066666666666667 5000011.9904
10.39968 -16.966666666666665 2.066666666666667 5000011.9904
10.388273333333334 -17.0 2.066666666666667 5000011.6482
10.388273333333334 -17.033333333333335 2.066666666666667 5000011.6482
10.388273333333334 -17.066666666666666 2.066666666666667 5000011.6482
10.3775 -17.433333333333334 2.066666666666667 5000011.325
10.3775 -17.466666666666665 2.066666666666667 5000011.325
10.848176666666667 0.9333333333333333 2.033333333333333 5000025.4453
10.968993333333334 -0.13333333333333333 2.033333333333333 5000029.0698
10.968993333333334 -0.16666666666666666 2.033333333333333 5000029.0698
10.56593 -14.133333333333333 2.033333333333333 5000016.9779
10.503143333333334 -15.033333333333333 2.033333333333333 5000015.0943
10.503143333333334 -15.066666666666666 2.033333333333333 5000015.0943
10.468493333333333 -15.366666666666667 2.033333333333333 5000014.0548
10.468493333333333 -15.4 2.033333333333333 5000014.0548
10.468493333333333 -15.633333333333333 2.033333333333333 5000014.0548
10.468493333333333 -15.666666666666666 2.033333333333333 5000014.0548
10.468493333333333 -15.7 2.033333333333333 5000014.0548
10.468493333333333 -15.966666666666667 2.033333333333333 5000014.0548
10.468493333333333 -16.0 2.033333333333333 5000014.0548
10.411776666666666 -16.9 2.033333333333333 5000012.3533
10.39968 -16.933333333333334 2.033333333333333 5000011.9904
10.39968 -16.966666666666665 2.033333333333333 5000011.9904
10.388273333333334 -17.0 2.033333333333333 5000011.6482
10.388273333333334 -17.033333333333335 2.033333333333333 5000011.6482
10.388273333333334 -17.066666666666666 2.033333333333333 5000011.6482
10.3775 -17.1 2.033333333333333 5000011.325
10.357653333333333 -17.133333333333333 2.033333333333333 5000010.7296
10.33979 -17.166666666666668 2.033333333333333 5000010.1937
10.33151 -17.2 2.033333333333333 5000009.9453
10.323624666666667 -17.233333333333334 2.033333333333333 5000009.70874
10.323624666666667 -17.266666666666666 2.033333333333333 5000009.70874
10.316105666666667 -17.3 2.033333333333333 5000009.48317
10.798403333333333 1.9333333333333333 2.0 5000023.9521
10.678886666666667 -13.266666666666667 2.0 5000020.3666
10.56593 -14.133333333333333 2.0 5000016.9779
10.503143333333334 -15.0 2.0 5000015.0943
10.503143333333334 -15.033333333333333 2.0 5000015.0943
10.503143333333334 -15.066666666666666 2.0 5000015.0943
10.468493333333333 -15.4 2.0 5000014.0548
10.468493333333333 -15.633333333333333 2.0 5000014.0548
10.468493333333333 -15.666666666666666 2.0 5000014.0548
10.468493333333333 -15.966666666666667 2.0 5000014.0548
10.468493333333333 -16.0 2.0 5000014.0548
10.39968 -16.966666666666665 2.0 5000011.9904
10.388273333333334 -17.0 2.0 5000011.6482
10.388273333333334 -17.033333333333335 2.0 5000011.6482
10.39968 -17.9 2.0 5000011.9904
10.617283333333333 -13.933333333333334 1.9666666666666666 5000018.5185
10.503143333333334 -15.0 1.9666666666666666 5000015.0943
10.503143333333334 -15.033333333333333 1.9666666666666666 5000015.0943
10.503143333333334 -15.066666666666666 1.9666666666666666 5000015.0943
10.39968 -16.8 1.9666666666666666 5000011.9904
10.39968 -16.833333333333332 1.9666666666666666 5000011.9904
10.39968 -17.9 1.9666666666666666 5000011.9904
10.798403333333333 2.6 1.9333333333333333 5000023.9521
10.754146666666667 2.5 1.9333333333333333 5000022.6244
10.503143333333334 -15.033333333333333 1.9333333333333333 5000015.0943
10.503143333333334 -15.066666666666666 1.9333333333333333 5000015.0943
10.4852 -15.233333333333333 1.9333333333333333 5000014.556
10.4852 -15.266666666666667 1.9333333333333333 5000014.556
10.39968 -16.766666666666666 1.9333333333333333 5000011.9904
10.39968 -16.8 1.9333333333333333 5000011.9904
10.39968 -16.833333333333332 1.9333333333333333 5000011.9904
10.798403333333333 2.6 1.9 5000023.9521
10.754146666666667 2.466666666666667 1.9 5000022.6244
10.754146666666667 2.433333333333333 1.9 5000022.6244
10.798403333333333 1.9 1.9 5000023.9521
10.798403333333333 1.5333333333333334 1.9 5000023.9521
10.590493333333333 -14.0 1.9 5000017.7148
10.617283333333333 -14.033333333333333 1.9 5000018.5185
10.4852 -15.233333333333333 1.9 5000014.556
10.4852 -15.333333333333334 1.9 5000014.556
10.411776666666666 -16.5 1.9 5000012.3533
10.39968 -16.533333333333335 1.9 5000011.9904
10.798403333333333 2.6 1.8666666666666667 5000023.9521
10.798403333333333 2.3 1.8666666666666667 5000023.9521
10.798403333333333 2.2666666666666666 1.8666666666666667 5000023.9521
10.798403333333333 1.9 1.8666666666666667 5000023.9521
10.798403333333333 1.8666666666666667 1.8666666666666667 5000023.9521
10.503143333333334 -15.066666666666666 1.8666666666666667 5000015.0943
10.42463 -16.4 1.8666666666666667 5000012.7389
10.411776666666666 -16.433333333333334 1.8666666666666667 5000012.3533
10.411776666666666 -16.5 1.8666666666666667 5000012.3533
10.411776666666666 -16.533333333333335 1.8666666666666667 5000012.3533
10.39968 -16.566666666666666 1.8666666666666667 5000011.9904
10.798403333333333 2.6 1.8333333333333333 5000023.9521
10.590493333333333 -14.233333333333333 1.8333333333333333 5000017.7148
10.590493333333333 -14.266666666666667 1.8333333333333333 5000017.7148
10.503143333333334 -15.066666666666666 1.8333333333333333 5000015.0943
10.4852 -15.366666666666667 1.8333333333333333 5000014.556
10.411776666666666 -16.433333333333334 1.8333333333333333 5000012.3533
10.411776666666666 -16.466666666666665 1.8333333333333333 5000012.3533
10.411776666666666 -16.5 1.8333333333333333 5000012.3533
10.388273333333334 -16.866666666666667 1.8333333333333333 5000011.6482
10.798403333333333 2.6 1.8 5000023.9521
10.798403333333333 2.1 1.8 5000023.9521
10.798403333333333 2.066666666666667 1.8 5000023.9521
10.71454 -10.4 1.8 5000021.4362
10.678886666666667 -10.433333333333334 1.8 5000020.3666
10.678886666666667 -10.466666666666667 1.8 5000020.3666
10.590493333333333 -14.233333333333333 1.8 5000017.7148
10.590493333333333 -14.266666666666667 1.8 5000017.7148
10.503143333333334 -15.033333333333333 1.8 5000015.0943
10.503143333333334 -15.066666666666666 1.8 5000015.0943
10.503143333333334 -15.1 1.8 5000015.0943
10.4852 -15.366666666666667 1.8 5000014.556
10.4852 -15.4 1.8 5000014.556
10.411776666666666 -16.433333333333334 1.8 5000012.3533
10.411776666666666 -16.466666666666665 1.8 5000012.3533
10.388273333333334 -16.866666666666667 1.8 5000011.6482
10.678886666666667 -10.466666666666667 1.7666666666666666 5000020.3666
10.678886666666667 -10.5 1.7666666666666666 5000020.3666
10.617283333333333 -13.933333333333334 1.7666666666666666 5000018.5185
10.617283333333333 -13.966666666666667 1.7666666666666666 5000018.5185
10.590493333333333 -14.233333333333333 1.7666666666666666 5000017.7148
10.503143333333334 -15.066666666666666 1.7666666666666666 5000015.0943
10.4852 -15.366666666666667 1.7666666666666666 5000014.556
10.411776666666666 -16.433333333333334 1.7666666666666666 5000012.3533
10.411776666666666 -16.466666666666665 1.7666666666666666 5000012.3533
10.388273333333334 -16.866666666666667 1.7666666666666666 5000011.6482
10.754146666666667 1.9333333333333333 1.7333333333333334 5000022.6244
10.617283333333333 -13.933333333333334 1.7333333333333334 5000018.5185
10.617283333333333 -13.966666666666667 1.7333333333333334 5000018.5185
10.617283333333333 -14.0 1.7333333333333334 5000018.5185
10.590493333333333 -14.033333333333333 1.7333333333333334 5000017.7148
10.617283333333333 -14.333333333333334 1.7333333333333334 5000018.5185
10.617283333333333 -14.366666666666667 1.7333333333333334 5000018.5185
10.617283333333333 -14.4 1.7333333333333334 5000018.5185
10.590493333333333 -14.433333333333334 1.7333333333333334 5000017.7148
10.617283333333333 -14.566666666666666 1.7333333333333334 5000018.5185
10.617283333333333 -14.6 1.7333333333333334 5000018.5185
10.411776666666666 -16.4 1.7333333333333334 5000012.3533
10.411776666666666 -16.433333333333334 1.7333333333333334 5000012.3533
10.4852 -15.366666666666667 1.7 5000014.556
10.503143333333334 -15.266666666666667 1.6 5000015.0943
10.503143333333334 -15.3 1.6 5000015.0943
10.503143333333334 -15.266666666666667 1.5666666666666667 5000015.0943
10.503143333333334 -15.3 1.5666666666666667 5000015.0943
10.39968 -16.633333333333333 1.5666666666666667 5000011.9904
10.39968 -16.6 1.5333333333333334 5000011.9904
10.39968 -16.6 1.5 5000011.9904
10.39968 -16.666666666666668 1.3666666666666667 5000011.9904
10.39968 -16.7 1.3666666666666667 5000011.9904
10.39968 -16.666666666666668 1.3333333333333333 5000011.9904
10.39968 -16.7 1.3333333333333333 5000011.9904
10.39968 -16.733333333333334 1.3333333333333333 5000011.9904
10.468493333333333 -15.766666666666667 1.3 5000014.0548
10.503143333333334 -6.066666666666666 1.2666666666666666 5000015.0943
10.54333 -10.866666666666667 1.1333333333333333 5000016.2999
10.503143333333334 -10.9 1.1333333333333333 5000015.0943
10.411776666666666 -16.5 1.1333333333333333 5000012.3533
10.503143333333334 -10.9 1.1 5000015.0943
10.503143333333334 -10.933333333333334 1.1 5000015.0943
10.4852 -10.966666666666667 1.1 5000014.556
10.468493333333333 -11.0 1.1 5000014.0548
10.468493333333333 -11.033333333333333 1.1 5000014.0548
10.4529 -11.066666666666666 1.1 5000013.587
10.438306666666668 -11.1 1.1 5000013.1492
10.438306666666668 -11.133333333333333 1.1 5000013.1492
10.411776666666666 -16.5 1.1 5000012.3533
10.39968 -16.966666666666665 1.1 5000011.9904
10.39968 -17.0 1.1 5000011.9904
10.438306666666668 -11.1 1.0666666666666667 5000013.1492
10.39968 -16.933333333333334 1.0666666666666667 5000011.9904
10.39968 -16.966666666666665 1.0666666666666667 5000011.9904
10.411776666666666 -16.5 1.0333333333333334 5000012.3533
10.39968 -16.933333333333334 1.0333333333333334 5000011.9904
10.39968 -16.966666666666665 1.0333333333333334 5000011.9904
10.438306666666668 -12.533333333333333 1.0 5000013.1492
10.438306666666668 -12.566666666666666 1.0 5000013.1492
10.411776666666666 -16.5 1.0 5000012.3533
10.411776666666666 -16.533333333333335 1.0 5000012.3533
10.39968 -17.033333333333335 1.0 5000011.9904
10.39968 -17.066666666666666 1.0 5000011.9904
10.388273333333334 -17.1 1.0 5000011.6482
10.388273333333334 -17.133333333333333 1.0 5000011.6482
10.3775 -17.166666666666668 1.0 5000011.325
10.3775 -17.2 1.0 5000011.325
10.36731 -17.233333333333334 1.0 5000011.0193
10.468493333333333 0.43333333333333335 0.9666666666666667 5000014.0548
10.468493333333333 0.4 0.9666666666666667 5000014.0548
10.3775 -2.1666666666666665 0.9666666666666667 5000011.325
10.411776666666666 -16.533333333333335 0.9666666666666667 5000012.3533
10.411776666666666 -16.566666666666666 0.9666666666666667 5000012.3533
10.3775 -2.1666666666666665 0.9333333333333333 5000011.325
10.3775 -2.033333333333333 0.9 5000011.325
10.39968 -12.933333333333334 0.9 5000011.9904
10.438306666666668 -14.333333333333334 0.9 5000013.1492
10.42463 -14.366666666666667 0.9 5000012.7389
10.42463 -14.4 0.9 5000012.7389
10.411776666666666 -14.433333333333334 0.9 5000012.3533
10.39968 -14.466666666666667 0.9 5000011.9904
10.39968 -14.5 0.9 5000011.9904
10.39968 -14.533333333333333 0.9 5000011.9904
10.39968 -14.566666666666666 0.9 5000011.9904
10.388273333333334 -14.6 0.9 5000011.6482
10.39968 -2.3 0.8666666666666667 5000011.9904
10.411776666666666 -13.033333333333333 0.8666666666666667 5000012.3533
10.411776666666666 -13.066666666666666 0.8666666666666667 5000012.3533
10.411776666666666 -13.1 0.8666666666666667 5000012.3533
10.411776666666666 -14.433333333333334 0.8666666666666667 5000012.3533
10.39968 -14.466666666666667 0.8666666666666667 5000011.9904
10.39968 -2.3333333333333335 0.8333333333333334 5000011.9904
10.36731 -3.966666666666667 0.7333333333333333 5000011.0193
10.36731 -4.0 0.7333333333333333 5000011.0193
10.36731 -4.033333333333333 0.7333333333333333 5000011.0193
10.3775 -3.2666666666666666 0.7 5000011.325
10.36731 -2.3666666666666667 0.6666666666666666 5000011.0193
10.3775 -3.3 0.6666666666666666 5000011.325
10.36731 -4.666666666666667 0.6666666666666666 5000011.0193
10.357653333333333 -14.466666666666667 0.6666666666666666 5000010.7296
10.357653333333333 -14.5 0.6666666666666666 5000010.7296
10.357653333333333 -13.966666666666667 0.6333333333333333 5000010.7296
10.348493333333334 -1.3666666666666667 0.6 5000010.4548
10.36731 -11.566666666666666 0.6 5000011.0193
10.36731 -11.6 0.6 5000011.0193
10.357653333333333 -11.633333333333333 0.6 5000010.7296
10.357653333333333 -11.666666666666666 0.6 5000010.7296
10.348493333333334 -11.7 0.6 5000010.4548
10.33979 -11.766666666666667 0.6 5000010.1937
10.357653333333333 -14.033333333333333 0.6 5000010.7296
10.357653333333333 -14.066666666666666 0.6 5000010.7296
10.357653333333333 -14.1 0.6 5000010.7296
10.388273333333334 -14.2 0.5666666666666667 5000011.6482
10.3775 -14.233333333333333 0.5666666666666667 5000011.325
10.3775 -14.266666666666667 0.5666666666666667 5000011.325
10.36731 -14.3 0.5666666666666667 5000011.0193
10.357653333333333 -14.333333333333334 0.5666666666666667 5000010.7296
10.357653333333333 -14.366666666666667 0.5666666666666667 5000010.7296
10.33151 -15.0 0.5666666666666667 5000009.9453
10.33151 -15.033333333333333 0.5666666666666667 5000009.9453
10.33151 -15.066666666666666 0.5666666666666667 5000009.9453
10.36731 -14.3 0.5333333333333333 5000011.0193
10.357653333333333 -14.333333333333334 0.5333333333333333 5000010.7296
10.357653333333333 -14.366666666666667 0.5333333333333333 5000010.7296
10.33979 -14.4 0.5333333333333333 5000010.1937
10.33151 -14.433333333333334 0.5333333333333333 5000009.9453
10.316105666666667 -14.466666666666667 0.5333333333333333 5000009.48317
10.316105666666667 -14.5 0.5333333333333333 5000009.48317
10.308928 -14.533333333333333 0.5333333333333333 5000009.26784
10.308928 -14.566666666666666 0.5333333333333333 5000009.26784
10.302069 -14.6 0.5333333333333333 5000009.06207
10.33979 -3.5 0.5 5000010.1937
10.33151 -3.2333333333333334 0.4666666666666667 5000009.9453
10.33151 -3.533333333333333 0.4666666666666667 5000009.9453
10.33979 -15.5 0.4666666666666667 5000010.1937
10.33979 -15.533333333333333 0.4666666666666667 5000010.1937
10.33979 -15.566666666666666 0.4666666666666667 5000010.1937
10.33979 -1.6666666666666667 0.43333333333333335 5000010.1937
10.33151 -3.1 0.43333333333333335 5000009.9453
10.33151 -3.1333333333333333 0.43333333333333335 5000009.9453
10.33151 -3.4 0.43333333333333335 5000009.9453
10.33979 -3.433333333333333 0.43333333333333335 5000010.1937
10.33979 -4.2 0.43333333333333335 5000010.1937
10.33979 -4.233333333333333 0.43333333333333335 5000010.1937
10.33979 -1.6666666666666667 0.4 5000010.1937
10.33979 -2.1 0.4 5000010.1937
10.33151 -3.1333333333333333 0.4 5000009.9453
10.33151 -3.1666666666666665 0.4 5000009.9453
10.33151 -3.433333333333333 0.4 5000009.9453
10.33151 -3.466666666666667 0.4 5000009.9453
10.316105666666667 -15.866666666666667 0.4 5000009.48317
10.316105666666667 -15.9 0.4 5000009.48317
10.33151 -3.1333333333333333 0.36666666666666664 5000009.9453
10.33151 -3.1666666666666665 0.36666666666666664 5000009.9453
10.33151 -3.2 0.36666666666666664 5000009.9453
10.33151 -3.466666666666667 0.36666666666666664 5000009.9453
10.348493333333334 -16.066666666666666 0.36666666666666664 5000010.4548
10.33979 -16.133333333333333 0.36666666666666664 5000010.1937
10.33979 -16.166666666666668 0.36666666666666664 5000010.1937
10.348493333333334 -0.4666666666666667 0.3333333333333333 5000010.4548
10.33979 -16.2 0.3333333333333333 5000010.1937
10.323624666666667 -16.233333333333334 0.3333333333333333 5000009.70874
10.33151 -16.666666666666668 0.3333333333333333 5000009.9453
10.308928 -1.0 0.3 5000009.26784
10.323624666666667 -2.1333333333333333 0.3 5000009.70874
10.316105666666667 -3.8 0.3 5000009.48317
10.308928 -1.0333333333333334 0.26666666666666666 5000009.26784
10.316105666666667 -3.8 0.26666666666666666 5000009.48317
10.316105666666667 -3.8333333333333335 0.26666666666666666 5000009.48317
10.33151 -16.666666666666668 0.26666666666666666 5000009.9453
10.33151 -16.7 0.26666666666666666 5000009.9453
10.323624666666667 -16.733333333333334 0.26666666666666666 5000009.70874
