VERSION .7
FIELDS x y z rgb
SIZE 4 4 4 4
TYPE F F F F
COUNT 1 1 1 1
WIDTH 1301
HEIGHT 1
VIEWPOINT 0 0 0 1 0 0 0
POINTS 1301
DATA ascii
28.590239999999998 4.68 -0.36 5000040.6504
28.590239999999998 4.66 -0.36 5000040.6504
38.9826 1.7 -0.36 5000057.971
20.4822 5.92 -0.38 5000027.137
26.38116 5.8 -0.38 5000036.9686
18.57126 5.36 -0.38 5000023.9521
18.57126 5.04 -0.38 5000023.9521
28.590239999999998 4.68 -0.38 5000040.6504
18.57126 5.04 -0.4 5000023.9521
28.590239999999998 4.68 -0.4 5000040.6504
18.57126 5.04 -0.42 5000023.9521
28.590239999999998 4.68 -0.42 5000040.6504
15.3111 -4.44 -0.42 5000018.5185
15.3111 -4.46 -0.42 5000018.5185
15.3111 -4.48 -0.42 5000018.5185
13.979940000000001 -4.72 -0.42 5000016.2999
13.979940000000001 -4.74 -0.42 5000016.2999
26.38116 5.8 -0.44 5000036.9686
17.77464 5.64 -0.44 5000022.6244
17.77464 5.6 -0.44 5000022.6244
18.57126 5.04 -0.44 5000023.9521
26.38116 4.68 -0.44 5000036.9686
38.9826 3.32 -0.44 5000057.971
11.394240000000002 -6.08 -0.44 5000011.9904
20.4822 5.94 -0.46 5000027.137
26.38116 5.8 -0.46 5000036.9686
17.77464 5.64 -0.46 5000022.6244
18.57126 5.38 -0.46 5000023.9521
18.57126 5.04 -0.46 5000023.9521
26.38116 4.68 -0.46 5000036.9686
18.57126 -3.44 -0.46 5000023.9521
11.394240000000002 -6.08 -0.46 5000011.9904
26.38116 5.8 -0.48 5000036.9686
18.57126 5.38 -0.48 5000023.9521
18.57126 5.04 -0.48 5000023.9521
26.38116 4.68 -0.48 5000036.9686
17.77464 -3.5 -0.48 5000022.6244
12.933599999999998 -5.08 -0.48 5000014.556
12.933599999999998 -5.1 -0.48 5000014.556
11.394240000000002 -6.06 -0.48 5000011.9904
11.394240000000002 -6.08 -0.48 5000011.9904
11.394240000000002 -6.1 -0.48 5000011.9904
11.61198 -6.64 -0.48 5000012.3533
11.394240000000002 -6.66 -0.48 5000011.9904
11.394240000000002 -6.68 -0.48 5000011.9904
11.394240000000002 -6.7 -0.48 5000011.9904
11.18892 -6.72 -0.48 5000011.6482
26.38116 5.8 -0.5 5000036.9686
19.467180000000003 5.72 -0.5 5000025.4453
18.57126 5.36 -0.5 5000023.9521
18.57126 5.04 -0.5 5000023.9521
26.38116 4.68 -0.5 5000036.9686
26.38116 4.66 -0.5 5000036.9686
17.06172 -3.76 -0.5 5000021.4362
17.06172 -3.78 -0.5 5000021.4362
17.06172 -3.8 -0.5 5000021.4362
12.933599999999998 -5.1 -0.5 5000014.556
11.394240000000002 -6.06 -0.5 5000011.9904
11.394240000000002 -6.08 -0.5 5000011.9904
11.394240000000002 -6.1 -0.5 5000011.9904
11.394240000000002 -6.66 -0.5 5000011.9904
11.394240000000002 -6.68 -0.5 5000011.9904
11.394240000000002 -6.7 -0.5 5000011.9904
18.57126 5.36 -0.52 5000023.9521
18.57126 5.04 -0.52 5000023.9521
26.38116 4.68 -0.52 5000036.9686
26.38116 2.98 -0.52 5000036.9686
26.38116 2.76 -0.52 5000036.9686
17.06172 -3.76 -0.52 5000021.4362
17.06172 -3.78 -0.52 5000021.4362
17.06172 -3.8 -0.52 5000021.4362
11.394240000000002 -6.08 -0.52 5000011.9904
11.394240000000002 -6.66 -0.52 5000011.9904
11.394240000000002 -6.68 -0.52 5000011.9904
11.394240000000002 -6.7 -0.52 5000011.9904
17.77464 5.72 -0.54 5000022.6244
18.57126 5.04 -0.54 5000023.9521
26.38116 2.98 -0.54 5000036.9686
26.38116 2.76 -0.54 5000036.9686
17.06172 -3.78 -0.54 5000021.4362
14.82888 -4.58 -0.54 5000017.7148
14.82888 -4.6 -0.54 5000017.7148
14.82888 -4.62 -0.54 5000017.7148
11.394240000000002 -6.28 -0.54 5000011.9904
17.77464 5.74 -0.56 5000022.6244
17.77464 5.72 -0.56 5000022.6244
17.77464 5.68 -0.56 5000022.6244
18.57126 5.04 -0.56 5000023.9521
26.38116 2.74 -0.56 5000036.9686
14.82888 -4.62 -0.56 5000017.7148
11.394240000000002 -6.26 -0.56 5000011.9904
11.394240000000002 -6.28 -0.56 5000011.9904
11.394240000000002 -6.3 -0.56 5000011.9904
17.06172 5.74 -0.58 5000021.4362
17.77464 5.72 -0.58 5000022.6244
17.77464 5.68 -0.58 5000022.6244
18.57126 5.06 -0.58 5000023.9521
18.57126 5.04 -0.58 5000023.9521
17.06172 -3.76 -0.58 5000021.4362
17.06172 -3.78 -0.58 5000021.4362
15.3111 -4.18 -0.58 5000018.5185
15.3111 -4.2 -0.58 5000018.5185
15.3111 -4.26 -0.58 5000018.5185
17.77464 5.72 -0.6 5000022.6244
18.57126 5.06 -0.6 5000023.9521
18.57126 5.04 -0.6 5000023.9521
26.38116 4.66 -0.6 5000036.9686
17.06172 -3.78 -0.6 5000021.4362
13.979940000000001 -4.74 -0.6 5000016.2999
13.979940000000001 -4.76 -0.6 5000016.2999
11.394240000000002 -6.06 -0.6 5000011.9904
11.394240000000002 -6.08 -0.6 5000011.9904
17.06172 5.72 -0.62 5000021.4362
17.06172 5.68 -0.62 5000021.4362
18.57126 5.04 -0.62 5000023.9521
26.38116 4.66 -0.62 5000036.9686
18.57126 -3.5 -0.62 5000023.9521
15.3111 -4.18 -0.62 5000018.5185
13.979940000000001 -4.72 -0.62 5000016.2999
13.979940000000001 -4.74 -0.62 5000016.2999
13.6044 -4.8 -0.62 5000015.674
13.6044 -4.82 -0.62 5000015.674
13.6044 -4.84 -0.62 5000015.674
13.25658 -5.08 -0.62 5000015.0943
13.25658 -5.1 -0.62 5000015.0943
11.394240000000002 -6.08 -0.62 5000011.9904
17.06172 5.72 -0.64 5000021.4362
18.57126 5.04 -0.64 5000023.9521
21.64188 -3.18 -0.64 5000029.0698
18.57126 -3.5 -0.64 5000023.9521
18.57126 -3.52 -0.64 5000023.9521
15.3111 -4.16 -0.64 5000018.5185
15.3111 -4.18 -0.64 5000018.5185
13.979940000000001 -4.72 -0.64 5000016.2999
13.979940000000001 -4.74 -0.64 5000016.2999
13.6044 -4.84 -0.64 5000015.674
13.25658 -5.08 -0.64 5000015.0943
13.25658 -5.1 -0.64 5000015.0943
11.394240000000002 -6.06 -0.64 5000011.9904
11.394240000000002 -6.08 -0.64 5000011.9904
11.394240000000002 -6.1 -0.64 5000011.9904
17.06172 5.72 -0.66 5000021.4362
18.57126 5.0 -0.66 5000023.9521
17.06172 -3.78 -0.66 5000021.4362
13.6044 -4.84 -0.66 5000015.674
13.6044 -4.86 -0.66 5000015.674
13.25658 -5.08 -0.66 5000015.0943
13.25658 -5.1 -0.66 5000015.0943
11.394240000000002 -6.06 -0.66 5000011.9904
11.394240000000002 -6.08 -0.66 5000011.9904
17.06172 5.72 -0.68 5000021.4362
17.06172 5.7 -0.68 5000021.4362
17.06172 5.68 -0.68 5000021.4362
17.77464 5.66 -0.68 5000022.6244
18.57126 5.0 -0.68 5000023.9521
13.6044 -4.86 -0.68 5000015.674
11.394240000000002 -6.08 -0.68 5000011.9904
17.06172 5.72 -0.7 5000021.4362
17.06172 5.7 -0.7 5000021.4362
17.77464 5.66 -0.7 5000022.6244
11.394240000000002 -6.08 -0.7 5000011.9904
11.394240000000002 -6.3 -0.7 5000011.9904
11.394240000000002 -6.32 -0.7 5000011.9904
17.06172 5.72 -0.72 5000021.4362
17.77464 5.7 -0.72 5000022.6244
19.467180000000003 4.84 -0.72 5000025.4453
19.467180000000003 4.82 -0.72 5000025.4453
15.83916 -4.26 -0.72 5000019.3986
15.83916 -4.28 -0.72 5000019.3986
13.25658 -4.86 -0.72 5000015.0943
13.25658 -4.88 -0.72 5000015.0943
64.806 -5.14 -0.72 5000101.01
64.806 -5.16 -0.72 5000101.01
12.08952 -5.64 -0.72 5000013.1492
12.08952 -5.66 -0.72 5000013.1492
12.08952 -5.68 -0.72 5000013.1492
11.843340000000001 -5.7 -0.72 5000012.7389
11.394240000000002 -6.08 -0.72 5000011.9904
11.394240000000002 -6.3 -0.72 5000011.9904
11.394240000000002 -6.32 -0.72 5000011.9904
17.06172 5.7 -0.74 5000021.4362
18.57126 5.38 -0.74 5000023.9521
18.57126 5.14 -0.74 5000023.9521
19.467180000000003 4.88 -0.74 5000025.4453
19.467180000000003 4.82 -0.74 5000025.4453
19.467180000000003 4.8 -0.74 5000025.4453
13.6044 -4.86 -0.74 5000015.674
13.6044 -4.88 -0.74 5000015.674
12.08952 -5.62 -0.74 5000013.1492
12.08952 -5.64 -0.74 5000013.1492
12.08952 -5.66 -0.74 5000013.1492
12.08952 -5.68 -0.74 5000013.1492
11.843340000000001 -5.78 -0.74 5000012.7389
11.394240000000002 -6.08 -0.74 5000011.9904
11.394240000000002 -6.3 -0.74 5000011.9904
18.57126 5.4 -0.76 5000023.9521
18.57126 5.38 -0.76 5000023.9521
18.57126 5.14 -0.76 5000023.9521
19.467180000000003 4.98 -0.76 5000025.4453
19.467180000000003 4.88 -0.76 5000025.4453
19.467180000000003 4.8 -0.76 5000025.4453
13.979940000000001 -4.68 -0.76 5000016.2999
13.979940000000001 -4.7 -0.76 5000016.2999
13.979940000000001 -4.72 -0.76 5000016.2999
12.08952 -5.62 -0.76 5000013.1492
12.08952 -5.64 -0.76 5000013.1492
12.08952 -5.66 -0.76 5000013.1492
11.843340000000001 -5.8 -0.76 5000012.7389
11.843340000000001 -5.82 -0.76 5000012.7389
11.394240000000002 -6.08 -0.76 5000011.9904
18.57126 5.4 -0.78 5000023.9521
18.57126 5.14 -0.78 5000023.9521
19.467180000000003 4.8 -0.78 5000025.4453
19.467180000000003 4.5 -0.78 5000025.4453
19.467180000000003 4.48 -0.78 5000025.4453
17.06172 -3.94 -0.78 5000021.4362
17.06172 -3.96 -0.78 5000021.4362
15.3111 -4.26 -0.78 5000018.5185
15.3111 -4.28 -0.78 5000018.5185
15.3111 -4.3 -0.78 5000018.5185
17.77464 -4.46 -0.78 5000022.6244
17.77464 -4.48 -0.78 5000022.6244
16.419959999999996 -4.5 -0.78 5000020.3666
15.3111 -4.52 -0.78 5000018.5185
15.3111 -4.54 -0.78 5000018.5185
14.82888 -4.56 -0.78 5000017.7148
14.82888 -4.58 -0.78 5000017.7148
14.82888 -4.6 -0.78 5000017.7148
13.979940000000001 -4.7 -0.78 5000016.2999
13.979940000000001 -4.72 -0.78 5000016.2999
12.08952 -5.6 -0.78 5000013.1492
12.08952 -5.62 -0.78 5000013.1492
12.08952 -5.64 -0.78 5000013.1492
11.843340000000001 -5.82 -0.78 5000012.7389
11.61198 -5.84 -0.78 5000012.3533
11.394240000000002 -6.32 -0.78 5000011.9904
17.77464 5.38 -0.8 5000022.6244
19.467180000000003 4.48 -0.8 5000025.4453
15.3111 -4.28 -0.8 5000018.5185
15.3111 -4.3 -0.8 5000018.5185
15.3111 -4.54 -0.8 5000018.5185
14.82888 -4.56 -0.8 5000017.7148
14.82888 -4.58 -0.8 5000017.7148
13.6044 -4.88 -0.8 5000015.674
13.25658 -4.9 -0.8 5000015.0943
12.08952 -5.6 -0.8 5000013.1492
12.08952 -5.62 -0.8 5000013.1492
12.08952 -5.64 -0.8 5000013.1492
11.61198 -5.82 -0.8 5000012.3533
11.61198 -5.84 -0.8 5000012.3533
11.61198 -5.86 -0.8 5000012.3533
11.394240000000002 -6.32 -0.8 5000011.9904
11.394240000000002 -6.34 -0.8 5000011.9904
17.77464 5.38 -0.82 5000022.6244
18.57126 5.14 -0.82 5000023.9521
18.57126 5.0 -0.82 5000023.9521
15.83916 -4.18 -0.82 5000019.3986
15.3111 -4.28 -0.82 5000018.5185
13.6044 -4.88 -0.82 5000015.674
13.25658 -4.9 -0.82 5000015.0943
12.08952 -5.6 -0.82 5000013.1492
12.08952 -5.62 -0.82 5000013.1492
12.08952 -5.64 -0.82 5000013.1492
11.61198 -5.84 -0.82 5000012.3533
11.61198 -5.86 -0.82 5000012.3533
11.61198 -6.08 -0.82 5000012.3533
11.394240000000002 -6.32 -0.82 5000011.9904
11.394240000000002 -6.34 -0.82 5000011.9904
18.57126 5.0 -0.84 5000023.9521
19.467180000000003 4.28 -0.84 5000025.4453
15.83916 -4.18 -0.84 5000019.3986
15.83916 -4.2 -0.84 5000019.3986
13.6044 -4.84 -0.84 5000015.674
13.6044 -4.9 -0.84 5000015.674
12.08952 -5.6 -0.84 5000013.1492
12.08952 -5.62 -0.84 5000013.1492
11.61198 -5.86 -0.84 5000012.3533
11.61198 -6.08 -0.84 5000012.3533
11.61198 -6.1 -0.84 5000012.3533
11.394240000000002 -6.32 -0.84 5000011.9904
17.77464 5.64 -0.86 5000022.6244
12.08952 -5.62 -0.86 5000013.1492
11.61198 -5.88 -0.86 5000012.3533
11.61198 -6.08 -0.86 5000012.3533
11.394240000000002 -6.32 -0.86 5000011.9904
11.394240000000002 -6.34 -0.86 5000011.9904
15.3111 -4.26 -0.88 5000018.5185
13.25658 -4.9 -0.88 5000015.0943
11.61198 -5.86 -0.88 5000012.3533
11.61198 -5.88 -0.88 5000012.3533
11.61198 -6.08 -0.88 5000012.3533
11.61198 -6.1 -0.88 5000012.3533
11.394240000000002 -6.32 -0.88 5000011.9904
11.394240000000002 -6.34 -0.88 5000011.9904
13.6044 -4.9 -0.9 5000015.674
13.6044 -4.92 -0.9 5000015.674
12.08952 -5.6 -0.9 5000013.1492
12.08952 -5.62 -0.9 5000013.1492
11.61198 -5.86 -0.9 5000012.3533
11.61198 -5.88 -0.9 5000012.3533
11.61198 -5.9 -0.9 5000012.3533
11.61198 -6.06 -0.9 5000012.3533
11.61198 -6.08 -0.9 5000012.3533
11.61198 -6.1 -0.9 5000012.3533
11.394240000000002 -6.32 -0.9 5000011.9904
11.394240000000002 -6.34 -0.9 5000011.9904
17.06172 5.66 -0.92 5000021.4362
13.6044 -4.92 -0.92 5000015.674
12.08952 -5.58 -0.92 5000013.1492
12.08952 -5.6 -0.92 5000013.1492
12.08952 -5.62 -0.92 5000013.1492
11.61198 -6.06 -0.92 5000012.3533
11.61198 -6.08 -0.92 5000012.3533
11.61198 -6.1 -0.92 5000012.3533
11.394240000000002 -6.32 -0.92 5000011.9904
11.394240000000002 -6.34 -0.92 5000011.9904
17.06172 5.92 -0.94 5000021.4362
17.06172 5.66 -0.94 5000021.4362
12.08952 -5.58 -0.94 5000013.1492
12.08952 -5.6 -0.94 5000013.1492
12.08952 -5.62 -0.94 5000013.1492
11.394240000000002 -6.32 -0.94 5000011.9904
13.6044 -4.82 -0.96 5000015.674
12.08952 -5.62 -0.96 5000013.1492
17.77464 5.78 -0.98 5000022.6244
17.77464 5.46 -0.98 5000022.6244
17.77464 5.4 -0.98 5000022.6244
13.6044 -4.82 -0.98 5000015.674
12.08952 -5.62 -0.98 5000013.1492
12.08952 -5.74 -0.98 5000013.1492
12.08952 -5.76 -0.98 5000013.1492
11.61198 -5.84 -0.98 5000012.3533
11.61198 -5.86 -0.98 5000012.3533
17.77464 5.46 -1.0 5000022.6244
13.6044 -4.96 -1.0 5000015.674
13.6044 -4.98 -1.0 5000015.674
13.6044 -5.0 -1.0 5000015.674
12.08952 -5.62 -1.0 5000013.1492
11.61198 -5.84 -1.0 5000012.3533
11.61198 -5.86 -1.0 5000012.3533
17.06172 5.7 -1.02 5000021.4362
14.82888 -2.44 -1.02 5000017.7148
13.6044 -4.96 -1.02 5000015.674
13.6044 -4.98 -1.02 5000015.674
12.08952 -5.62 -1.02 5000013.1492
11.61198 -5.84 -1.02 5000012.3533
11.61198 -5.86 -1.02 5000012.3533
11.61198 -5.88 -1.02 5000012.3533
13.6044 -4.98 -1.04 5000015.674
12.08952 -5.6 -1.04 5000013.1492
12.08952 -5.62 -1.04 5000013.1492
12.08952 -5.64 -1.04 5000013.1492
14.386740000000001 -4.76 -1.06 5000016.9779
13.6044 -4.96 -1.06 5000015.674
13.6044 -4.98 -1.06 5000015.674
12.08952 -5.6 -1.06 5000013.1492
12.08952 -5.62 -1.06 5000013.1492
12.08952 -5.64 -1.06 5000013.1492
11.61198 -5.84 -1.06 5000012.3533
11.61198 -5.86 -1.06 5000012.3533
11.61198 -5.88 -1.06 5000012.3533
10.637759999999998 -6.74 -1.06 5000010.7296
14.386740000000001 -4.76 -1.08 5000016.9779
14.386740000000001 -4.78 -1.08 5000016.9779
14.386740000000001 -4.8 -1.08 5000016.9779
10.472879999999998 -6.72 -1.1 5000010.4548
10.472879999999998 -6.74 -1.1 5000010.4548
10.472879999999998 -6.72 -1.12 5000010.4548
10.472879999999998 -6.74 -1.12 5000010.4548
16.419959999999996 5.68 -1.14 5000020.3666
12.08952 -5.78 -1.2 5000013.1492
12.08952 -5.8 -1.2 5000013.1492
12.933599999999998 -6.54 -1.2 5000014.556
10.637759999999998 -6.7 -1.2 5000010.7296
10.637759999999998 -6.72 -1.2 5000010.7296
12.933599999999998 0.92 -1.22 5000014.556
10.637759999999998 -6.7 -1.22 5000010.7296
10.637759999999998 -6.72 -1.22 5000010.7296
11.843340000000001 -5.82 -1.28 5000012.7389
12.08952 -5.7 -1.34 5000013.1492
12.08952 -5.72 -1.34 5000013.1492
12.08952 1.64 -1.38 5000013.1492
11.843340000000001 1.62 -1.38 5000012.7389
11.843340000000001 1.16 -1.38 5000012.7389
11.843340000000001 1.16 -1.4 5000012.7389
11.843340000000001 1.14 -1.4 5000012.7389
11.843340000000001 1.58 -1.42 5000012.7389
11.61198 -6.14 -1.42 5000012.3533
11.61198 1.66 -1.44 5000012.3533
11.61198 1.64 -1.46 5000012.3533
12.3522 -2.82 -1.52 5000013.587
12.3522 -2.84 -1.52 5000013.587
12.08952 -2.86 -1.52 5000013.1492
12.08952 -2.88 -1.52 5000013.1492
11.61198 -2.9 -1.52 5000012.3533
11.61198 -2.92 -1.52 5000012.3533
11.394240000000002 -2.94 -1.52 5000011.9904
10.637759999999998 -6.74 -1.52 5000010.7296
11.61198 -2.92 -1.54 5000012.3533
11.394240000000002 -2.94 -1.54 5000011.9904
11.843340000000001 5.02 -1.58 5000012.7389
11.843340000000001 5.02 -1.6 5000012.7389
11.843340000000001 5.0 -1.6 5000012.7389
10.637759999999998 1.72 -1.62 5000010.7296
10.637759999999998 1.7 -1.64 5000010.7296
10.637759999999998 1.38 -1.64 5000010.7296
10.025244 3.4 -1.66 5000009.70874
10.637759999999998 1.7 -1.66 5000010.7296
10.637759999999998 1.68 -1.66 5000010.7296
10.637759999999998 1.36 -1.66 5000010.7296
10.025244 3.4 -1.68 5000009.70874
10.472879999999998 -5.42 -1.68 5000010.4548
10.472879999999998 -5.44 -1.68 5000010.4548
9.889902000000001 3.52 -1.7 5000009.48317
10.025244 3.4 -1.7 5000009.70874
10.316220000000001 1.96 -1.7 5000010.1937
10.316220000000001 1.94 -1.7 5000010.1937
10.316220000000001 -5.02 -1.7 5000010.1937
10.637759999999998 -5.34 -1.7 5000010.7296
10.472879999999998 -5.36 -1.7 5000010.4548
10.472879999999998 -5.38 -1.7 5000010.4548
10.472879999999998 -5.4 -1.7 5000010.4548
10.472879999999998 -5.42 -1.7 5000010.4548
9.889902000000001 3.52 -1.72 5000009.48317
9.889902000000001 3.5 -1.72 5000009.48317
10.16718 3.26 -1.72 5000009.9453
10.316220000000001 2.6 -1.72 5000010.1937
10.637759999999998 -5.32 -1.72 5000010.7296
10.637759999999998 -5.34 -1.72 5000010.7296
10.472879999999998 -5.36 -1.72 5000010.4548
10.472879999999998 -5.38 -1.72 5000010.4548
10.472879999999998 -5.4 -1.72 5000010.4548
10.16718 3.26 -1.74 5000009.9453
10.16718 3.24 -1.74 5000009.9453
10.16718 1.66 -1.74 5000009.9453
9.889902000000001 3.48 -1.76 5000009.48317
9.889902000000001 2.0 -1.78 5000009.48317
10.16718 1.26 -1.78 5000009.9453
10.025244 2.34 -1.8 5000009.70874
9.889902000000001 2.0 -1.8 5000009.48317
9.889902000000001 1.98 -1.82 5000009.48317
10.025244 2.74 -1.84 5000009.70874
9.889902000000001 2.54 -1.84 5000009.48317
9.760704 2.1 -1.84 5000009.26784
9.760704 2.08 -1.84 5000009.26784
9.760704 2.62 -1.86 5000009.26784
9.760704 2.06 -1.86 5000009.26784
9.760704 3.22 -1.88 5000009.26784
9.760704 2.62 -1.88 5000009.26784
9.760704 2.6 -1.88 5000009.26784
9.637241999999999 1.56 -1.88 5000009.06207
9.889902000000001 -5.36 -1.88 5000009.48317
9.637241999999999 3.28 -1.9 5000009.06207
9.637241999999999 1.62 -1.9 5000009.06207
9.637241999999999 1.6 -1.9 5000009.06207
9.889902000000001 -5.42 -1.9 5000009.48317
9.889902000000001 -5.44 -1.9 5000009.48317
9.637241999999999 3.28 -1.92 5000009.06207
9.637241999999999 3.26 -1.92 5000009.06207
9.637241999999999 1.6 -1.92 5000009.06207
9.51915 -5.62 -1.94 5000008.86525
9.51915 3.64 -1.96 5000008.86525
9.406074 3.88 -1.98 5000008.67679
9.51915 3.62 -1.98 5000008.86525
9.406074 1.9 -1.98 5000008.67679
10.025244 -5.28 -1.98 5000009.70874
10.025244 -5.3 -1.98 5000009.70874
10.025244 -5.32 -1.98 5000009.70874
9.889902000000001 -5.34 -1.98 5000009.48317
9.889902000000001 -5.36 -1.98 5000009.48317
9.637241999999999 -5.38 -1.98 5000009.06207
9.51915 -5.4 -1.98 5000008.86525
9.51915 -5.44 -1.98 5000008.86525
9.406074 -5.48 -1.98 5000008.67679
9.297708 -5.5 -1.98 5000008.49618
9.51915 -5.84 -1.98 5000008.86525
9.51915 -5.86 -1.98 5000008.86525
9.51915 -5.88 -1.98 5000008.86525
9.51915 -6.14 -1.98 5000008.86525
9.51915 -6.16 -1.98 5000008.86525
9.51915 2.46 -2.0 5000008.86525
10.025244 -5.32 -2.0 5000009.70874
9.889902000000001 -5.34 -2.0 5000009.48317
9.889902000000001 -5.36 -2.0 5000009.48317
9.637241999999999 -5.38 -2.0 5000009.06207
9.51915 -5.4 -2.0 5000008.86525
9.51915 -5.42 -2.0 5000008.86525
9.51915 -5.44 -2.0 5000008.86525
9.406074 -5.46 -2.0 5000008.67679
9.406074 -5.48 -2.0 5000008.67679
9.297708 -5.5 -2.0 5000008.49618
9.297708 -5.52 -2.0 5000008.49618
9.193757999999999 -5.54 -2.0 5000008.32293
9.406074 3.36 -2.04 5000008.67679
9.193757999999999 2.52 -2.04 5000008.32293
9.193757999999999 2.52 -2.06 5000008.32293
9.193757999999999 2.5 -2.06 5000008.32293
9.093966 1.94 -2.06 5000008.15661
9.093966 1.92 -2.06 5000008.15661
9.093966 2.72 -2.08 5000008.15661
9.093966 2.7 -2.08 5000008.15661
9.193757999999999 2.5 -2.08 5000008.32293
9.193757999999999 2.48 -2.08 5000008.32293
9.193757999999999 2.12 -2.08 5000008.32293
9.093966 2.0 -2.08 5000008.15661
9.093966 1.92 -2.08 5000008.15661
9.297708 -6.3 -2.08 5000008.49618
9.297708 -6.32 -2.08 5000008.49618
9.193757999999999 3.88 -2.1 5000008.32293
9.093966 3.8 -2.1 5000008.15661
9.193757999999999 3.56 -2.1 5000008.32293
9.193757999999999 3.2 -2.1 5000008.32293
9.093966 2.82 -2.1 5000008.15661
9.093966 2.8 -2.1 5000008.15661
9.093966 2.7 -2.1 5000008.15661
9.093966 2.6 -2.1 5000008.15661
9.093966 2.58 -2.1 5000008.15661
9.093966 2.48 -2.1 5000008.15661
9.093966 2.0 -2.1 5000008.15661
9.193757999999999 1.98 -2.1 5000008.32293
9.193757999999999 3.86 -2.12 5000008.32293
9.093966 3.78 -2.12 5000008.15661
9.193757999999999 3.54 -2.12 5000008.32293
9.637241999999999 2.88 -2.12 5000009.06207
9.637241999999999 2.86 -2.12 5000009.06207
9.093966 2.8 -2.12 5000008.15661
9.093966 2.78 -2.12 5000008.15661
9.093966 2.58 -2.12 5000008.15661
9.093966 2.56 -2.12 5000008.15661
9.193757999999999 -6.48 -2.12 5000008.32293
9.193757999999999 -6.5 -2.12 5000008.32293
9.093966 3.78 -2.14 5000008.15661
9.093966 3.76 -2.14 5000008.15661
9.093966 3.26 -2.14 5000008.15661
9.093966 2.92 -2.14 5000008.15661
9.637241999999999 2.9 -2.14 5000009.06207
9.093966 2.8 -2.14 5000008.15661
9.093966 2.78 -2.14 5000008.15661
9.093966 2.56 -2.14 5000008.15661
9.093966 2.54 -2.14 5000008.15661
9.093966 2.24 -2.14 5000008.15661
9.193757999999999 -6.56 -2.14 5000008.32293
9.193757999999999 -6.58 -2.14 5000008.32293
9.093966 4.06 -2.16 5000008.15661
9.093966 4.04 -2.16 5000008.15661
9.093966 3.56 -2.16 5000008.15661
8.99808 2.78 -2.16 5000007.9968
8.99808 2.76 -2.16 5000007.9968
9.093966 2.22 -2.16 5000008.15661
8.99808 3.56 -2.18 5000007.9968
8.99808 3.16 -2.18 5000007.9968
8.99808 3.1 -2.18 5000007.9968
8.817162000000001 4.32 -2.2 5000007.69527
8.905884 4.12 -2.2 5000007.84314
8.99808 3.64 -2.2 5000007.9968
8.99808 3.56 -2.2 5000007.9968
8.99808 3.16 -2.2 5000007.9968
8.905884 2.56 -2.2 5000007.84314
8.731722000000001 4.44 -2.22 5000007.55287
8.99808 3.96 -2.22 5000007.9968
8.905884 2.56 -2.22 5000007.84314
8.731722000000001 2.36 -2.22 5000007.55287
8.731722000000001 4.44 -2.24 5000007.55287
8.905884 4.2 -2.24 5000007.84314
8.905884 2.56 -2.24 5000007.84314
8.731722000000001 2.36 -2.24 5000007.55287
8.731722000000001 2.34 -2.24 5000007.55287
8.905884 4.2 -2.26 5000007.84314
8.905884 3.84 -2.26 5000007.84314
8.731722000000001 2.34 -2.26 5000007.55287
8.731722000000001 2.32 -2.26 5000007.55287
8.731722000000001 2.24 -2.26 5000007.55287
9.193757999999999 -6.08 -2.26 5000008.32293
8.569992 5.1 -2.28 5000007.28332
8.817162000000001 3.94 -2.28 5000007.69527
8.817162000000001 3.92 -2.28 5000007.69527
8.731722000000001 2.34 -2.28 5000007.55287
8.731722000000001 2.32 -2.28 5000007.55287
8.64939 2.3 -2.28 5000007.41565
9.093966 -6.1 -2.28 5000008.15661
9.093966 -6.12 -2.28 5000008.15661
8.99808 -6.14 -2.28 5000007.9968
8.817162000000001 -6.18 -2.28 5000007.69527
8.817162000000001 -6.2 -2.28 5000007.69527
8.731722000000001 -6.22 -2.28 5000007.55287
8.64939 4.44 -2.3 5000007.41565
8.817162000000001 3.92 -2.3 5000007.69527
8.731722000000001 3.34 -2.3 5000007.55287
8.731722000000001 3.32 -2.3 5000007.55287
8.64939 2.3 -2.3 5000007.41565
8.64939 2.28 -2.3 5000007.41565
8.817162000000001 1.68 -2.3 5000007.69527
8.99808 -6.14 -2.3 5000007.9968
8.905884 -6.16 -2.3 5000007.84314
8.817162000000001 -6.18 -2.3 5000007.69527
8.817162000000001 -6.2 -2.3 5000007.69527
8.731722000000001 -6.22 -2.3 5000007.55287
8.731722000000001 -6.24 -2.3 5000007.55287
8.569992 5.08 -2.32 5000007.28332
8.64939 4.44 -2.32 5000007.41565
8.731722000000001 4.02 -2.32 5000007.55287
8.731722000000001 3.4 -2.32 5000007.55287
8.731722000000001 2.76 -2.32 5000007.55287
8.64939 2.64 -2.32 5000007.41565
8.569992 2.56 -2.32 5000007.28332
8.64939 2.28 -2.32 5000007.41565
8.419410000000001 -6.28 -2.32 5000007.03235
8.419410000000001 -6.3 -2.32 5000007.03235
8.64939 4.44 -2.34 5000007.41565
8.731722000000001 4.02 -2.34 5000007.55287
8.731722000000001 3.38 -2.34 5000007.55287
8.569992 2.56 -2.34 5000007.28332
8.64939 1.9 -2.34 5000007.41565
8.731722000000001 1.76 -2.34 5000007.55287
8.64939 4.22 -2.36 5000007.41565
8.64939 3.54 -2.36 5000007.41565
8.64939 3.52 -2.36 5000007.41565
8.64939 3.5 -2.36 5000007.41565
8.569992 2.56 -2.36 5000007.28332
8.64939 4.22 -2.38 5000007.41565
8.493384 2.54 -2.38 5000007.15564
8.569992 4.52 -2.4 5000007.28332
8.64939 4.26 -2.4 5000007.41565
8.493384 2.6 -2.4 5000007.15564
8.493384 2.58 -2.4 5000007.15564
8.419410000000001 5.42 -2.42 5000007.03235
8.569992 4.52 -2.42 5000007.28332
8.569992 4.5 -2.42 5000007.28332
8.493384 3.64 -2.42 5000007.15564
8.27886 2.88 -2.42 5000006.7981
8.27886 2.86 -2.42 5000006.7981
8.493384 2.7 -2.42 5000007.15564
8.493384 2.68 -2.42 5000007.15564
8.419410000000001 2.58 -2.42 5000007.03235
8.419410000000001 5.42 -2.44 5000007.03235
8.419410000000001 5.4 -2.44 5000007.03235
8.419410000000001 4.6 -2.44 5000007.03235
8.419410000000001 4.58 -2.44 5000007.03235
8.419410000000001 4.36 -2.44 5000007.03235
8.419410000000001 4.34 -2.44 5000007.03235
8.419410000000001 4.1 -2.44 5000007.03235
8.419410000000001 4.08 -2.44 5000007.03235
8.419410000000001 4.06 -2.44 5000007.03235
8.419410000000001 3.66 -2.44 5000007.03235
8.419410000000001 3.64 -2.44 5000007.03235
8.493384 3.62 -2.44 5000007.15564
8.493384 3.22 -2.44 5000007.15564
8.27886 2.88 -2.44 5000006.7981
8.27886 2.86 -2.44 5000006.7981
8.419410000000001 2.7 -2.44 5000007.03235
8.419410000000001 2.68 -2.44 5000007.03235
8.347944 5.48 -2.46 5000006.91324
8.419410000000001 5.42 -2.46 5000007.03235
8.419410000000001 5.4 -2.46 5000007.03235
8.347944 5.08 -2.46 5000006.91324
8.347944 5.06 -2.46 5000006.91324
8.419410000000001 4.6 -2.46 5000007.03235
8.419410000000001 4.58 -2.46 5000007.03235
8.419410000000001 4.2 -2.46 5000007.03235
8.419410000000001 4.18 -2.46 5000007.03235
8.419410000000001 4.04 -2.46 5000007.03235
8.419410000000001 3.88 -2.46 5000007.03235
8.419410000000001 2.6 -2.46 5000007.03235
8.347944 5.48 -2.48 5000006.91324
8.347944 5.46 -2.48 5000006.91324
8.347944 5.1 -2.48 5000006.91324
8.347944 5.06 -2.48 5000006.91324
8.347944 5.04 -2.48 5000006.91324
8.419410000000001 4.58 -2.48 5000007.03235
8.419410000000001 4.18 -2.48 5000007.03235
8.419410000000001 4.16 -2.48 5000007.03235
8.419410000000001 3.88 -2.48 5000007.03235
8.419410000000001 3.86 -2.48 5000007.03235
8.419410000000001 3.68 -2.48 5000007.03235
8.419410000000001 2.66 -2.48 5000007.03235
8.347944 5.12 -2.5 5000006.91324
8.347944 5.1 -2.5 5000006.91324
8.347944 5.04 -2.5 5000006.91324
8.347944 4.3 -2.5 5000006.91324
8.347944 3.8 -2.5 5000006.91324
8.347944 5.12 -2.52 5000006.91324
8.347944 5.1 -2.52 5000006.91324
8.27886 3.8 -2.52 5000006.7981
8.347944 2.38 -2.52 5000006.91324
8.212038 4.78 -2.54 5000006.68673
8.212038 3.92 -2.54 5000006.68673
8.212038 2.76 -2.54 5000006.68673
8.27886 5.4 -2.56 5000006.7981
8.212038 4.12 -2.56 5000006.68673
8.212038 4.1 -2.56 5000006.68673
8.212038 3.92 -2.56 5000006.68673
8.27886 3.76 -2.56 5000006.7981
8.212038 4.08 -2.58 5000006.68673
8.084754 3.02 -2.58 5000006.47459
8.212038 2.44 -2.58 5000006.68673
8.212038 4.28 -2.6 5000006.68673
8.212038 4.16 -2.6 5000006.68673
8.212038 4.14 -2.6 5000006.68673
8.419410000000001 2.72 -2.6 5000007.03235
8.084754 2.68 -2.6 5000006.47459
8.084754 2.66 -2.6 5000006.47459
8.084754 2.64 -2.6 5000006.47459
8.147369999999999 2.18 -2.6 5000006.57895
8.147369999999999 5.02 -2.62 5000006.57895
8.212038 4.28 -2.62 5000006.68673
8.212038 4.12 -2.62 5000006.68673
8.084754 3.08 -2.62 5000006.47459
8.084754 2.72 -2.62 5000006.47459
8.084754 2.66 -2.62 5000006.47459
8.084754 2.64 -2.62 5000006.47459
8.084754 2.62 -2.62 5000006.47459
8.212038 2.24 -2.62 5000006.68673
8.147369999999999 5.0 -2.64 5000006.57895
8.212038 4.28 -2.64 5000006.68673
8.212038 4.26 -2.64 5000006.68673
7.908282 3.22 -2.64 5000006.18047
8.569992 2.92 -2.64 5000007.28332
8.024094 2.78 -2.64 5000006.37349
8.024094 2.76 -2.64 5000006.37349
8.084754 2.64 -2.64 5000006.47459
8.084754 2.62 -2.64 5000006.47459
8.212038 2.24 -2.64 5000006.68673
8.212038 2.22 -2.64 5000006.68673
8.212038 2.2 -2.64 5000006.68673
7.908282 3.92 -2.66 5000006.18047
7.908282 3.9 -2.66 5000006.18047
7.908282 3.8 -2.66 5000006.18047
8.024094 2.88 -2.66 5000006.37349
8.024094 2.78 -2.66 5000006.37349
8.024094 2.76 -2.66 5000006.37349
8.024094 2.74 -2.66 5000006.37349
8.024094 5.58 -2.68 5000006.37349
8.084754 4.66 -2.68 5000006.47459
8.084754 4.64 -2.68 5000006.47459
7.908282 3.8 -2.68 5000006.18047
7.908282 3.78 -2.68 5000006.18047
8.024094 2.78 -2.68 5000006.37349
8.024094 2.76 -2.68 5000006.37349
7.965294 2.74 -2.68 5000006.27549
7.965294 2.72 -2.68 5000006.27549
7.908282 2.7 -2.68 5000006.18047
7.965294 5.52 -2.7 5000006.27549
8.084754 5.02 -2.7 5000006.47459
7.908282 3.3 -2.7 5000006.18047
7.908282 3.14 -2.7 5000006.18047
7.908282 3.12 -2.7 5000006.18047
7.908282 3.1 -2.7 5000006.18047
7.965294 2.92 -2.7 5000006.27549
7.965294 2.9 -2.7 5000006.27549
8.024094 2.78 -2.7 5000006.37349
7.965294 2.74 -2.7 5000006.27549
7.965294 2.72 -2.7 5000006.27549
7.965294 5.6 -2.72 5000006.27549
7.908282 5.58 -2.72 5000006.18047
8.084754 5.02 -2.72 5000006.47459
7.908282 4.24 -2.72 5000006.18047
7.8529680000000015 3.98 -2.72 5000006.08828
7.908282 3.3 -2.72 5000006.18047
7.908282 3.28 -2.72 5000006.18047
7.908282 3.12 -2.72 5000006.18047
7.908282 3.1 -2.72 5000006.18047
7.965294 2.88 -2.72 5000006.27549
7.965294 5.82 -2.74 5000006.27549
8.147369999999999 5.64 -2.74 5000006.57895
7.908282 5.58 -2.74 5000006.18047
7.908282 5.56 -2.74 5000006.18047
7.965294 5.12 -2.74 5000006.27549
7.965294 5.1 -2.74 5000006.27549
7.908282 4.76 -2.74 5000006.18047
7.965294 4.62 -2.74 5000006.27549
7.965294 4.54 -2.74 5000006.27549
7.965294 4.52 -2.74 5000006.27549
7.908282 4.24 -2.74 5000006.18047
7.965294 5.86 -2.76 5000006.27549
7.965294 5.84 -2.76 5000006.27549
7.908282 5.46 -2.76 5000006.18047
7.908282 5.36 -2.76 5000006.18047
8.024094 4.96 -2.76 5000006.37349
8.024094 4.94 -2.76 5000006.37349
8.147369999999999 4.82 -2.76 5000006.57895
7.908282 4.76 -2.76 5000006.18047
7.965294 4.52 -2.76 5000006.27549
7.908282 4.38 -2.76 5000006.18047
7.908282 4.36 -2.76 5000006.18047
7.8529680000000015 4.1 -2.76 5000006.08828
7.8529680000000015 3.96 -2.76 5000006.08828
7.908282 3.5 -2.76 5000006.18047
7.908282 3.48 -2.76 5000006.18047
7.965294 5.84 -2.78 5000006.27549
7.8529680000000015 5.42 -2.78 5000006.08828
7.908282 5.36 -2.78 5000006.18047
7.8529680000000015 5.02 -2.78 5000006.08828
7.8529680000000015 4.82 -2.78 5000006.08828
7.908282 4.76 -2.78 5000006.18047
7.908282 4.64 -2.78 5000006.18047
7.908282 4.62 -2.78 5000006.18047
7.8529680000000015 4.08 -2.78 5000006.08828
7.7992799999999995 4.06 -2.78 5000005.9988
7.908282 3.5 -2.78 5000006.18047
7.908282 3.48 -2.78 5000006.18047
7.908282 3.46 -2.78 5000006.18047
7.8529680000000015 2.92 -2.78 5000006.08828
7.8529680000000015 2.9 -2.78 5000006.08828
7.8529680000000015 2.88 -2.78 5000006.08828
7.8529680000000015 2.5 -2.78 5000006.08828
7.8529680000000015 2.48 -2.78 5000006.08828
7.908282 2.08 -2.78 5000006.18047
7.908282 5.4 -2.8 5000006.18047
7.8529680000000015 4.86 -2.8 5000006.08828
7.8529680000000015 4.84 -2.8 5000006.08828
7.8529680000000015 4.64 -2.8 5000006.08828
7.908282 4.42 -2.8 5000006.18047
7.908282 4.4 -2.8 5000006.18047
7.747145999999999 4.04 -2.8 5000005.91191
7.747145999999999 4.02 -2.8 5000005.91191
7.908282 3.48 -2.8 5000006.18047
7.908282 3.46 -2.8 5000006.18047
7.908282 2.94 -2.8 5000006.18047
7.8529680000000015 2.88 -2.8 5000006.08828
7.908282 2.78 -2.8 5000006.18047
7.8529680000000015 2.48 -2.8 5000006.08828
7.8529680000000015 2.46 -2.8 5000006.08828
7.7992799999999995 4.92 -2.82 5000005.9988
7.8529680000000015 4.86 -2.82 5000006.08828
7.8529680000000015 4.84 -2.82 5000006.08828
7.8529680000000015 4.64 -2.82 5000006.08828
7.747145999999999 4.0 -2.82 5000005.91191
7.908282 2.94 -2.82 5000006.18047
7.8529680000000015 2.92 -2.82 5000006.08828
7.8529680000000015 2.46 -2.82 5000006.08828
7.8529680000000015 2.44 -2.82 5000006.08828
7.7992799999999995 4.92 -2.84 5000005.9988
7.7992799999999995 4.64 -2.84 5000005.9988
7.7992799999999995 4.56 -2.84 5000005.9988
7.8529680000000015 2.36 -2.84 5000006.08828
7.7992799999999995 4.58 -2.86 5000005.9988
7.7992799999999995 4.56 -2.86 5000005.9988
7.7992799999999995 4.54 -2.86 5000005.9988
7.7992799999999995 2.62 -2.86 5000005.9988
8.27886 -4.58 -2.86 5000006.7981
7.7992799999999995 4.96 -2.88 5000005.9988
7.7992799999999995 4.58 -2.88 5000005.9988
7.7992799999999995 4.56 -2.88 5000005.9988
7.7992799999999995 4.54 -2.88 5000005.9988
7.696506 4.0 -2.88 5000005.82751
8.27886 -4.58 -2.88 5000006.7981
8.212038 -4.6 -2.88 5000006.68673
8.084754 -4.62 -2.9 5000006.47459
8.024094 -4.64 -2.9 5000006.37349
7.965294 -4.66 -2.9 5000006.27549
7.8529680000000015 -4.72 -2.9 5000006.08828
7.8529680000000015 -4.74 -2.9 5000006.08828
7.8529680000000015 -4.82 -2.9 5000006.08828
7.8529680000000015 -4.84 -2.9 5000006.08828
7.8529680000000015 -4.86 -2.9 5000006.08828
7.7992799999999995 -4.88 -2.9 5000005.9988
7.7992799999999995 -4.9 -2.9 5000005.9988
7.696506 2.44 -2.92 5000005.82751
8.024094 -4.64 -2.92 5000006.37349
7.965294 -4.66 -2.92 5000006.27549
7.908282 -4.68 -2.92 5000006.18047
7.8529680000000015 -4.7 -2.92 5000006.08828
7.8529680000000015 -4.72 -2.92 5000006.08828
7.8529680000000015 -4.74 -2.92 5000006.08828
7.7992799999999995 -4.76 -2.92 5000005.9988
7.7992799999999995 -4.78 -2.92 5000005.9988
7.7992799999999995 -4.8 -2.92 5000005.9988
7.8529680000000015 -4.82 -2.92 5000006.08828
7.8529680000000015 -4.86 -2.92 5000006.08828
7.7992799999999995 -4.88 -2.92 5000005.9988
7.7992799999999995 -4.9 -2.92 5000005.9988
7.6472880000000005 -4.92 -2.92 5000005.74548
7.696506 5.08 -2.94 5000005.82751
7.8529680000000015 -4.72 -2.94 5000006.08828
7.8529680000000015 -4.74 -2.94 5000006.08828
7.7992799999999995 -4.76 -2.94 5000005.9988
7.7992799999999995 -4.78 -2.94 5000005.9988
7.7992799999999995 -4.8 -2.94 5000005.9988
7.7992799999999995 -4.9 -2.94 5000005.9988
7.6472880000000005 -4.92 -2.94 5000005.74548
7.552889999999999 -4.94 -2.94 5000005.58815
7.599432 5.36 -2.96 5000005.66572
7.599432 3.2 -2.96 5000005.66572
7.552889999999999 -4.96 -2.96 5000005.58815
7.463532 -4.98 -2.96 5000005.43922
7.599432 3.26 -2.98 5000005.66572
7.599432 3.22 -2.98 5000005.66572
7.599432 3.2 -2.98 5000005.66572
7.599432 3.18 -2.98 5000005.66572
7.6472880000000005 5.52 -3.0 5000005.74548
7.6472880000000005 5.5 -3.0 5000005.74548
8.024094 3.36 -3.0 5000006.37349
7.599432 3.26 -3.0 5000005.66572
7.599432 3.24 -3.0 5000005.66572
7.6472880000000005 5.5 -3.02 5000005.74548
7.6472880000000005 5.48 -3.02 5000005.74548
7.463532 4.4 -3.02 5000005.43922
8.024094 3.38 -3.02 5000006.37349
8.024094 3.36 -3.02 5000006.37349
7.552889999999999 3.26 -3.02 5000005.58815
7.599432 3.24 -3.02 5000005.66572
7.599432 3.22 -3.02 5000005.66572
7.6472880000000005 2.64 -3.02 5000005.74548
7.420614 4.66 -3.04 5000005.36769
7.420614 4.62 -3.04 5000005.36769
7.420614 4.46 -3.04 5000005.36769
7.552889999999999 3.22 -3.04 5000005.58815
7.6472880000000005 2.64 -3.04 5000005.74548
7.6472880000000005 2.62 -3.04 5000005.74548
7.507607999999999 5.38 -3.06 5000005.51268
7.463532 4.7 -3.06 5000005.43922
7.420614 4.62 -3.06 5000005.36769
7.420614 4.46 -3.06 5000005.36769
7.463532 4.44 -3.06 5000005.43922
7.507607999999999 3.44 -3.06 5000005.51268
7.552889999999999 3.3 -3.06 5000005.58815
7.6472880000000005 2.64 -3.06 5000005.74548
7.507607999999999 5.44 -3.08 5000005.51268
7.507607999999999 5.38 -3.08 5000005.51268
7.463532 4.7 -3.08 5000005.43922
7.463532 3.6 -3.08 5000005.43922
7.507607999999999 3.42 -3.08 5000005.51268
7.6472880000000005 2.3 -3.08 5000005.74548
7.507607999999999 5.5 -3.1 5000005.51268
7.507607999999999 5.48 -3.1 5000005.51268
7.507607999999999 5.38 -3.1 5000005.51268
7.378806 5.1 -3.1 5000005.29801
7.420614 4.7 -3.1 5000005.36769
7.507607999999999 3.58 -3.1 5000005.51268
7.507607999999999 3.48 -3.1 5000005.51268
7.507607999999999 3.46 -3.1 5000005.51268
7.507607999999999 5.5 -3.12 5000005.51268
7.507607999999999 5.48 -3.12 5000005.51268
7.507607999999999 5.46 -3.12 5000005.51268
7.420614 3.74 -3.12 5000005.36769
7.463532 3.66 -3.12 5000005.43922
7.463532 3.64 -3.12 5000005.43922
7.507607999999999 3.46 -3.12 5000005.51268
7.420614 5.86 -3.14 5000005.36769
7.507607999999999 5.5 -3.14 5000005.51268
7.507607999999999 5.48 -3.14 5000005.51268
7.507607999999999 5.46 -3.14 5000005.51268
7.378806 4.82 -3.14 5000005.29801
7.463532 2.8 -3.14 5000005.43922
7.378806 3.84 -3.16 5000005.29801
7.463532 2.76 -3.16 5000005.43922
7.420614 5.58 -3.18 5000005.36769
7.420614 5.56 -3.18 5000005.36769
7.338077999999999 3.96 -3.18 5000005.23013
7.420614 3.86 -3.18 5000005.36769
7.378806 3.84 -3.18 5000005.29801
7.378806 3.82 -3.18 5000005.29801
7.378806 3.8 -3.18 5000005.29801
7.463532 2.76 -3.18 5000005.43922
7.420614 5.58 -3.2 5000005.36769
7.420614 5.56 -3.2 5000005.36769
7.420614 3.6 -3.2 5000005.36769
7.378806 3.22 -3.2 5000005.29801
7.338077999999999 4.6 -3.22 5000005.23013
7.338077999999999 4.58 -3.22 5000005.23013
7.298376 4.46 -3.22 5000005.16396
7.378806 3.28 -3.22 5000005.29801
7.338077999999999 4.56 -3.24 5000005.23013
7.298376 4.48 -3.24 5000005.16396
7.298376 4.46 -3.24 5000005.16396
7.420614 3.64 -3.24 5000005.36769
7.378806 3.28 -3.24 5000005.29801
7.378806 3.26 -3.24 5000005.29801
7.221906000000001 5.9 -3.28 5000005.03651
7.221906000000001 5.88 -3.28 5000005.03651
7.298376 4.56 -3.28 5000005.16396
7.221906000000001 5.9 -3.3 5000005.03651
7.221906000000001 5.88 -3.3 5000005.03651
7.298376 4.56 -3.3 5000005.16396
7.298376 4.54 -3.3 5000005.16396
7.221906000000001 5.9 -3.32 5000005.03651
7.114037999999999 4.74 -3.32 5000004.85673
7.298376 4.54 -3.32 5000005.16396
7.185072 4.68 -3.36 5000004.97512
7.185072 4.6 -3.36 5000004.97512
7.221906000000001 3.58 -3.36 5000005.03651
7.185072 4.68 -3.38 5000004.97512
7.185072 4.66 -3.38 5000004.97512
7.221906000000001 4.58 -3.38 5000005.03651
7.149126 4.14 -3.38 5000004.91521
7.185072 4.66 -3.4 5000004.97512
7.185072 4.64 -3.4 5000004.97512
7.149126 4.14 -3.4 5000004.91521
7.149126 3.52 -3.44 5000004.91521
7.149126 3.48 -3.44 5000004.91521
7.149126 3.46 -3.44 5000004.91521
7.149126 3.46 -3.46 5000004.91521
7.149126 3.44 -3.46 5000004.91521
6.981642 4.5 -3.48 5000004.63607
7.114037999999999 3.98 -3.5 5000004.85673
7.114037999999999 3.96 -3.5 5000004.85673
7.114037999999999 3.96 -3.52 5000004.85673
7.114037999999999 3.94 -3.52 5000004.85673
7.149126 3.22 -3.52 5000004.91521
7.046298 4.62 -3.54 5000004.74383
7.013598 4.44 -3.54 5000004.68933
7.149126 3.2 -3.54 5000004.91521
6.919854 4.8 -3.56 5000004.53309
6.919854 4.8 -3.58 5000004.53309
6.919854 4.78 -3.58 5000004.53309
6.88998 4.7 -3.58 5000004.4833
6.919854 4.8 -3.6 5000004.53309
6.919854 4.78 -3.6 5000004.53309
6.88998 4.7 -3.6 5000004.4833
7.338077999999999 4.44 -3.6 5000005.23013
6.9504 4.32 -3.6 5000004.584
6.919854 4.28 -3.6 5000004.53309
7.046298 3.2 -3.6 5000004.74383
7.338077999999999 4.46 -3.62 5000005.23013
6.919854 4.36 -3.62 5000004.53309
6.919854 4.34 -3.62 5000004.53309
6.919854 4.28 -3.62 5000004.53309
6.919854 4.26 -3.62 5000004.53309
7.013598 3.14 -3.62 5000004.68933
7.013598 3.12 -3.62 5000004.68933
6.860754 5.02 -3.64 5000004.43459
6.860754 4.88 -3.64 5000004.43459
6.919854 4.54 -3.64 5000004.53309
7.338077999999999 4.48 -3.64 5000005.23013
6.919854 4.36 -3.64 5000004.53309
6.919854 4.34 -3.64 5000004.53309
6.919854 4.32 -3.64 5000004.53309
7.013598 3.14 -3.64 5000004.68933
7.013598 3.12 -3.64 5000004.68933
6.860754 4.86 -3.66 5000004.43459
6.919854 4.36 -3.66 5000004.53309
6.919854 4.34 -3.66 5000004.53309
6.919854 4.32 -3.66 5000004.53309
6.919854 4.3 -3.66 5000004.53309
6.9504 4.18 -3.66 5000004.584
6.9504 4.16 -3.66 5000004.584
6.9504 4.14 -3.66 5000004.584
6.919854 3.88 -3.66 5000004.53309
6.981642 3.26 -3.66 5000004.63607
7.013598 3.12 -3.66 5000004.68933
7.013598 3.1 -3.66 5000004.68933
6.981642 3.08 -3.66 5000004.63607
6.981642 4.64 -3.68 5000004.63607
6.860754 4.6 -3.68 5000004.43459
6.919854 4.3 -3.68 5000004.53309
6.88998 4.28 -3.68 5000004.4833
6.919854 3.88 -3.68 5000004.53309
6.981642 3.42 -3.68 5000004.63607
6.981642 3.08 -3.68 5000004.63607
6.981642 4.64 -3.7 5000004.63607
6.860754 4.6 -3.7 5000004.43459
6.832158 4.58 -3.7 5000004.38693
6.88998 4.26 -3.7 5000004.4833
6.981642 3.42 -3.7 5000004.63607
6.981642 3.4 -3.7 5000004.63607
6.981642 3.38 -3.7 5000004.63607
6.832158 4.58 -3.72 5000004.38693
6.832158 4.56 -3.72 5000004.38693
6.860754 3.94 -3.72 5000004.43459
6.981642 3.24 -3.72 5000004.63607
6.981642 3.22 -3.72 5000004.63607
6.88998 3.82 -3.74 5000004.4833
6.88998 3.8 -3.74 5000004.4833
7.046298 2.94 -3.76 5000004.74383
7.114037999999999 2.8 -3.76 5000004.85673
6.832158 4.52 -3.78 5000004.38693
6.776765999999999 4.94 -3.8 5000004.29461
6.804168 4.4 -3.82 5000004.34028
7.013598 3.06 -3.82 5000004.68933
6.88998 3.64 -3.84 5000004.4833
7.013598 3.06 -3.84 5000004.68933
6.776765999999999 4.2 -3.86 5000004.29461
7.013598 3.06 -3.86 5000004.68933
6.776765999999999 4.22 -3.88 5000004.29461
7.013598 3.06 -3.88 5000004.68933
6.776765999999999 4.22 -3.9 5000004.29461
6.776765999999999 4.2 -3.9 5000004.29461
6.804168 3.74 -3.9 5000004.34028
7.013598 3.04 -3.9 5000004.68933
6.776765999999999 4.22 -3.92 5000004.29461
6.776765999999999 4.2 -3.92 5000004.29461
6.804168 3.74 -3.92 5000004.34028
6.804168 3.72 -3.92 5000004.34028
6.804168 3.7 -3.92 5000004.34028
6.832158 3.4 -3.92 5000004.38693
7.013598 4.54 -3.94 5000004.68933
6.7499340000000005 4.48 -3.94 5000004.24989
6.981642 4.3 -3.94 5000004.63607
6.776765999999999 4.2 -3.94 5000004.29461
6.776765999999999 4.18 -3.94 5000004.29461
6.7499340000000005 4.16 -3.94 5000004.24989
6.832158 3.38 -3.94 5000004.38693
7.013598 4.56 -3.96 5000004.68933
6.72366 4.48 -3.96 5000004.2061
6.72366 4.46 -3.96 5000004.2061
6.72366 4.48 -3.98 5000004.2061
6.72366 4.46 -3.98 5000004.2061
6.776765999999999 3.62 -3.98 5000004.29461
6.88998 -1.26 -3.98 5000004.4833
6.88998 -1.28 -3.98 5000004.4833
6.672695999999999 4.86 -4.0 5000004.12116
6.672695999999999 4.84 -4.0 5000004.12116
6.72366 4.48 -4.0 5000004.2061
6.72366 4.46 -4.0 5000004.2061
6.72366 4.44 -4.0 5000004.2061
6.69792 4.42 -4.0 5000004.1632
6.69792 4.4 -4.0 5000004.1632
6.72366 4.38 -4.0 5000004.2061
6.7499340000000005 3.62 -4.0 5000004.24989
6.9504 1.74 -4.0 5000004.584
6.88998 -1.3 -4.0 5000004.4833
6.672695999999999 4.86 -4.02 5000004.12116
6.672695999999999 4.84 -4.02 5000004.12116
6.672695999999999 4.82 -4.02 5000004.12116
6.672695999999999 4.58 -4.02 5000004.12116
6.69792 4.44 -4.02 5000004.1632
6.69792 4.42 -4.02 5000004.1632
6.69792 4.4 -4.02 5000004.1632
6.72366 4.38 -4.02 5000004.2061
6.72366 4.36 -4.02 5000004.2061
6.72366 4.34 -4.02 5000004.2061
6.72366 4.32 -4.02 5000004.2061
6.72366 4.3 -4.02 5000004.2061
6.672695999999999 4.58 -4.04 5000004.12116
6.72366 4.36 -4.04 5000004.2061
6.72366 4.34 -4.04 5000004.2061
6.72366 4.32 -4.04 5000004.2061
6.72366 4.3 -4.04 5000004.2061
6.72366 4.28 -4.04 5000004.2061
6.69792 4.0 -4.04 5000004.1632
6.7499340000000005 3.58 -4.04 5000004.24989
6.69792 3.82 -4.1 5000004.1632
6.647982 4.3 -4.12 5000004.07997
6.647982 4.3 -4.14 5000004.07997
6.647982 4.28 -4.14 5000004.07997
6.647982 4.26 -4.14 5000004.07997
6.647982 4.36 -4.16 5000004.07997
6.647982 4.36 -4.18 5000004.07997
6.623754 4.2 -4.18 5000004.03959
6.623754 4.2 -4.2 5000004.03959
6.623754 4.58 -4.22 5000004.03959
6.623754 4.56 -4.22 5000004.03959
6.623754 4.56 -4.24 5000004.03959
6.623754 4.54 -4.24 5000004.03959
6.623754 4.52 -4.24 5000004.03959
6.623754 4.52 -4.26 5000004.03959
6.672695999999999 -2.5 -4.3 5000004.12116
6.69792 -3.72 -4.3 5000004.1632
6.69792 -3.74 -4.3 5000004.1632
6.672695999999999 -6.26 -4.3 5000004.12116
6.672695999999999 3.56 -4.38 5000004.12116
6.672695999999999 3.52 -4.38 5000004.12116
6.672695999999999 3.5 -4.38 5000004.12116
6.647982 3.6 -4.42 5000004.07997
6.647982 3.58 -4.42 5000004.07997
6.647982 3.56 -4.42 5000004.07997
6.647982 3.58 -4.44 5000004.07997
6.647982 3.56 -4.44 5000004.07997
6.647982 -0.12 -4.44 5000004.07997
6.647982 -0.14 -4.44 5000004.07997
6.623754 -1.24 -4.44 5000004.03959
6.623754 4.14 -4.88 5000004.03959
6.623754 4.16 -4.9 5000004.03959
6.623754 4.14 -4.9 5000004.03959
6.623754 4.18 -4.92 5000004.03959
6.623754 4.16 -4.92 5000004.03959
6.623754 4.2 -4.94 5000004.03959
6.623754 4.18 -4.94 5000004.03959
6.623754 4.22 -4.96 5000004.03959
6.623754 4.2 -4.96 5000004.03959
6.623754 4.24 -4.98 5000004.03959
6.623754 4.22 -4.98 5000004.03959
6.623754 4.24 -5.0 5000004.03959
6.623754 4.26 -5.02 5000004.03959
6.623754 4.14 -5.04 5000004.03959
6.623754 4.3 -5.1 5000004.03959
0001 4.22 -4.98 5000004.03959
5.615836000000001 4.24 -5.0 5000004.03959
5.615836000000001 4.26 -5.02 5000004.03959
5.615836000000001 4.14 -5.04 5000004.03959
5.615836000000001 4.3 -5.1 5000004.03959
-4.42 5000004.07997
9.631988 3.58 -4.44 5000004.07997
9.631988 3.56 -4.44 5000004.07997
9.631988 -0.12 -4.44 5000004.07997
9.631988 -0.14 -4.44 5000004.07997
9.615836 -1.24 -4.44 5000004.03959
9.615836 4.14 -4.88 5000004.03959
9.615836 4.16 -4.9 5000004.03959
9.615836 4.14 -4.9 5000004.03959
9.615836 4.18 -4.92 5000004.03959
9.615836 4.16 -4.92 5000004.03959
9.615836 4.2 -4.94 5000004.03959
9.615836 4.18 -4.94 5000004.03959
9.615836 4.22 -4.96 5000004.03959
9.615836 4.2 -4.96 5000004.03959
9.615836 4.24 -4.98 5000004.03959
9.615836 4.22 -4.98 5000004.03959
9.615836 4.24 -5.0 5000004.03959
9.615836 4.26 -5.02 5000004.03959
9.615836 4.14 -5.04 5000004.03959
9.615836 4.3 -5.1 5000004.03959
2116
9.648464 3.82 -4.02 5000004.12116
9.648464 3.58 -4.02 5000004.12116
9.66528 3.44 -4.02 5000004.1632
9.66528 3.42 -4.02 5000004.1632
9.66528 3.4 -4.02 5000004.1632
9.68244 3.38 -4.02 5000004.2061
9.68244 3.36 -4.02 5000004.2061
9.68244 3.34 -4.02 5000004.2061
9.68244 3.32 -4.02 5000004.2061
9.68244 3.3 -4.02 5000004.2061
9.648464 3.58 -4.04 5000004.12116
9.68244 3.36 -4.04 5000004.2061
9.68244 3.34 -4.04 5000004.2061
9.68244 3.32 -4.04 5000004.2061
9.68244 3.3 -4.04 5000004.2061
9.68244 3.28 -4.04 5000004.2061
9.66528 3.0 -4.04 5000004.1632
9.699956 2.58 -4.04 5000004.24989
9.66528 2.82 -4.1 5000004.1632
9.631988 3.3 -4.12 5000004.07997
9.631988 3.3 -4.14 5000004.07997
9.631988 3.28 -4.14 5000004.07997
9.631988 3.26 -4.14 5000004.07997
9.631988 3.36 -4.16 5000004.07997
9.631988 3.36 -4.18 5000004.07997
9.615836 3.2 -4.18 5000004.03959
9.615836 3.2 -4.2 5000004.03959
9.615836 3.58 -4.22 5000004.03959
9.615836 3.56 -4.22 5000004.03959
9.615836 3.56 -4.24 5000004.03959
9.615836 3.54 -4.24 5000004.03959
9.615836 3.52 -4.24 5000004.03959
9.615836 3.52 -4.26 5000004.03959
9.648464 -3.5 -4.3 5000004.12116
9.66528 -4.72 -4.3 5000004.1632
9.66528 -4.74 -4.3 5000004.1632
9.648464 -7.26 -4.3 5000004.12116
9.648464 2.56 -4.38 5000004.12116
9.648464 2.52 -4.38 5000004.12116
9.648464 2.5 -4.38 5000004.12116
9.631988 2.6 -4.42 5000004.07997
9.631988 2.58 -4.42 5000004.07997
9.631988 2.56 -4.42 5000004.07997
9.631988 2.58 -4.44 5000004.07997
9.631988 2.56 -4.44 5000004.07997
9.631988 -1.12 -4.44 5000004.07997
9.631988 -1.14 -4.44 5000004.07997
9.615836 -2.24 -4.44 5000004.03959
9.615836 3.14 -4.88 5000004.03959
9.615836 3.16 -4.9 5000004.03959
9.615836 3.14 -4.9 5000004.03959
9.615836 3.18 -4.92 5000004.03959
9.615836 3.16 -4.92 5000004.03959
9.615836 3.2 -4.94 5000004.03959
9.615836 3.18 -4.94 5000004.03959
9.615836 3.22 -4.96 5000004.03959
9.615836 3.2 -4.96 5000004.03959
9.615836 3.24 -4.98 5000004.03959
9.615836 3.22 -4.98 5000004.03959
9.615836 3.24 -5.0 5000004.03959
9.615836 3.26 -5.02 5000004.03959
9.615836 3.14 -5.04 5000004.03959
9.615836 3.3 -5.1 5000004.03959
5.166666666666666 2.533333333333333 5000014.556
10.39968 -16.766666666666666 2.533333333333333 5000011.9904
10.39968 -16.8 2.533333333333333 5000011.9904
10.39968 -16.833333333333332 2.533333333333333 5000011.9904
10.411776666666666 -17.733333333333334 2.533333333333333 5000012.3533
10.39968 -17.766666666666666 2.533333333333333 5000011.9904
10.39968 -17.8 2.533333333333333 5000011.9904
10.39968 -17.833333333333332 2.533333333333333 5000011.9904
10.388273333333334 -17.866666666666667 2.533333333333333 5000011.6482
11.232286666666667 3.0 2.5 5000036.9686
10.848176666666667 2.8666666666666667 2.5 5000025.4453
10.798403333333333 2.2666666666666666 2.5 5000023.9521
10.798403333333333 1.7333333333333334 2.5 5000023.9521
11.232286666666667 1.1333333333333333 2.5 5000036.9686
11.232286666666667 1.1 2.5 5000036.9686
10.71454 -12.933333333333334 2.5 5000021.4362
10.71454 -12.966666666666667 2.5 5000021.4362
10.71454 -13.0 2.5 5000021.4362
10.4852 -15.166666666666666 2.5 5000014.556
10.39968 -16.766666666666666 2.5 5000011.9904
10.39968 -16.8 2.5 5000011.9904
10.39968 -16.833333333333332 2.5 5000011.9904
10.39968 -17.766666666666666 2.5 5000011.9904
10.39968 -17.8 2.5 5000011.9904
10.39968 -17.833333333333332 2.5 5000011.9904
10.798403333333333 2.2666666666666666 2.466666666666667 5000023.9521
10.798403333333333 1.7333333333333334 2.466666666666667 5000023.9521
11.232286666666667 1.1333333333333333 2.466666666666667 5000036.9686
11.232286666666667 -1.7 2.466666666666667 5000036.9686
11.232286666666667 -2.066666666666667 2.466666666666667 5000036.9686
10.71454 -12.933333333333334 2.466666666666667 5000021.4362
10.71454 -12.966666666666667 2.466666666666667 5000021.4362
10.71454 -13.0 2.466666666666667 5000021.4362
10.39968 -16.8 2.466666666666667 5000011.9904
10.39968 -17.766666666666666 2.466666666666667 5000011.9904
