VERSION .7
FIELDS x y z rgb
SIZE 4 4 4 4
TYPE F F F F
COUNT 1 1 1 1
WIDTH 1614
HEIGHT 1
VIEWPOINT 0 0 0 1 0 0 0
POINTS 1614
DATA ascii
16.419959999999996 5.82 2.1 20.3666
16.419959999999996 5.7 2.1 20.3666
22.97934 3.7 2.1 31.2989
22.97934 3.68 2.1 31.2989
22.97934 3.62 2.1 31.2989
22.97934 3.02 2.1 31.2989
20.4822 -6.72 2.1 27.137
16.419959999999996 5.92 2.08 20.3666
16.419959999999996 5.9 2.08 20.3666
15.83916 5.74 2.08 19.3986
16.419959999999996 5.7 2.08 20.3666
16.419959999999996 5.64 2.08 20.3666
22.97934 3.7 2.08 31.2989
22.97934 3.02 2.08 31.2989
28.590239999999998 1.92 2.08 40.6504
16.419959999999996 5.92 2.06 20.3666
15.83916 5.7 2.06 19.3986
15.83916 5.84 2.04 19.3986
15.83916 5.76 2.04 19.3986
15.83916 5.7 2.04 19.3986
24.53898 5.6 2.04 33.8983
21.64188 -3.5 2.04 29.0698
16.419959999999996 5.76 2.02 20.3666
24.53898 5.22 2.02 33.8983
22.97934 4.9 2.02 31.2989
22.97934 3.66 2.02 31.2989
28.590239999999998 2.14 2.02 40.6504
21.64188 -3.92 2.02 29.0698
21.64188 -3.94 2.02 29.0698
16.419959999999996 5.78 2.0 20.3666
16.419959999999996 5.76 2.0 20.3666
22.97934 2.96 2.0 31.2989
20.4822 -3.68 2.0 27.137
21.64188 -3.94 2.0 29.0698
16.419959999999996 5.8 1.98 20.3666
16.419959999999996 5.78 1.98 20.3666
22.97934 5.66 1.98 31.2989
24.53898 5.34 1.98 33.8983
22.97934 3.02 1.98 31.2989
22.97934 2.96 1.98 31.2989
28.590239999999998 2.18 1.98 40.6504
28.590239999999998 1.92 1.98 40.6504
28.590239999999998 1.9 1.98 40.6504
21.64188 -3.96 1.98 29.0698
15.83916 5.84 1.96 19.3986
15.83916 5.82 1.96 19.3986
15.83916 5.8 1.96 19.3986
22.97934 5.66 1.96 31.2989
22.97934 3.02 1.96 31.2989
28.590239999999998 2.18 1.96 40.6504
28.590239999999998 1.92 1.96 40.6504
21.64188 -3.94 1.96 29.0698
21.64188 -3.96 1.96 29.0698
15.83916 5.84 1.94 19.3986
15.83916 5.82 1.94 19.3986
26.38116 4.9 1.94 36.9686
24.53898 4.78 1.94 33.8983
22.97934 4.64 1.94 31.2989
24.53898 3.44 1.94 33.8983
22.97934 3.02 1.94 31.2989
28.590239999999998 1.92 1.94 40.6504
15.83916 5.86 1.92 19.3986
15.83916 5.74 1.92 19.3986
24.53898 5.34 1.92 33.8983
26.38116 4.9 1.92 36.9686
24.53898 3.44 1.92 33.8983
28.590239999999998 1.92 1.92 40.6504
15.83916 5.82 1.9 19.3986
15.83916 5.74 1.9 19.3986
22.97934 5.46 1.9 31.2989
24.53898 5.34 1.9 33.8983
21.64188 2.96 1.9 29.0698
28.590239999999998 1.92 1.9 40.6504
20.4822 -3.92 1.9 27.137
15.83916 5.82 1.88 19.3986
15.83916 5.74 1.88 19.3986
24.53898 5.34 1.88 33.8983
24.53898 4.82 1.88 33.8983
22.97934 3.76 1.88 31.2989
44.74056 3.1 1.88 67.5676
28.590239999999998 1.92 1.88 40.6504
15.83916 5.92 1.86 19.3986
15.83916 5.76 1.86 19.3986
15.83916 5.74 1.86 19.3986
24.53898 4.9 1.86 33.8983
28.590239999999998 1.92 1.86 40.6504
15.83916 5.76 1.84 19.3986
24.53898 4.92 1.84 33.8983
24.53898 4.9 1.84 33.8983
22.97934 2.98 1.84 31.2989
28.590239999999998 1.92 1.84 40.6504
15.83916 5.76 1.82 19.3986
15.83916 5.74 1.82 19.3986
24.53898 4.92 1.82 33.8983
28.590239999999998 1.92 1.82 40.6504
21.64188 -3.92 1.82 29.0698
21.64188 -3.94 1.82 29.0698
21.64188 -3.96 1.82 29.0698
16.419959999999996 5.76 1.8 20.3666
16.419959999999996 5.74 1.8 20.3666
22.97934 5.58 1.8 31.2989
24.53898 4.92 1.8 33.8983
22.97934 2.98 1.8 31.2989
31.28802 2.2 1.8 45.1467
28.590239999999998 1.92 1.8 40.6504
16.419959999999996 5.76 1.78 20.3666
16.419959999999996 5.74 1.78 20.3666
22.97934 5.52 1.78 31.2989
24.53898 4.96 1.78 33.8983
26.38116 4.58 1.78 36.9686
22.97934 2.98 1.78 31.2989
28.590239999999998 1.92 1.78 40.6504
21.64188 -3.96 1.78 29.0698
16.419959999999996 5.76 1.76 20.3666
22.97934 5.48 1.76 31.2989
24.53898 4.98 1.76 33.8983
22.97934 2.98 1.76 31.2989
31.28802 1.92 1.76 45.1467
16.419959999999996 5.78 1.74 20.3666
16.419959999999996 5.76 1.74 20.3666
22.97934 5.48 1.74 31.2989
24.53898 5.3 1.74 33.8983
24.53898 5.04 1.74 33.8983
24.53898 4.98 1.74 33.8983
28.590239999999998 1.92 1.74 40.6504
21.64188 -3.96 1.74 29.0698
16.419959999999996 5.78 1.72 20.3666
16.419959999999996 5.76 1.72 20.3666
24.53898 5.3 1.72 33.8983
24.53898 5.0 1.72 33.8983
24.53898 4.98 1.72 33.8983
16.419959999999996 5.8 1.7 20.3666
16.419959999999996 5.78 1.7 20.3666
22.97934 5.52 1.7 31.2989
24.53898 5.0 1.7 33.8983
31.28802 2.3 1.7 45.1467
31.28802 2.1 1.7 45.1467
28.590239999999998 1.92 1.7 40.6504
31.28802 1.82 1.7 45.1467
21.64188 -3.94 1.7 29.0698
21.64188 -3.96 1.7 29.0698
16.419959999999996 5.84 1.68 20.3666
16.419959999999996 5.82 1.68 20.3666
22.97934 5.52 1.68 31.2989
24.53898 5.0 1.68 33.8983
31.28802 2.12 1.68 45.1467
28.590239999999998 1.92 1.68 40.6504
16.419959999999996 5.84 1.66 20.3666
22.97934 5.52 1.66 31.2989
24.53898 5.0 1.66 33.8983
26.38116 4.68 1.66 36.9686
31.28802 2.12 1.66 45.1467
16.419959999999996 5.88 1.64 20.3666
16.419959999999996 5.86 1.64 20.3666
16.419959999999996 5.84 1.64 20.3666
22.97934 5.24 1.64 31.2989
24.53898 5.0 1.64 33.8983
22.97934 4.78 1.64 31.2989
26.38116 4.68 1.64 36.9686
16.419959999999996 5.9 1.62 20.3666
16.419959999999996 5.88 1.62 20.3666
16.419959999999996 5.86 1.62 20.3666
24.53898 5.0 1.62 33.8983
31.28802 1.84 1.62 45.1467
38.9826 1.02 1.62 57.971
38.9826 1.0 1.62 57.971
21.64188 -3.92 1.62 29.0698
15.83916 5.94 1.6 19.3986
16.419959999999996 5.9 1.6 20.3666
24.53898 5.48 1.6 33.8983
24.53898 5.1 1.6 33.8983
24.53898 4.86 1.6 33.8983
31.28802 1.84 1.6 45.1467
38.9826 1.04 1.6 57.971
38.9826 1.02 1.6 57.971
16.419959999999996 5.86 1.58 20.3666
22.97934 5.7 1.58 31.2989
24.53898 5.48 1.58 33.8983
22.97934 5.24 1.58 31.2989
24.53898 4.22 1.58 33.8983
31.28802 1.84 1.58 45.1467
16.419959999999996 5.86 1.56 20.3666
22.97934 5.72 1.56 31.2989
24.53898 5.5 1.56 33.8983
24.53898 5.48 1.56 33.8983
24.53898 4.22 1.56 33.8983
21.64188 -3.72 1.56 29.0698
16.419959999999996 5.88 1.54 20.3666
16.419959999999996 5.86 1.54 20.3666
22.97934 5.72 1.54 31.2989
24.53898 5.48 1.54 33.8983
24.53898 5.3 1.54 33.8983
24.53898 5.06 1.54 33.8983
26.38116 4.84 1.54 36.9686
16.419959999999996 5.88 1.52 20.3666
16.419959999999996 5.86 1.52 20.3666
22.97934 5.72 1.52 31.2989
24.53898 5.48 1.52 33.8983
24.53898 5.28 1.52 33.8983
24.53898 5.26 1.52 33.8983
24.53898 5.06 1.52 33.8983
26.38116 -3.84 1.52 36.9686
21.64188 -3.92 1.52 29.0698
16.419959999999996 5.86 1.5 20.3666
22.97934 5.72 1.5 31.2989
24.53898 5.48 1.5 33.8983
24.53898 5.26 1.5 33.8983
38.9826 1.06 1.5 57.971
21.64188 -3.92 1.5 29.0698
22.97934 5.72 1.48 31.2989
24.53898 5.48 1.48 33.8983
24.53898 5.04 1.48 33.8983
24.53898 4.64 1.48 33.8983
28.590239999999998 1.8 1.48 40.6504
16.419959999999996 5.88 1.46 20.3666
22.97934 5.7 1.46 31.2989
24.53898 5.04 1.46 33.8983
24.53898 4.94 1.46 33.8983
28.590239999999998 1.8 1.46 40.6504
21.64188 -3.7 1.46 29.0698
24.53898 5.08 1.44 33.8983
26.38116 4.88 1.44 36.9686
28.590239999999998 1.8 1.44 40.6504
22.97934 5.54 1.42 31.2989
22.97934 5.5 1.42 31.2989
22.97934 5.48 1.42 31.2989
31.28802 2.08 1.42 45.1467
22.97934 5.92 1.4 31.2989
22.97934 5.52 1.4 31.2989
22.97934 5.5 1.4 31.2989
31.28802 2.08 1.4 45.1467
22.97934 5.92 1.38 31.2989
22.97934 5.52 1.38 31.2989
24.53898 5.24 1.38 33.8983
24.53898 4.82 1.38 33.8983
26.38116 4.72 1.38 36.9686
31.28802 2.08 1.38 45.1467
28.590239999999998 1.76 1.38 40.6504
22.97934 5.9 1.36 31.2989
22.97934 5.62 1.36 31.2989
22.97934 5.54 1.36 31.2989
28.590239999999998 1.76 1.36 40.6504
22.97934 5.9 1.34 31.2989
22.97934 5.54 1.34 31.2989
22.97934 5.9 1.32 31.2989
22.97934 5.56 1.32 31.2989
26.38116 4.78 1.32 36.9686
28.590239999999998 1.78 1.32 40.6504
22.97934 5.58 1.3 31.2989
22.97934 5.56 1.3 31.2989
26.38116 4.8 1.3 36.9686
28.590239999999998 1.78 1.3 40.6504
22.97934 5.58 1.28 31.2989
24.53898 5.0 1.28 33.8983
28.590239999999998 1.78 1.28 40.6504
24.53898 5.84 1.26 33.8983
24.53898 5.58 1.26 33.8983
24.53898 5.02 1.26 33.8983
24.53898 4.86 1.26 33.8983
24.53898 5.86 1.24 33.8983
24.53898 5.84 1.24 33.8983
24.53898 5.6 1.24 33.8983
24.53898 5.28 1.24 33.8983
24.53898 5.14 1.24 33.8983
24.53898 4.88 1.24 33.8983
24.53898 4.52 1.24 33.8983
28.590239999999998 1.82 1.24 40.6504
24.53898 5.84 1.22 33.8983
24.53898 5.6 1.22 33.8983
24.53898 5.14 1.22 33.8983
24.53898 4.9 1.22 33.8983
31.28802 1.82 1.22 45.1467
24.53898 5.84 1.2 33.8983
24.53898 5.16 1.2 33.8983
24.53898 5.06 1.2 33.8983
24.53898 4.92 1.2 33.8983
24.53898 4.9 1.2 33.8983
24.53898 5.2 1.18 33.8983
24.53898 5.16 1.18 33.8983
24.53898 4.94 1.18 33.8983
24.53898 4.92 1.18 33.8983
38.9826 4.12 1.18 57.971
31.28802 2.06 1.18 45.1467
22.97934 5.64 1.16 31.2989
26.38116 5.56 1.16 36.9686
24.53898 5.2 1.16 33.8983
24.53898 5.08 1.16 33.8983
26.38116 4.94 1.16 36.9686
28.590239999999998 1.86 1.16 40.6504
22.97934 5.92 1.14 31.2989
22.97934 5.64 1.14 31.2989
24.53898 5.4 1.14 33.8983
24.53898 5.08 1.14 33.8983
26.38116 4.94 1.14 36.9686
24.53898 4.44 1.14 33.8983
28.590239999999998 1.84 1.14 40.6504
22.97934 5.92 1.12 31.2989
22.97934 5.66 1.12 31.2989
22.97934 5.64 1.12 31.2989
24.53898 5.4 1.12 33.8983
24.53898 5.16 1.12 33.8983
26.38116 4.96 1.12 36.9686
24.53898 4.44 1.12 33.8983
28.590239999999998 1.86 1.12 40.6504
28.590239999999998 1.84 1.12 40.6504
22.97934 5.92 1.1 31.2989
22.97934 5.66 1.1 31.2989
24.53898 5.22 1.1 33.8983
24.53898 5.18 1.1 33.8983
26.38116 4.96 1.1 36.9686
24.53898 4.46 1.1 33.8983
34.65684 1.16 1.1 50.7614
22.97934 5.92 1.08 31.2989
22.97934 5.9 1.08 31.2989
22.97934 5.66 1.08 31.2989
24.53898 5.22 1.08 33.8983
24.53898 5.18 1.08 33.8983
26.38116 4.98 1.08 36.9686
26.38116 4.96 1.08 36.9686
26.38116 4.72 1.08 36.9686
22.97934 3.38 1.08 31.2989
22.97934 5.92 1.06 31.2989
22.97934 5.9 1.06 31.2989
22.97934 5.8 1.06 31.2989
22.97934 5.66 1.06 31.2989
22.97934 5.9 1.04 31.2989
22.97934 5.8 1.04 31.2989
22.97934 5.68 1.04 31.2989
22.97934 5.66 1.04 31.2989
22.97934 5.32 1.04 31.2989
24.53898 5.22 1.04 33.8983
24.53898 4.52 1.04 33.8983
31.28802 1.9 1.04 45.1467
21.64188 -3.96 1.04 29.0698
22.97934 5.9 1.02 31.2989
22.97934 5.68 1.02 31.2989
22.97934 5.66 1.02 31.2989
22.97934 5.54 1.02 31.2989
26.38116 5.38 1.02 36.9686
24.53898 5.0 1.02 33.8983
24.53898 4.98 1.02 33.8983
22.97934 5.68 1.0 31.2989
22.97934 5.54 1.0 31.2989
24.53898 5.2 1.0 33.8983
24.53898 5.18 1.0 33.8983
24.53898 5.02 1.0 33.8983
22.97934 5.92 0.98 31.2989
22.97934 5.76 0.98 31.2989
22.97934 5.68 0.98 31.2989
24.53898 5.2 0.98 33.8983
22.97934 5.92 0.96 31.2989
22.97934 5.9 0.96 31.2989
22.97934 5.76 0.96 31.2989
22.97934 5.68 0.96 31.2989
24.53898 5.2 0.96 33.8983
24.53898 5.08 0.96 33.8983
24.53898 5.06 0.96 33.8983
21.64188 -3.96 0.96 29.0698
22.97934 5.86 0.94 31.2989
22.97934 5.76 0.94 31.2989
22.97934 5.7 0.94 31.2989
22.97934 5.68 0.94 31.2989
22.97934 5.56 0.94 31.2989
24.53898 5.2 0.94 33.8983
24.53898 5.08 0.94 33.8983
22.97934 5.84 0.92 31.2989
22.97934 5.7 0.92 31.2989
22.97934 5.58 0.92 31.2989
24.53898 5.48 0.92 33.8983
22.97934 5.58 0.9 31.2989
24.53898 5.24 0.9 33.8983
24.53898 3.02 0.9 33.8983
22.97934 5.8 0.88 31.2989
22.97934 5.72 0.88 31.2989
22.97934 5.6 0.88 31.2989
24.53898 3.02 0.88 33.8983
24.53898 5.8 0.86 33.8983
22.97934 5.72 0.86 31.2989
24.53898 5.48 0.86 33.8983
24.53898 5.2 0.86 33.8983
24.53898 4.62 0.86 33.8983
24.53898 3.02 0.86 33.8983
24.53898 2.96 0.86 33.8983
24.53898 5.9 0.84 33.8983
24.53898 5.84 0.84 33.8983
24.53898 5.8 0.84 33.8983
22.97934 5.72 0.84 31.2989
22.97934 5.7 0.84 31.2989
24.53898 5.5 0.84 33.8983
22.97934 4.76 0.84 31.2989
24.53898 3.02 0.84 33.8983
24.53898 5.84 0.82 33.8983
22.97934 5.72 0.82 31.2989
24.53898 5.5 0.82 33.8983
24.53898 5.22 0.82 33.8983
24.53898 4.64 0.82 33.8983
21.64188 3.4 0.82 29.0698
24.53898 3.02 0.82 33.8983
24.53898 5.84 0.8 33.8983
22.97934 5.72 0.8 31.2989
24.53898 5.5 0.8 33.8983
24.53898 5.36 0.8 33.8983
24.53898 5.28 0.8 33.8983
24.53898 5.24 0.8 33.8983
24.53898 4.64 0.8 33.8983
21.64188 3.42 0.8 29.0698
24.53898 3.02 0.8 33.8983
24.53898 2.96 0.8 33.8983
22.97934 5.72 0.78 31.2989
24.53898 5.36 0.78 33.8983
24.53898 5.24 0.78 33.8983
21.64188 3.42 0.78 29.0698
24.53898 2.96 0.78 33.8983
22.97934 5.72 0.76 31.2989
24.53898 5.56 0.76 33.8983
24.53898 5.54 0.76 33.8983
24.53898 5.3 0.76 33.8983
24.53898 5.24 0.76 33.8983
24.53898 4.64 0.76 33.8983
28.590239999999998 4.44 0.76 40.6504
24.53898 3.02 0.76 33.8983
24.53898 2.96 0.76 33.8983
24.53898 5.9 0.74 33.8983
22.97934 5.72 0.74 31.2989
24.53898 5.56 0.74 33.8983
24.53898 5.26 0.74 33.8983
26.38116 4.92 0.74 36.9686
24.53898 3.02 0.74 33.8983
24.53898 2.96 0.74 33.8983
24.53898 5.9 0.72 33.8983
22.97934 5.72 0.72 31.2989
24.53898 5.56 0.72 33.8983
24.53898 5.28 0.72 33.8983
24.53898 4.7 0.72 33.8983
22.97934 3.4 0.72 31.2989
31.28802 1.96 0.72 45.1467
22.97934 5.72 0.7 31.2989
24.53898 5.48 0.7 33.8983
24.53898 5.46 0.7 33.8983
24.53898 5.3 0.7 33.8983
24.53898 5.28 0.7 33.8983
24.53898 5.02 0.7 33.8983
24.53898 4.72 0.7 33.8983
24.53898 4.66 0.7 33.8983
26.38116 4.64 0.7 36.9686
24.53898 4.5 0.7 33.8983
22.97934 3.4 0.7 31.2989
22.97934 3.38 0.7 31.2989
24.53898 3.02 0.7 33.8983
24.53898 2.96 0.7 33.8983
31.28802 1.96 0.7 45.1467
21.64188 -3.98 0.7 29.0698
24.53898 5.8 0.68 33.8983
22.97934 5.7 0.68 31.2989
24.53898 5.36 0.68 33.8983
24.53898 5.3 0.68 33.8983
22.97934 3.4 0.68 31.2989
24.53898 5.82 0.66 33.8983
24.53898 5.8 0.66 33.8983
22.97934 5.7 0.66 31.2989
24.53898 5.36 0.66 33.8983
24.53898 5.3 0.66 33.8983
22.97934 4.9 0.66 31.2989
24.53898 3.02 0.66 33.8983
24.53898 5.9 0.64 33.8983
24.53898 5.82 0.64 33.8983
22.97934 5.68 0.64 31.2989
24.53898 5.54 0.64 33.8983
24.53898 5.36 0.64 33.8983
24.53898 5.32 0.64 33.8983
24.53898 5.1 0.64 33.8983
26.38116 4.76 0.64 36.9686
24.53898 3.18 0.64 33.8983
24.53898 3.02 0.64 33.8983
24.53898 5.9 0.62 33.8983
24.53898 5.82 0.62 33.8983
24.53898 5.56 0.62 33.8983
24.53898 5.54 0.62 33.8983
24.53898 5.32 0.62 33.8983
24.53898 5.12 0.62 33.8983
26.38116 4.78 0.62 36.9686
26.38116 4.76 0.62 36.9686
22.97934 3.4 0.62 31.2989
24.53898 3.02 0.62 33.8983
24.53898 2.96 0.62 33.8983
21.64188 -3.98 0.62 29.0698
24.53898 5.82 0.6 33.8983
22.97934 5.66 0.6 31.2989
24.53898 5.56 0.6 33.8983
24.53898 5.54 0.6 33.8983
24.53898 5.32 0.6 33.8983
24.53898 5.14 0.6 33.8983
24.53898 4.8 0.6 33.8983
22.97934 3.4 0.6 31.2989
21.64188 -3.98 0.6 29.0698
21.64188 -4.0 0.6 29.0698
24.53898 5.82 0.58 33.8983
24.53898 5.56 0.58 33.8983
24.53898 5.34 0.58 33.8983
22.97934 3.4 0.58 31.2989
24.53898 3.02 0.58 33.8983
24.53898 2.96 0.58 33.8983
24.53898 5.82 0.56 33.8983
24.53898 5.56 0.56 33.8983
24.53898 5.54 0.56 33.8983
26.38116 5.18 0.56 36.9686
26.38116 5.16 0.56 36.9686
24.53898 4.76 0.56 33.8983
24.53898 4.74 0.56 33.8983
24.53898 5.84 0.54 33.8983
24.53898 5.82 0.54 33.8983
24.53898 5.54 0.54 33.8983
26.38116 5.34 0.54 36.9686
26.38116 5.32 0.54 36.9686
26.38116 4.86 0.54 36.9686
24.53898 4.78 0.54 33.8983
24.53898 4.76 0.54 33.8983
19.467180000000003 -6.5 0.54 25.4453
24.53898 5.88 0.52 33.8983
24.53898 5.82 0.52 33.8983
24.53898 5.66 0.52 33.8983
22.97934 5.6 0.52 31.2989
24.53898 5.34 0.52 33.8983
24.53898 4.8 0.52 33.8983
24.53898 4.78 0.52 33.8983
24.53898 3.02 0.52 33.8983
24.53898 2.96 0.52 33.8983
38.9826 1.16 0.52 57.971
24.53898 5.88 0.5 33.8983
24.53898 5.82 0.5 33.8983
22.97934 5.6 0.5 31.2989
24.53898 5.54 0.5 33.8983
24.53898 5.26 0.5 33.8983
24.53898 3.18 0.5 33.8983
38.9826 1.16 0.5 57.971
28.590239999999998 -5.06 0.5 40.6504
28.590239999999998 -5.08 0.5 40.6504
26.38116 -5.1 0.5 36.9686
24.53898 -5.12 0.5 33.8983
24.53898 -5.14 0.5 33.8983
22.97934 -5.16 0.5 31.2989
24.53898 5.88 0.48 33.8983
24.53898 5.82 0.48 33.8983
24.53898 5.54 0.48 33.8983
24.53898 5.42 0.48 33.8983
24.53898 5.32 0.48 33.8983
24.53898 5.3 0.48 33.8983
24.53898 5.28 0.48 33.8983
24.53898 4.86 0.48 33.8983
22.97934 3.36 0.48 31.2989
24.53898 2.96 0.48 33.8983
34.65684 1.16 0.48 50.7614
28.590239999999998 -5.06 0.48 40.6504
28.590239999999998 -5.08 0.48 40.6504
26.38116 -5.1 0.48 36.9686
24.53898 -5.12 0.48 33.8983
24.53898 -5.14 0.48 33.8983
20.4822 -6.64 0.48 27.137
24.53898 5.82 0.46 33.8983
22.97934 5.66 0.46 31.2989
22.97934 3.36 0.46 31.2989
24.53898 2.96 0.46 33.8983
34.65684 1.16 0.46 50.7614
20.4822 -6.52 0.46 27.137
20.4822 -6.54 0.46 27.137
24.53898 5.86 0.44 33.8983
24.53898 5.82 0.44 33.8983
24.53898 5.8 0.44 33.8983
22.97934 5.6 0.44 31.2989
24.53898 5.5 0.44 33.8983
24.53898 5.36 0.44 33.8983
24.53898 5.34 0.44 33.8983
24.53898 4.94 0.44 33.8983
24.53898 4.92 0.44 33.8983
22.97934 3.36 0.44 31.2989
24.53898 2.96 0.44 33.8983
34.65684 2.02 0.44 50.7614
34.65684 1.16 0.44 50.7614
24.53898 5.86 0.42 33.8983
24.53898 5.8 0.42 33.8983
24.53898 5.6 0.42 33.8983
24.53898 5.48 0.42 33.8983
24.53898 5.38 0.42 33.8983
22.97934 3.36 0.42 31.2989
24.53898 2.96 0.42 33.8983
34.65684 2.02 0.42 50.7614
34.65684 -3.74 0.42 50.7614
31.28802 -3.76 0.42 45.1467
31.28802 -3.78 0.42 45.1467
28.590239999999998 -3.8 0.42 40.6504
26.38116 -3.82 0.42 36.9686
26.38116 -3.84 0.42 36.9686
24.53898 5.86 0.4 33.8983
24.53898 5.8 0.4 33.8983
24.53898 5.78 0.4 33.8983
24.53898 5.6 0.4 33.8983
24.53898 5.4 0.4 33.8983
24.53898 5.08 0.4 33.8983
24.53898 2.96 0.4 33.8983
34.65684 2.02 0.4 50.7614
34.65684 -3.5 0.4 50.7614
38.9826 -3.72 0.4 57.971
34.65684 -3.74 0.4 50.7614
34.65684 -3.76 0.4 50.7614
31.28802 -3.78 0.4 45.1467
28.590239999999998 -3.8 0.4 40.6504
26.38116 -3.82 0.4 36.9686
26.38116 -3.84 0.4 36.9686
24.53898 5.84 0.38 33.8983
24.53898 5.78 0.38 33.8983
24.53898 5.6 0.38 33.8983
24.53898 5.42 0.38 33.8983
24.53898 5.4 0.38 33.8983
24.53898 3.18 0.38 33.8983
24.53898 3.1 0.38 33.8983
34.65684 2.02 0.38 50.7614
31.28802 1.68 0.38 45.1467
124.19999999999999 -3.66 0.38 200.0
84.7368 -3.68 0.38 134.228
26.38116 -3.82 0.38 36.9686
26.38116 -3.84 0.38 36.9686
24.53898 5.84 0.36 33.8983
24.53898 5.6 0.36 33.8983
24.53898 5.5 0.36 33.8983
24.53898 5.42 0.36 33.8983
24.53898 3.2 0.36 33.8983
24.53898 3.18 0.36 33.8983
34.65684 2.02 0.36 50.7614
31.28802 1.68 0.36 45.1467
34.65684 -3.74 0.36 50.7614
34.65684 -3.76 0.36 50.7614
28.590239999999998 -3.8 0.36 40.6504
28.590239999999998 -3.82 0.36 40.6504
26.38116 -3.84 0.36 36.9686
24.53898 5.76 0.34 33.8983
24.53898 5.74 0.34 33.8983
22.97934 5.6 0.34 31.2989
24.53898 5.5 0.34 33.8983
24.53898 5.44 0.34 33.8983
24.53898 5.42 0.34 33.8983
26.38116 4.9 0.34 36.9686
24.53898 3.2 0.34 33.8983
34.65684 2.02 0.34 50.7614
124.19999999999999 -3.66 0.34 200.0
124.19999999999999 -3.68 0.34 200.0
34.65684 -3.74 0.34 50.7614
34.65684 -3.76 0.34 50.7614
31.28802 -3.78 0.34 45.1467
28.590239999999998 -3.8 0.34 40.6504
28.590239999999998 -3.82 0.34 40.6504
22.97934 5.6 0.32 31.2989
24.53898 5.44 0.32 33.8983
24.53898 5.42 0.32 33.8983
124.19999999999999 5.34 0.32 200.0
38.9826 5.06 0.32 57.971
26.38116 4.9 0.32 36.9686
24.53898 3.1 0.32 33.8983
34.65684 1.16 0.32 50.7614
34.65684 -3.76 0.32 50.7614
31.28802 -3.78 0.32 45.1467
31.28802 -3.8 0.32 45.1467
22.97934 5.6 0.3 31.2989
24.53898 5.44 0.3 33.8983
124.19999999999999 5.34 0.3 200.0
26.38116 4.92 0.3 36.9686
24.53898 3.18 0.3 33.8983
24.53898 3.1 0.3 33.8983
34.65684 2.02 0.3 50.7614
34.65684 1.16 0.3 50.7614
24.53898 5.84 0.28 33.8983
24.53898 5.78 0.28 33.8983
38.9826 5.06 0.28 57.971
26.38116 4.92 0.28 36.9686
24.53898 3.2 0.28 33.8983
24.53898 3.1 0.28 33.8983
34.65684 2.02 0.28 50.7614
34.65684 1.16 0.28 50.7614
24.53898 5.44 0.26 33.8983
44.74056 5.06 0.26 67.5676
26.38116 4.92 0.26 36.9686
24.53898 3.2 0.26 33.8983
24.53898 3.18 0.26 33.8983
24.53898 3.1 0.26 33.8983
16.419959999999996 0.3 0.26 20.3666
22.97934 5.68 0.24 31.2989
24.53898 5.46 0.24 33.8983
24.53898 3.2 0.24 33.8983
24.53898 3.18 0.24 33.8983
24.53898 3.1 0.24 33.8983
34.65684 2.02 0.24 50.7614
16.419959999999996 0.3 0.24 20.3666
24.53898 5.62 0.22 33.8983
24.53898 5.46 0.22 33.8983
24.53898 3.1 0.22 33.8983
34.65684 2.02 0.22 50.7614
24.53898 5.46 0.2 33.8983
24.53898 5.26 0.2 33.8983
22.97934 3.64 0.2 31.2989
24.53898 3.1 0.2 33.8983
38.9826 2.02 0.2 57.971
38.9826 1.14 0.2 57.971
24.53898 5.84 0.18 33.8983
24.53898 5.46 0.18 33.8983
24.53898 3.1 0.18 33.8983
38.9826 1.14 0.18 57.971
38.9826 -3.56 0.18 57.971
38.9826 -3.58 0.18 57.971
38.9826 -3.6 0.18 57.971
34.65684 -3.62 0.18 50.7614
24.53898 5.32 0.16 33.8983
24.53898 5.3 0.16 33.8983
24.53898 3.1 0.16 33.8983
38.9826 2.02 0.16 57.971
34.65684 1.54 0.16 50.7614
44.74056 -3.54 0.16 67.5676
38.9826 -3.56 0.16 57.971
38.9826 -3.58 0.16 57.971
38.9826 -3.6 0.16 57.971
34.65684 -3.62 0.16 50.7614
24.53898 5.32 0.14 33.8983
24.53898 3.2 0.14 33.8983
24.53898 3.1 0.14 33.8983
38.9826 1.18 0.14 57.971
38.9826 -3.56 0.14 57.971
38.9826 -3.58 0.14 57.971
38.9826 -3.6 0.14 57.971
34.65684 -3.62 0.14 50.7614
24.53898 5.38 0.12 33.8983
24.53898 3.1 0.12 33.8983
24.53898 3.1 0.1 33.8983
24.53898 3.2 0.08 33.8983
24.53898 3.1 0.08 33.8983
24.53898 3.2 0.06 33.8983
24.53898 3.1 0.06 33.8983
24.53898 5.48 0.04 33.8983
24.53898 3.2 0.04 33.8983
24.53898 3.1 0.04 33.8983
31.28802 2.06 0.04 45.1467
24.53898 5.48 0.02 33.8983
24.53898 3.1 0.02 33.8983
31.28802 2.06 0.02 45.1467
10.637759999999998 -6.74 0.02 10.7296
22.97934 3.2 0.0 31.2989
24.53898 3.1 0.0 33.8983
31.28802 2.06 0.0 45.1467
10.637759999999998 -6.72 0.0 10.7296
24.53898 3.1 -0.02 33.8983
10.637759999999998 -6.7 -0.02 10.7296
22.97934 3.2 -0.04 31.2989
24.53898 3.1 -0.04 33.8983
31.28802 2.64 -0.04 45.1467
34.65684 2.42 -0.04 50.7614
24.53898 5.5 -0.06 33.8983
22.97934 3.2 -0.06 31.2989
24.53898 3.1 -0.06 33.8983
34.65684 2.42 -0.06 50.7614
10.811580000000001 -6.66 -0.06 11.0193
10.637759999999998 -6.68 -0.06 10.7296
24.53898 5.5 -0.08 33.8983
22.97934 3.2 -0.08 31.2989
24.53898 3.1 -0.08 33.8983
10.811580000000001 -6.64 -0.08 11.0193
10.811580000000001 -6.66 -0.08 11.0193
24.53898 5.5 -0.1 33.8983
24.53898 3.1 -0.1 33.8983
16.419959999999996 -4.28 -0.1 20.3666
16.419959999999996 -4.3 -0.1 20.3666
15.83916 -4.32 -0.1 19.3986
15.3111 -4.34 -0.1 18.5185
14.82888 -4.36 -0.1 17.7148
14.82888 -4.38 -0.1 17.7148
10.811580000000001 -6.62 -0.1 11.0193
24.53898 5.5 -0.12 33.8983
24.53898 3.1 -0.12 33.8983
14.82888 -4.36 -0.12 17.7148
10.811580000000001 -6.68 -0.12 11.0193
24.53898 5.5 -0.14 33.8983
31.28802 4.72 -0.14 45.1467
22.97934 3.2 -0.14 31.2989
24.53898 5.6 -0.16 33.8983
24.53898 5.5 -0.16 33.8983
31.28802 4.72 -0.16 45.1467
22.97934 3.38 -0.16 31.2989
12.63288 -5.96 -0.16 14.0548
12.63288 -5.98 -0.16 14.0548
10.811580000000001 -6.66 -0.16 11.0193
10.811580000000001 -6.68 -0.16 11.0193
24.53898 5.6 -0.18 33.8983
24.53898 5.5 -0.18 33.8983
31.28802 4.72 -0.18 45.1467
22.97934 3.4 -0.18 31.2989
22.97934 3.38 -0.18 31.2989
15.3111 -5.0 -0.18 18.5185
10.811580000000001 -6.62 -0.18 11.0193
10.811580000000001 -6.64 -0.18 11.0193
24.53898 5.6 -0.2 33.8983
38.9826 1.18 -0.2 57.971
15.3111 -5.0 -0.2 18.5185
10.811580000000001 -6.36 -0.2 11.0193
10.811580000000001 -6.38 -0.2 11.0193
10.811580000000001 -6.4 -0.2 11.0193
10.637759999999998 -6.42 -0.2 10.7296
11.394240000000002 -6.56 -0.2 11.9904
10.811580000000001 -6.62 -0.2 11.0193
10.811580000000001 -6.64 -0.2 11.0193
10.811580000000001 -6.66 -0.2 11.0193
24.53898 5.6 -0.22 33.8983
26.38116 5.42 -0.22 36.9686
22.97934 3.4 -0.22 31.2989
24.53898 3.18 -0.22 33.8983
38.9826 1.18 -0.22 57.971
15.83916 -4.52 -0.22 19.3986
15.83916 -4.54 -0.22 19.3986
10.811580000000001 -6.36 -0.22 11.0193
10.811580000000001 -6.38 -0.22 11.0193
10.811580000000001 -6.4 -0.22 11.0193
10.811580000000001 -6.64 -0.22 11.0193
10.811580000000001 -6.66 -0.22 11.0193
24.53898 5.6 -0.24 33.8983
22.97934 3.64 -0.24 31.2989
22.97934 3.4 -0.24 31.2989
15.83916 -1.26 -0.24 19.3986
15.83916 -4.54 -0.24 19.3986
10.811580000000001 -6.62 -0.24 11.0193
10.811580000000001 -6.64 -0.24 11.0193
24.53898 5.6 -0.26 33.8983
22.97934 3.4 -0.26 31.2989
84.7368 -0.96 -0.26 134.228
15.3111 -4.34 -0.26 18.5185
15.3111 -4.36 -0.26 18.5185
12.933599999999998 -5.88 -0.26 14.556
24.53898 5.6 -0.28 33.8983
22.97934 3.4 -0.28 31.2989
15.3111 -4.34 -0.28 18.5185
15.3111 -4.36 -0.28 18.5185
24.53898 5.6 -0.3 33.8983
22.97934 3.4 -0.3 31.2989
12.63288 -5.62 -0.3 14.0548
12.63288 -5.64 -0.3 14.0548
24.53898 5.6 -0.32 33.8983
26.38116 5.48 -0.32 36.9686
22.97934 3.42 -0.32 31.2989
22.97934 3.4 -0.32 31.2989
52.78302 -1.66 -0.32 80.9717
52.78302 -1.68 -0.32 80.9717
13.979940000000001 -4.9 -0.32 16.2999
13.979940000000001 -4.92 -0.32 16.2999
13.979940000000001 -4.94 -0.32 16.2999
13.979940000000001 -4.96 -0.32 16.2999
12.3522 -5.62 -0.32 13.587
12.3522 -5.64 -0.32 13.587
24.53898 5.6 -0.34 33.8983
26.38116 5.48 -0.34 36.9686
22.97934 3.4 -0.34 31.2989
44.74056 -1.44 -0.34 67.5676
44.74056 -1.46 -0.34 67.5676
44.74056 -1.48 -0.34 67.5676
44.74056 -1.5 -0.34 67.5676
52.78302 -1.64 -0.34 80.9717
52.78302 -1.66 -0.34 80.9717
52.78302 -1.68 -0.34 80.9717
13.979940000000001 -4.92 -0.34 16.2999
13.979940000000001 -4.94 -0.34 16.2999
13.979940000000001 -4.96 -0.34 16.2999
12.3522 -5.62 -0.34 13.587
12.3522 -5.64 -0.34 13.587
10.995 -6.48 -0.34 11.325
10.995 -6.5 -0.34 11.325
10.811580000000001 -6.52 -0.34 11.0193
10.811580000000001 -6.54 -0.34 11.0193
10.637759999999998 -6.56 -0.34 10.7296
24.53898 5.6 -0.36 33.8983
26.38116 5.48 -0.36 36.9686
22.97934 3.4 -0.36 31.2989
44.74056 -1.46 -0.36 67.5676
52.78302 -1.66 -0.36 80.9717
13.25658 -5.12 -0.36 15.0943
12.3522 -5.64 -0.36 13.587
11.843340000000001 -6.4 -0.36 12.7389
10.995 -6.48 -0.36 11.325
10.995 -6.5 -0.36 11.325
10.811580000000001 -6.52 -0.36 11.0193
10.472879999999998 -6.58 -0.36 10.4548
24.53898 5.6 -0.38 33.8983
26.38116 5.48 -0.38 36.9686
22.97934 3.4 -0.38 31.2989
15.3111 -4.26 -0.38 18.5185
15.3111 -4.28 -0.38 18.5185
15.3111 -4.34 -0.38 18.5185
13.979940000000001 -4.8 -0.38 16.2999
13.979940000000001 -4.82 -0.38 16.2999
13.979940000000001 -4.84 -0.38 16.2999
13.6044 -4.86 -0.38 15.674
13.25658 -5.1 -0.38 15.0943
12.3522 -5.64 -0.38 13.587
12.08952 -6.38 -0.38 13.1492
11.18892 -6.44 -0.38 11.6482
10.995 -6.46 -0.38 11.325
10.995 -6.48 -0.38 11.325
10.995 -6.5 -0.38 11.325
10.811580000000001 -6.52 -0.38 11.0193
24.53898 5.6 -0.4 33.8983
26.38116 5.48 -0.4 36.9686
15.3111 -4.34 -0.4 18.5185
13.979940000000001 -4.8 -0.4 16.2999
13.979940000000001 -4.82 -0.4 16.2999
13.979940000000001 -4.84 -0.4 16.2999
13.25658 -5.1 -0.4 15.0943
10.995 -6.48 -0.4 11.325
10.995 -6.5 -0.4 11.325
10.811580000000001 -6.52 -0.4 11.0193
24.53898 5.6 -0.42 33.8983
26.38116 5.48 -0.42 36.9686
22.97934 3.4 -0.42 31.2989
24.53898 3.1 -0.42 33.8983
14.386740000000001 -5.18 -0.42 16.9779
14.386740000000001 -5.2 -0.42 16.9779
13.25658 -5.26 -0.42 15.0943
12.3522 -5.66 -0.42 13.587
24.53898 5.6 -0.44 33.8983
26.38116 5.48 -0.44 36.9686
22.97934 3.4 -0.44 31.2989
12.3522 -5.64 -0.44 13.587
12.3522 -5.66 -0.44 13.587
12.3522 -5.68 -0.44 13.587
24.53898 5.6 -0.46 33.8983
26.38116 5.48 -0.46 36.9686
22.97934 3.4 -0.46 31.2989
17.06172 -3.64 -0.46 21.4362
24.53898 5.6 -0.48 33.8983
26.38116 5.48 -0.48 36.9686
22.97934 3.38 -0.48 31.2989
11.18892 -6.26 -0.48 11.6482
24.53898 5.6 -0.5 33.8983
26.38116 5.48 -0.5 36.9686
24.53898 5.6 -0.52 33.8983
24.53898 5.5 -0.52 33.8983
24.53898 5.6 -0.54 33.8983
24.53898 5.5 -0.54 33.8983
22.97934 3.34 -0.54 31.2989
22.97934 3.32 -0.54 31.2989
17.06172 -3.68 -0.54 21.4362
24.53898 5.6 -0.56 33.8983
24.53898 5.5 -0.56 33.8983
24.53898 5.48 -0.56 33.8983
22.97934 3.6 -0.56 31.2989
22.97934 3.34 -0.56 31.2989
15.83916 -4.02 -0.56 19.3986
15.83916 -4.04 -0.56 19.3986
15.83916 -4.06 -0.56 19.3986
12.63288 -5.64 -0.56 14.0548
12.63288 -5.66 -0.56 14.0548
12.3522 -5.68 -0.56 13.587
11.18892 -6.22 -0.56 11.6482
11.18892 -6.24 -0.56 11.6482
11.18892 -6.26 -0.56 11.6482
24.53898 5.6 -0.58 33.8983
24.53898 5.48 -0.58 33.8983
22.97934 3.34 -0.58 31.2989
22.97934 3.32 -0.58 31.2989
15.83916 -4.02 -0.58 19.3986
15.83916 -4.04 -0.58 19.3986
12.933599999999998 -5.58 -0.58 14.556
12.63288 -5.6 -0.58 14.0548
12.63288 -5.62 -0.58 14.0548
12.63288 -5.64 -0.58 14.0548
12.63288 -5.66 -0.58 14.0548
12.3522 -5.76 -0.58 13.587
12.3522 -5.78 -0.58 13.587
12.3522 -5.8 -0.58 13.587
11.18892 -6.22 -0.58 11.6482
24.53898 5.6 -0.6 33.8983
24.53898 5.48 -0.6 33.8983
22.97934 4.66 -0.6 31.2989
11.18892 -6.2 -0.6 11.6482
11.18892 -6.22 -0.6 11.6482
24.53898 5.6 -0.62 33.8983
24.53898 5.48 -0.62 33.8983
15.83916 -4.02 -0.62 19.3986
15.83916 -4.04 -0.62 19.3986
11.18892 -6.2 -0.62 11.6482
11.18892 -6.22 -0.62 11.6482
24.53898 5.6 -0.64 33.8983
24.53898 5.48 -0.64 33.8983
15.83916 -4.02 -0.64 19.3986
14.82888 -4.52 -0.64 17.7148
14.82888 -4.54 -0.64 17.7148
14.386740000000001 -4.56 -0.64 16.9779
14.386740000000001 -4.58 -0.64 16.9779
13.25658 -4.64 -0.64 15.0943
13.25658 -4.66 -0.64 15.0943
22.97934 5.6 -0.66 31.2989
22.97934 3.04 -0.66 31.2989
15.83916 -4.02 -0.66 19.3986
15.3111 -4.5 -0.66 18.5185
14.82888 -4.52 -0.66 17.7148
14.82888 -4.54 -0.66 17.7148
14.386740000000001 -4.56 -0.66 16.9779
14.82888 -4.54 -0.68 17.7148
14.386740000000001 -4.56 -0.68 16.9779
10.637759999999998 -6.7 -0.68 10.7296
10.637759999999998 -6.72 -0.68 10.7296
20.4822 5.72 -0.7 27.137
17.06172 -3.7 -0.72 21.4362
12.3522 -5.84 -0.72 13.587
12.3522 -5.86 -0.72 13.587
14.82888 -4.52 -0.74 17.7148
14.82888 -4.54 -0.74 17.7148
14.386740000000001 -4.56 -0.74 16.9779
12.63288 -5.82 -0.74 14.0548
12.3522 -5.84 -0.74 13.587
12.3522 -5.86 -0.74 13.587
12.3522 -5.88 -0.74 13.587
12.08952 -5.9 -0.74 13.1492
10.637759999999998 -6.7 -0.74 10.7296
10.637759999999998 -6.72 -0.74 10.7296
10.637759999999998 -6.74 -0.74 10.7296
21.64188 -4.34 -0.76 29.0698
21.64188 -4.36 -0.76 29.0698
17.06172 -4.42 -0.76 21.4362
17.06172 -4.44 -0.76 21.4362
16.419959999999996 -4.46 -0.76 20.3666
15.83916 -4.48 -0.76 19.3986
14.82888 -4.5 -0.76 17.7148
14.82888 -4.52 -0.76 17.7148
14.82888 -4.54 -0.76 17.7148
12.933599999999998 -5.24 -0.76 14.556
12.933599999999998 -5.26 -0.76 14.556
12.3522 -5.86 -0.76 13.587
12.3522 -5.88 -0.76 13.587
12.08952 -5.9 -0.76 13.1492
17.06172 -3.8 -0.78 21.4362
15.83916 -4.12 -0.78 19.3986
15.83916 -4.14 -0.78 19.3986
12.933599999999998 -5.22 -0.78 14.556
12.933599999999998 -5.24 -0.78 14.556
15.83916 -4.12 -0.8 19.3986
15.83916 -4.14 -0.8 19.3986
14.386740000000001 -4.62 -0.8 16.9779
14.386740000000001 -4.64 -0.8 16.9779
14.386740000000001 -4.66 -0.8 16.9779
12.933599999999998 -5.22 -0.8 14.556
12.933599999999998 -5.24 -0.8 14.556
10.472879999999998 -6.74 -0.8 10.4548
15.83916 -4.12 -0.82 19.3986
14.386740000000001 -4.64 -0.82 16.9779
14.386740000000001 -4.66 -0.82 16.9779
11.18892 -6.28 -0.82 11.6482
10.995 -6.3 -0.82 11.325
10.995 -6.32 -0.82 11.325
10.472879999999998 -6.74 -0.82 10.4548
15.83916 -4.04 -0.84 19.3986
12.933599999999998 -5.2 -0.84 14.556
12.933599999999998 -5.22 -0.84 14.556
12.933599999999998 -6.14 -0.84 14.556
11.18892 -6.26 -0.84 11.6482
11.18892 -6.28 -0.84 11.6482
11.18892 -6.3 -0.84 11.6482
10.995 -6.32 -0.84 11.325
17.06172 5.7 -0.86 21.4362
14.386740000000001 -4.54 -0.86 16.9779
12.933599999999998 -5.2 -0.86 14.556
11.18892 -6.24 -0.86 11.6482
11.18892 -6.26 -0.86 11.6482
11.18892 -6.28 -0.86 11.6482
10.811580000000001 -6.44 -0.86 11.0193
17.06172 5.7 -0.88 21.4362
17.06172 5.68 -0.88 21.4362
15.3111 -4.12 -0.88 18.5185
15.3111 -4.14 -0.88 18.5185
14.386740000000001 -4.66 -0.88 16.9779
12.933599999999998 -5.2 -0.88 14.556
11.18892 -6.26 -0.88 11.6482
14.386740000000001 -4.66 -0.9 16.9779
11.18892 -6.22 -0.9 11.6482
11.18892 -6.24 -0.9 11.6482
11.18892 -6.26 -0.9 11.6482
10.811580000000001 -6.46 -0.9 11.0193
10.811580000000001 -6.48 -0.9 11.0193
10.811580000000001 -6.5 -0.9 11.0193
10.637759999999998 -6.7 -0.9 10.7296
10.811580000000001 -6.48 -0.92 11.0193
10.811580000000001 -6.5 -0.92 11.0193
17.06172 5.42 -0.94 21.4362
12.63288 -5.3 -0.94 14.0548
12.63288 -5.38 -0.94 14.0548
12.63288 -5.4 -0.94 14.0548
11.18892 -6.2 -0.94 11.6482
11.18892 -6.22 -0.94 11.6482
11.18892 -6.24 -0.94 11.6482
10.811580000000001 -6.5 -0.94 11.0193
10.811580000000001 -6.52 -0.94 11.0193
17.06172 5.42 -0.96 21.4362
12.63288 -5.38 -0.96 14.0548
12.63288 -5.4 -0.96 14.0548
11.18892 -6.2 -0.98 11.6482
10.811580000000001 -6.52 -0.98 11.0193
10.811580000000001 -6.54 -0.98 11.0193
17.06172 5.58 -1.0 21.4362
14.386740000000001 -4.76 -1.0 16.9779
14.386740000000001 -4.78 -1.0 16.9779
12.933599999999998 -5.24 -1.0 14.556
10.811580000000001 -6.52 -1.0 11.0193
10.811580000000001 -6.54 -1.0 11.0193
14.386740000000001 -4.58 -1.02 16.9779
14.386740000000001 -4.6 -1.02 16.9779
14.386740000000001 -4.62 -1.02 16.9779
12.63288 -5.38 -1.02 14.0548
12.63288 -5.4 -1.02 14.0548
12.63288 -5.36 -1.04 14.0548
12.63288 -5.38 -1.04 14.0548
12.3522 -5.78 -1.04 13.587
12.3522 -5.8 -1.04 13.587
12.08952 -5.82 -1.04 13.1492
11.61198 -6.14 -1.04 12.3533
11.394240000000002 -6.16 -1.04 11.9904
11.394240000000002 -6.18 -1.04 11.9904
11.18892 -6.2 -1.04 11.6482
11.18892 -6.22 -1.04 11.6482
10.637759999999998 -6.54 -1.04 10.7296
10.637759999999998 -6.56 -1.04 10.7296
12.63288 -5.36 -1.06 14.0548
12.63288 -5.38 -1.06 14.0548
12.63288 -5.4 -1.06 14.0548
13.6044 -5.66 -1.06 15.674
13.6044 -5.68 -1.06 15.674
13.6044 -5.7 -1.06 15.674
13.25658 -5.72 -1.06 15.0943
12.933599999999998 -5.74 -1.06 14.556
12.63288 -5.76 -1.06 14.0548
12.3522 -5.78 -1.06 13.587
12.3522 -5.8 -1.06 13.587
12.08952 -5.82 -1.06 13.1492
11.843340000000001 -5.84 -1.06 12.7389
11.843340000000001 -5.86 -1.06 12.7389
11.61198 -5.88 -1.06 12.3533
12.933599999999998 -5.98 -1.06 14.556
12.933599999999998 -6.0 -1.06 14.556
12.08952 -6.08 -1.06 13.1492
11.843340000000001 -6.1 -1.06 12.7389
11.61198 -6.12 -1.06 12.3533
11.61198 -6.14 -1.06 12.3533
11.394240000000002 -6.16 -1.06 11.9904
11.394240000000002 -6.18 -1.06 11.9904
11.18892 -6.2 -1.06 11.6482
11.18892 -6.22 -1.06 11.6482
10.637759999999998 -6.54 -1.06 10.7296
10.637759999999998 -6.56 -1.06 10.7296
12.933599999999998 -5.22 -1.08 14.556
12.933599999999998 -5.24 -1.08 14.556
12.63288 -5.36 -1.08 14.0548
12.63288 -5.38 -1.08 14.0548
12.63288 -5.4 -1.08 14.0548
11.18892 -6.2 -1.08 11.6482
10.637759999999998 -6.56 -1.08 10.7296
12.933599999999998 -5.22 -1.1 14.556
12.933599999999998 -5.24 -1.1 14.556
12.63288 -5.36 -1.1 14.0548
12.63288 -5.38 -1.1 14.0548
12.63288 -5.4 -1.1 14.0548
10.637759999999998 -6.56 -1.1 10.7296
10.637759999999998 -6.58 -1.1 10.7296
12.933599999999998 -5.24 -1.12 14.556
12.63288 -5.38 -1.12 14.0548
10.995 -6.44 -1.12 11.325
10.637759999999998 -6.56 -1.12 10.7296
10.637759999999998 -6.58 -1.12 10.7296
12.933599999999998 -5.24 -1.14 14.556
12.933599999999998 -5.26 -1.14 14.556
10.995 -6.44 -1.14 11.325
10.995 -6.46 -1.14 11.325
10.637759999999998 -6.56 -1.14 10.7296
10.637759999999998 -6.58 -1.14 10.7296
10.995 -6.44 -1.16 11.325
10.995 -6.46 -1.16 11.325
10.637759999999998 -6.58 -1.16 10.7296
12.63288 -5.32 -1.18 14.0548
12.63288 -5.34 -1.18 14.0548
12.63288 -5.36 -1.18 14.0548
12.63288 -5.38 -1.18 14.0548
10.811580000000001 -6.44 -1.18 11.0193
10.811580000000001 -6.46 -1.18 11.0193
12.63288 -5.34 -1.2 14.0548
10.811580000000001 -6.44 -1.2 11.0193
10.811580000000001 -6.46 -1.2 11.0193
10.811580000000001 -6.48 -1.2 11.0193
10.637759999999998 -6.58 -1.2 10.7296
10.637759999999998 -6.6 -1.2 10.7296
10.637759999999998 -6.58 -1.22 10.7296
10.637759999999998 -6.6 -1.22 10.7296
10.811580000000001 -6.46 -1.24 11.0193
10.637759999999998 -6.58 -1.24 10.7296
10.637759999999998 -6.6 -1.24 10.7296
10.995 -6.44 -1.26 11.325
10.637759999999998 -6.6 -1.26 10.7296
10.637759999999998 -6.62 -1.28 10.7296
10.637759999999998 -6.6 -1.3 10.7296
10.637759999999998 -6.62 -1.3 10.7296
10.637759999999998 -6.64 -1.3 10.7296
10.637759999999998 -6.6 -1.32 10.7296
10.637759999999998 -6.62 -1.32 10.7296
13.6044 -2.86 -1.34 15.674
13.25658 -2.9 -1.34 15.0943
12.3522 -2.96 -1.34 13.587
10.995 -6.38 -1.34 11.325
10.637759999999998 -6.64 -1.34 10.7296
12.63288 3.92 -1.36 14.0548
12.63288 3.9 -1.36 14.0548
12.63288 3.88 -1.36 14.0548
12.3522 -2.94 -1.36 13.587
12.3522 -2.96 -1.36 13.587
12.3522 -2.98 -1.36 13.587
10.995 -6.38 -1.36 11.325
10.995 -6.4 -1.36 11.325
10.995 -6.42 -1.36 11.325
10.811580000000001 -6.44 -1.36 11.0193
10.995 -6.38 -1.38 11.325
10.995 -6.28 -1.4 11.325
10.995 -6.3 -1.4 11.325
10.811580000000001 -6.68 -1.4 11.0193
10.811580000000001 -6.7 -1.4 11.0193
10.995 -6.3 -1.42 11.325
10.811580000000001 -6.68 -1.42 11.0193
10.811580000000001 -6.7 -1.42 11.0193
10.995 -6.3 -1.44 11.325
10.811580000000001 -6.4 -1.44 11.0193
10.811580000000001 -6.42 -1.44 11.0193
10.811580000000001 -6.68 -1.44 11.0193
10.811580000000001 -6.7 -1.44 11.0193
10.811580000000001 -6.4 -1.46 11.0193
10.811580000000001 -6.42 -1.46 11.0193
10.811580000000001 -6.44 -1.46 11.0193
10.811580000000001 -6.68 -1.46 11.0193
10.811580000000001 -6.66 -1.48 11.0193
10.811580000000001 -6.68 -1.48 11.0193
10.995 -6.32 -1.5 11.325
10.811580000000001 -6.66 -1.5 11.0193
10.995 -6.32 -1.52 11.325
10.995 -6.34 -1.52 11.325
10.995 -6.34 -1.54 11.325
10.995 -6.36 -1.54 11.325
10.472879999999998 1.38 -1.56 10.4548
10.637759999999998 1.6 -1.58 10.7296
11.61198 5.06 -1.6 12.3533
11.61198 5.04 -1.6 12.3533
10.811580000000001 -6.2 -1.62 11.0193
10.811580000000001 -6.22 -1.62 11.0193
11.394240000000002 5.28 -1.64 11.9904
11.394240000000002 5.26 -1.64 11.9904
10.025244 1.68 -1.66 9.70874
10.025244 1.74 -1.68 9.70874
10.025244 1.72 -1.68 9.70874
10.025244 1.74 -1.7 9.70874
10.025244 1.72 -1.7 9.70874
9.760704 1.92 -1.78 9.26784
9.637241999999999 2.08 -1.8 9.06207
9.760704 1.92 -1.8 9.26784
9.637241999999999 1.72 -1.8 9.06207
9.760704 1.62 -1.8 9.26784
9.637241999999999 2.14 -1.82 9.06207
9.637241999999999 2.12 -1.82 9.06207
9.760704 1.54 -1.82 9.26784
9.637241999999999 2.12 -1.84 9.06207
9.637241999999999 2.1 -1.86 9.06207
9.51915 1.48 -1.86 8.86525
9.297708 2.68 -1.9 8.49618
9.297708 2.66 -1.92 8.49618
9.51915 1.82 -1.92 8.86525
9.51915 1.8 -1.92 8.86525
9.297708 2.9 -1.94 8.49618
9.406074 2.14 -1.94 8.67679
9.406074 2.12 -1.94 8.67679
9.193757999999999 3.0 -2.0 8.32293
9.193757999999999 2.92 -2.0 8.32293
9.093966 2.2 -2.0 8.15661
9.193757999999999 1.68 -2.0 8.32293
9.193757999999999 1.66 -2.0 8.32293
9.193757999999999 3.0 -2.02 8.32293
9.193757999999999 2.98 -2.02 8.32293
9.093966 2.2 -2.02 8.15661
9.093966 2.18 -2.02 8.15661
9.193757999999999 1.66 -2.02 8.32293
9.193757999999999 3.0 -2.04 8.32293
9.193757999999999 2.98 -2.04 8.32293
9.193757999999999 2.96 -2.04 8.32293
8.99808 2.3 -2.04 7.9968
9.093966 2.18 -2.04 8.15661
9.093966 2.08 -2.04 8.15661
9.093966 1.78 -2.04 8.15661
9.093966 1.76 -2.04 8.15661
9.193757999999999 1.66 -2.04 8.32293
9.297708 1.36 -2.04 8.49618
8.99808 2.3 -2.06 7.9968
8.99808 2.28 -2.06 7.9968
9.093966 2.06 -2.06 8.15661
9.093966 2.04 -2.06 8.15661
9.093966 1.88 -2.06 8.15661
9.093966 1.86 -2.06 8.15661
9.193757999999999 1.26 -2.06 8.32293
8.99808 2.3 -2.08 7.9968
8.99808 2.28 -2.08 7.9968
9.093966 2.12 -2.08 8.15661
9.093966 2.1 -2.08 8.15661
8.905884 3.0 -2.1 7.84314
8.905884 2.98 -2.1 7.84314
8.99808 2.44 -2.1 7.9968
8.99808 2.28 -2.1 7.9968
8.99808 2.26 -2.1 7.9968
9.093966 2.1 -2.1 8.15661
8.905884 3.78 -2.12 7.84314
8.905884 3.1 -2.12 7.84314
8.905884 3.0 -2.12 7.84314
8.905884 2.98 -2.12 7.84314
8.817162000000001 3.78 -2.14 7.69527
8.905884 3.1 -2.14 7.84314
8.905884 1.62 -2.14 7.84314
8.905884 1.6 -2.14 7.84314
8.905884 1.6 -2.16 7.84314
8.905884 1.58 -2.16 7.84314
8.817162000000001 3.74 -2.18 7.69527
8.731722000000001 2.5 -2.18 7.55287
8.817162000000001 3.74 -2.2 7.69527
8.731722000000001 3.18 -2.2 7.55287
8.731722000000001 3.16 -2.2 7.55287
8.731722000000001 2.68 -2.2 7.55287
9.093966 1.26 -2.2 8.15661
8.64939 3.52 -2.22 7.41565
8.64939 3.5 -2.22 7.41565
8.731722000000001 3.18 -2.22 7.55287
8.731722000000001 3.16 -2.22 7.55287
8.64939 2.82 -2.22 7.41565
8.731722000000001 2.74 -2.22 7.55287
8.731722000000001 2.72 -2.22 7.55287
8.569992 2.6 -2.22 7.28332
8.569992 2.58 -2.22 7.28332
9.093966 1.16 -2.22 8.15661
9.093966 1.14 -2.22 8.15661
8.64939 3.58 -2.24 7.41565
8.731722000000001 2.72 -2.24 7.55287
8.569992 2.16 -2.24 7.28332
8.569992 2.14 -2.24 7.28332
8.64939 1.82 -2.24 7.41565
8.64939 3.96 -2.26 7.41565
8.64939 2.88 -2.26 7.41565
8.569992 2.62 -2.26 7.28332
8.569992 2.46 -2.26 7.28332
8.569992 2.14 -2.26 7.28332
8.99808 1.36 -2.26 7.9968
8.99808 1.34 -2.26 7.9968
8.64939 4.12 -2.28 7.41565
8.64939 3.96 -2.28 7.41565
8.64939 3.94 -2.28 7.41565
8.493384 3.18 -2.28 7.15564
8.569992 3.08 -2.28 7.28332
8.569992 3.06 -2.28 7.28332
8.99808 1.36 -2.28 7.9968
8.99808 1.34 -2.28 7.9968
8.493384 4.32 -2.3 7.15564
8.64939 3.94 -2.3 7.41565
8.493384 3.4 -2.3 7.15564
8.493384 3.18 -2.3 7.15564
8.493384 3.16 -2.3 7.15564
8.569992 2.54 -2.3 7.28332
8.64939 2.3 -2.3 7.41565
8.905884 1.26 -2.3 7.84314
8.493384 4.44 -2.32 7.15564
8.493384 4.4 -2.32 7.15564
8.419410000000001 4.38 -2.32 7.03235
8.493384 4.28 -2.32 7.15564
8.419410000000001 2.64 -2.32 7.03235
8.64939 2.3 -2.32 7.41565
8.493384 4.4 -2.34 7.15564
8.493384 4.36 -2.34 7.15564
8.493384 4.34 -2.34 7.15564
8.493384 4.32 -2.34 7.15564
8.493384 3.18 -2.34 7.15564
8.905884 2.8 -2.34 7.84314
8.817162000000001 2.78 -2.34 7.69527
8.419410000000001 2.72 -2.34 7.03235
8.493384 3.16 -2.36 7.15564
8.419410000000001 2.74 -2.36 7.03235
8.419410000000001 2.72 -2.36 7.03235
8.419410000000001 2.7 -2.36 7.03235
8.27886 3.48 -2.38 6.7981
8.419410000000001 2.74 -2.38 7.03235
8.569992 -4.24 -2.38 7.28332
8.27886 3.46 -2.4 6.7981
8.817162000000001 -4.04 -2.4 7.69527
8.817162000000001 -4.06 -2.4 7.69527
8.731722000000001 -4.08 -2.4 7.55287
8.64939 -4.1 -2.4 7.41565
8.569992 -4.12 -2.4 7.28332
8.64939 -4.2 -2.4 7.41565
8.569992 -4.22 -2.4 7.28332
8.569992 -4.24 -2.4 7.28332
8.569992 -4.26 -2.4 7.28332
8.27886 4.3 -2.42 6.7981
8.347944 4.18 -2.42 6.91324
8.147369999999999 3.58 -2.42 6.57895
8.212038 3.4 -2.42 6.68673
8.212038 3.38 -2.42 6.68673
8.27886 3.24 -2.42 6.7981
8.817162000000001 -4.06 -2.42 7.69527
8.731722000000001 -4.08 -2.42 7.55287
8.64939 -4.1 -2.42 7.41565
8.569992 -4.12 -2.42 7.28332
8.493384 -4.14 -2.42 7.15564
8.493384 -4.16 -2.42 7.15564
8.493384 -4.18 -2.42 7.15564
8.64939 -4.2 -2.42 7.41565
8.569992 -4.24 -2.42 7.28332
8.569992 -4.26 -2.42 7.28332
8.419410000000001 -4.28 -2.42 7.03235
8.347944 5.08 -2.44 6.91324
8.147369999999999 4.36 -2.44 6.57895
8.27886 4.26 -2.44 6.7981
8.347944 4.18 -2.44 6.91324
8.347944 4.04 -2.44 6.91324
8.147369999999999 3.58 -2.44 6.57895
8.147369999999999 3.56 -2.44 6.57895
8.212038 3.4 -2.44 6.68673
8.212038 3.38 -2.44 6.68673
8.347944 -4.3 -2.44 6.91324
8.493384 -5.52 -2.44 7.15564
8.493384 -5.54 -2.44 7.15564
8.493384 -5.56 -2.44 7.15564
8.493384 -5.58 -2.44 7.15564
8.27886 5.18 -2.46 6.7981
8.147369999999999 4.36 -2.46 6.57895
8.212038 4.34 -2.46 6.68673
8.27886 4.04 -2.46 6.7981
8.147369999999999 3.56 -2.46 6.57895
8.147369999999999 3.54 -2.46 6.57895
8.212038 3.38 -2.46 6.68673
8.212038 3.36 -2.46 6.68673
8.212038 5.36 -2.48 6.68673
8.27886 4.04 -2.48 6.7981
8.084754 3.92 -2.48 6.47459
8.147369999999999 3.6 -2.48 6.57895
8.147369999999999 2.54 -2.48 6.57895
8.147369999999999 2.52 -2.48 6.57895
8.27886 2.06 -2.48 6.7981
8.27886 2.04 -2.48 6.7981
8.347944 1.74 -2.48 6.91324
8.347944 1.72 -2.48 6.91324
8.347944 -5.8 -2.48 6.91324
8.347944 -5.82 -2.48 6.91324
8.212038 5.36 -2.5 6.68673
8.084754 4.52 -2.5 6.47459
8.212038 4.04 -2.5 6.68673
8.212038 4.02 -2.5 6.68673
8.212038 3.06 -2.5 6.68673
8.084754 2.7 -2.5 6.47459
8.147369999999999 2.52 -2.5 6.57895
8.147369999999999 2.5 -2.5 6.57895
8.27886 2.04 -2.5 6.7981
8.347944 1.74 -2.5 6.91324
8.347944 1.72 -2.5 6.91324
8.493384 -5.6 -2.5 7.15564
8.347944 -6.0 -2.5 6.91324
8.147369999999999 5.48 -2.52 6.57895
8.084754 4.5 -2.52 6.47459
8.212038 4.04 -2.52 6.68673
8.212038 4.02 -2.52 6.68673
8.212038 4.0 -2.52 6.68673
8.493384 -5.66 -2.52 7.15564
8.419410000000001 -5.68 -2.52 7.03235
8.419410000000001 -6.2 -2.52 7.03235
8.147369999999999 4.82 -2.54 6.57895
8.147369999999999 4.8 -2.54 6.57895
8.084754 4.48 -2.54 6.47459
8.147369999999999 4.0 -2.54 6.57895
8.147369999999999 3.98 -2.54 6.57895
8.024094 3.6 -2.54 6.37349
8.024094 3.58 -2.54 6.37349
8.084754 2.66 -2.54 6.47459
8.212038 1.82 -2.54 6.68673
8.347944 -5.72 -2.54 6.91324
8.347944 -5.74 -2.54 6.91324
8.27886 -5.76 -2.54 6.7981
8.212038 -6.26 -2.54 6.68673
8.212038 -6.28 -2.54 6.68673
8.212038 -6.3 -2.54 6.68673
8.084754 4.96 -2.56 6.47459
8.024094 2.8 -2.56 6.37349
8.212038 1.82 -2.56 6.68673
8.212038 1.8 -2.56 6.68673
8.419410000000001 1.62 -2.56 7.03235
8.27886 -5.78 -2.56 6.7981
8.27886 -5.8 -2.56 6.7981
8.27886 -5.84 -2.56 6.7981
8.27886 -6.1 -2.56 6.7981
8.084754 4.96 -2.58 6.47459
8.084754 4.56 -2.58 6.47459
7.965294 2.86 -2.58 6.27549
8.212038 1.8 -2.58 6.68673
8.084754 4.56 -2.6 6.47459
8.084754 4.54 -2.6 6.47459
7.965294 2.86 -2.6 6.27549
8.024094 2.84 -2.6 6.37349
8.212038 -5.9 -2.6 6.68673
8.212038 -5.92 -2.6 6.68673
8.212038 -5.94 -2.6 6.68673
7.8529680000000015 4.86 -2.62 6.08828
8.084754 4.56 -2.62 6.47459
8.084754 4.54 -2.62 6.47459
7.908282 3.58 -2.62 6.18047
8.147369999999999 -5.98 -2.62 6.57895
8.147369999999999 -6.0 -2.62 6.57895
8.147369999999999 -6.02 -2.62 6.57895
7.8529680000000015 4.94 -2.64 6.08828
7.8529680000000015 4.84 -2.64 6.08828
7.908282 3.58 -2.64 6.18047
7.908282 3.56 -2.64 6.18047
7.908282 3.5 -2.64 6.18047
8.147369999999999 -6.02 -2.64 6.57895
8.147369999999999 -6.04 -2.64 6.57895
8.147369999999999 -6.06 -2.64 6.57895
7.965294 5.12 -2.66 6.27549
7.8529680000000015 4.94 -2.66 6.08828
7.8529680000000015 4.92 -2.66 6.08828
7.8529680000000015 4.84 -2.66 6.08828
7.8529680000000015 4.82 -2.66 6.08828
7.908282 4.7 -2.66 6.18047
7.908282 4.32 -2.66 6.18047
7.908282 3.84 -2.66 6.18047
7.908282 3.58 -2.66 6.18047
7.908282 3.56 -2.66 6.18047
7.908282 3.48 -2.66 6.18047
7.908282 3.46 -2.66 6.18047
7.908282 3.44 -2.66 6.18047
7.8529680000000015 3.08 -2.66 6.08828
8.147369999999999 -6.12 -2.66 6.57895
7.965294 5.12 -2.68 6.27549
7.965294 5.1 -2.68 6.27549
7.8529680000000015 4.92 -2.68 6.08828
7.8529680000000015 4.82 -2.68 6.08828
7.908282 4.76 -2.68 6.18047
7.908282 4.74 -2.68 6.18047
7.908282 4.32 -2.68 6.18047
7.908282 4.3 -2.68 6.18047
7.908282 4.26 -2.68 6.18047
7.908282 3.56 -2.68 6.18047
7.908282 3.44 -2.68 6.18047
7.8529680000000015 3.08 -2.68 6.08828
7.908282 2.94 -2.68 6.18047
7.908282 2.92 -2.68 6.18047
8.147369999999999 -6.14 -2.68 6.57895
8.147369999999999 -6.16 -2.68 6.57895
8.147369999999999 -6.18 -2.68 6.57895
7.908282 4.08 -2.7 6.18047
7.908282 2.92 -2.7 6.18047
7.7992799999999995 2.74 -2.7 5.9988
7.7992799999999995 2.68 -2.7 5.9988
8.147369999999999 -6.2 -2.7 6.57895
8.147369999999999 -6.22 -2.7 6.57895
7.8529680000000015 4.52 -2.72 6.08828
7.8529680000000015 3.6 -2.72 6.08828
7.8529680000000015 3.58 -2.72 6.08828
7.8529680000000015 3.56 -2.72 6.08828
7.8529680000000015 3.54 -2.72 6.08828
7.8529680000000015 3.04 -2.72 6.08828
7.8529680000000015 3.02 -2.72 6.08828
7.8529680000000015 2.88 -2.72 6.08828
7.7992799999999995 2.74 -2.72 5.9988
7.7992799999999995 2.72 -2.72 5.9988
7.8529680000000015 2.66 -2.72 6.08828
8.084754 -6.26 -2.72 6.47459
8.084754 -6.28 -2.72 6.47459
8.024094 -6.3 -2.72 6.37349
8.024094 -6.32 -2.72 6.37349
7.8529680000000015 3.58 -2.74 6.08828
7.8529680000000015 3.56 -2.74 6.08828
7.7992799999999995 3.54 -2.74 5.9988
7.8529680000000015 3.04 -2.74 6.08828
7.8529680000000015 3.02 -2.74 6.08828
7.8529680000000015 3.0 -2.74 6.08828
7.7992799999999995 2.98 -2.74 5.9988
7.7992799999999995 2.72 -2.74 5.9988
7.7992799999999995 2.7 -2.74 5.9988
8.024094 -6.34 -2.74 6.37349
7.7992799999999995 3.52 -2.76 5.9988
7.8529680000000015 3.04 -2.76 6.08828
7.8529680000000015 3.02 -2.76 6.08828
7.8529680000000015 3.0 -2.76 6.08828
7.7992799999999995 2.98 -2.76 5.9988
7.965294 -6.38 -2.76 6.27549
7.965294 -6.4 -2.76 6.27549
7.965294 -6.42 -2.76 6.27549
7.7992799999999995 5.08 -2.78 5.9988
7.747145999999999 3.72 -2.8 5.91191
7.747145999999999 3.5 -2.8 5.91191
7.7992799999999995 2.18 -2.8 5.9988
8.024094 -6.52 -2.8 6.37349
7.965294 -6.54 -2.8 6.27549
8.493384 4.28 -2.82 7.15564
8.493384 4.26 -2.82 7.15564
7.6472880000000005 4.1 -2.82 5.74548
7.6472880000000005 4.08 -2.82 5.74548
7.696506 3.86 -2.82 5.82751
7.747145999999999 3.48 -2.82 5.91191
7.747145999999999 2.54 -2.82 5.91191
7.7992799999999995 2.16 -2.82 5.9988
7.7992799999999995 2.14 -2.82 5.9988
7.965294 -6.58 -2.82 6.27549
7.6472880000000005 4.14 -2.84 5.74548
7.6472880000000005 4.08 -2.84 5.74548
7.6472880000000005 4.06 -2.84 5.74548
7.747145999999999 2.54 -2.84 5.91191
7.747145999999999 2.52 -2.84 5.91191
7.8529680000000015 -6.66 -2.84 6.08828
7.599432 5.68 -2.86 5.66572
7.599432 5.06 -2.86 5.66572
7.6472880000000005 4.06 -2.86 5.74548
