VERSION .7
FIELDS x y z rgb
SIZE 4 4 4 4
TYPE F F F F
COUNT 1 1 1 1
WIDTH 886
HEIGHT 1
VIEWPOINT 0 0 0 1 0 0 0
POINTS 886
DATA ascii
7.875731999999999 4.78 -3.64 5000004.68933
7.854428 3.74 -3.64 5000004.63607
7.854428 3.72 -3.64 5000004.63607
7.990048000000001 -4.7 -3.64 5000004.97512
7.990048000000001 -4.72 -3.64 5000004.97512
7.773835999999999 5.4 -3.66 5000004.43459
7.7933200000000005 4.88 -3.66 5000004.4833
7.7933200000000005 4.86 -3.66 5000004.4833
8.014604 3.84 -3.66 5000005.03651
7.854428 3.74 -3.66 5000004.63607
7.854428 3.72 -3.66 5000004.63607
7.854428 3.7 -3.66 5000004.63607
7.8336 3.56 -3.66 5000004.584
7.8336 3.54 -3.66 5000004.584
7.854428 2.98 -3.66 5000004.63607
7.7933200000000005 4.86 -3.68 5000004.4833
7.7933200000000005 4.84 -3.68 5000004.4833
7.8336 3.54 -3.68 5000004.584
7.854428 2.98 -3.68 5000004.63607
7.854428 2.96 -3.68 5000004.63607
7.736111999999999 4.44 -3.7 5000004.34028
7.813236 4.1 -3.7 5000004.53309
7.8336 3.52 -3.7 5000004.584
7.813236 3.12 -3.7 5000004.53309
7.813236 3.08 -3.7 5000004.53309
7.854428 2.96 -3.7 5000004.63607
7.854428 4.5 -3.72 5000004.63607
7.736111999999999 4.44 -3.72 5000004.34028
7.736111999999999 4.42 -3.72 5000004.34028
7.736111999999999 4.4 -3.72 5000004.34028
7.736111999999999 4.4 -3.74 5000004.34028
7.736111999999999 4.38 -3.74 5000004.34028
7.942692 4.2 -3.74 5000004.85673
7.736111999999999 4.56 -3.76 5000004.34028
7.7933200000000005 4.26 -3.76 5000004.4833
7.7933200000000005 4.24 -3.76 5000004.4833
7.736111999999999 4.12 -3.76 5000004.34028
7.736111999999999 4.1 -3.76 5000004.34028
7.736111999999999 4.58 -3.78 5000004.34028
7.736111999999999 4.56 -3.78 5000004.34028
7.736111999999999 4.54 -3.78 5000004.34028
7.736111999999999 4.52 -3.78 5000004.34028
7.736111999999999 4.12 -3.78 5000004.34028
7.736111999999999 4.1 -3.78 5000004.34028
7.736111999999999 4.08 -3.78 5000004.34028
7.736111999999999 5.12 -3.8 5000004.34028
7.736111999999999 5.1 -3.8 5000004.34028
7.7178439999999995 4.78 -3.8 5000004.29461
7.736111999999999 4.58 -3.8 5000004.34028
7.736111999999999 4.54 -3.8 5000004.34028
7.854428 2.96 -3.8 5000004.63607
7.699956 4.82 -3.82 5000004.24989
7.736111999999999 4.02 -3.82 5000004.34028
7.854428 2.96 -3.82 5000004.63607
7.699956 4.82 -3.84 5000004.24989
7.699956 4.8 -3.84 5000004.24989
7.736111999999999 4.16 -3.84 5000004.34028
7.699956 4.82 -3.86 5000004.24989
7.699956 4.44 -3.86 5000004.24989
7.648464000000001 5.4 -3.88 5000004.12116
7.68244 4.58 -3.88 5000004.2061
7.615836 5.82 -3.9 5000004.03959
7.615836 5.8 -3.9 5000004.03959
7.648464000000001 5.4 -3.9 5000004.12116
7.699956 5.08 -3.9 5000004.24989
7.699956 5.06 -3.9 5000004.24989
7.699956 4.6 -3.9 5000004.24989
7.68244 4.58 -3.9 5000004.2061
7.68244 4.56 -3.9 5000004.2061
7.699956 4.54 -3.9 5000004.24989
7.68244 4.5 -3.9 5000004.2061
7.68244 4.3 -3.9 5000004.2061
7.68244 4.28 -3.9 5000004.2061
7.7178439999999995 4.1 -3.9 5000004.29461
7.813236 3.98 -3.9 5000004.53309
7.736111999999999 3.62 -3.9 5000004.34028
7.736111999999999 3.6 -3.9 5000004.34028
7.615836 5.82 -3.92 5000004.03959
7.615836 5.8 -3.92 5000004.03959
7.648464000000001 5.4 -3.92 5000004.12116
7.699956 5.08 -3.92 5000004.24989
7.699956 5.06 -3.92 5000004.24989
7.68244 4.56 -3.92 5000004.2061
7.699956 4.54 -3.92 5000004.24989
7.68244 4.52 -3.92 5000004.2061
7.699956 4.32 -3.92 5000004.24989
7.68244 4.28 -3.92 5000004.2061
7.68244 4.26 -3.92 5000004.2061
7.813236 4.02 -3.92 5000004.53309
7.813236 3.98 -3.92 5000004.53309
7.699956 3.92 -3.92 5000004.24989
7.699956 3.9 -3.92 5000004.24989
7.68244 3.88 -3.92 5000004.2061
7.736111999999999 3.62 -3.92 5000004.34028
7.736111999999999 3.6 -3.92 5000004.34028
7.615836 5.8 -3.94 5000004.03959
7.68244 5.64 -3.94 5000004.2061
7.699956 3.9 -3.94 5000004.24989
7.68244 3.88 -3.94 5000004.2061
7.68244 3.86 -3.94 5000004.2061
7.68244 3.84 -3.94 5000004.2061
7.66528 3.82 -3.94 5000004.1632
7.736111999999999 3.64 -3.94 5000004.34028
7.736111999999999 3.62 -3.94 5000004.34028
7.736111999999999 3.6 -3.94 5000004.34028
7.631988 5.66 -4.0 5000004.07997
7.631988 5.88 -4.02 5000004.07997
7.615836 5.48 -4.02 5000004.03959
7.648464000000001 4.24 -4.02 5000004.12116
7.66528 3.74 -4.02 5000004.1632
7.66528 3.72 -4.02 5000004.1632
7.615836 5.48 -4.04 5000004.03959
7.615836 5.46 -4.04 5000004.03959
7.615836 5.8 -4.08 5000004.03959
7.648464000000001 3.82 -4.08 5000004.12116
7.648464000000001 3.8 -4.08 5000004.12116
7.773835999999999 2.34 -4.1 5000004.43459
7.773835999999999 2.32 -4.1 5000004.43459
7.7178439999999995 -0.08 -4.2 5000004.29461
7.7178439999999995 -0.1 -4.2 5000004.29461
7.66528 4.64 -4.22 5000004.1632
7.615836 4.58 -4.24 5000004.03959
7.615836 4.58 -4.26 5000004.03959
7.699956 5.2 -4.28 5000004.24989
7.615836 5.06 -4.28 5000004.03959
7.615836 5.04 -4.28 5000004.03959
7.699956 5.22 -4.3 5000004.24989
7.615836 5.06 -4.3 5000004.03959
7.615836 5.04 -4.3 5000004.03959
7.615836 5.04 -4.32 5000004.03959
7.615836 5.12 -4.34 5000004.03959
7.615836 5.12 -4.36 5000004.03959
7.631988 3.4 -4.36 5000004.07997
7.648464000000001 -1.42 -4.36 5000004.12116
7.615836 5.12 -4.38 5000004.03959
7.631988 3.4 -4.38 5000004.07997
7.631988 3.38 -4.38 5000004.07997
7.631988 3.36 -4.38 5000004.07997
7.648464000000001 1.5 -4.38 5000004.12116
7.648464000000001 1.48 -4.38 5000004.12116
7.631988 3.36 -4.4 5000004.07997
7.631988 2.48 -4.4 5000004.07997
7.631988 0.8 -4.42 5000004.07997
7.631988 0.78 -4.42 5000004.07997
7.631988 -5.1 -4.42 5000004.07997
7.615836 3.46 -4.46 5000004.03959
7.615836 3.44 -4.46 5000004.03959
7.615836 3.44 -4.48 5000004.03959
7.66528 2.12 -4.58 5000004.1632
7.66528 2.12 -4.6 5000004.1632
7.615836 0.94 -4.62 5000004.03959
7.615836 4.56 -4.72 5000004.03959
7.615836 4.54 -4.72 5000004.03959
7.615836 4.56 -4.74 5000004.03959
7.615836 4.6 -4.76 5000004.03959
7.615836 4.58 -4.76 5000004.03959
7.615836 4.62 -4.78 5000004.03959
7.615836 4.6 -4.78 5000004.03959
6 1.5 5000016.2999
10.4529 -15.866666666666667 1.5 5000013.587
10.357653333333333 -17.733333333333334 1.5 5000010.7296
10.438306666666668 -16.1 1.4666666666666666 5000013.1492
10.438306666666668 -16.133333333333333 1.4666666666666666 5000013.1492
10.438306666666668 -16.166666666666668 1.4666666666666666 5000013.1492
10.357653333333333 -17.733333333333334 1.4666666666666666 5000010.7296
10.54333 -4.766666666666667 1.4333333333333333 5000016.2999
10.438306666666668 -16.1 1.4333333333333333 5000013.1492
10.438306666666668 -16.133333333333333 1.4333333333333333 5000013.1492
10.4852 -16.7 1.4333333333333333 5000014.556
10.4852 -16.733333333333334 1.4333333333333333 5000014.556
10.468493333333333 -16.766666666666666 1.4333333333333333 5000014.0548
10.468493333333333 -16.8 1.4333333333333333 5000014.0548
10.4529 -16.833333333333332 1.4333333333333333 5000013.587
10.438306666666668 -16.866666666666667 1.4333333333333333 5000013.1492
10.42463 -16.9 1.4333333333333333 5000012.7389
10.411776666666666 -16.933333333333334 1.4333333333333333 5000012.3533
10.39968 -16.966666666666665 1.4333333333333333 5000011.9904
10.388273333333334 -17.0 1.4333333333333333 5000011.6482
10.388273333333334 -17.6 1.4333333333333333 5000011.6482
10.3775 -17.633333333333333 1.4333333333333333 5000011.325
10.357653333333333 -17.666666666666668 1.4333333333333333 5000010.7296
10.357653333333333 -17.733333333333334 1.4333333333333333 5000010.7296
10.438306666666668 -16.133333333333333 1.4 5000013.1492
10.4852 -16.666666666666668 1.4 5000014.556
10.4852 -16.7 1.4 5000014.556
10.4852 -16.733333333333334 1.4 5000014.556
10.468493333333333 -16.766666666666666 1.4 5000014.0548
10.468493333333333 -16.8 1.4 5000014.0548
10.4529 -16.833333333333332 1.4 5000013.587
10.438306666666668 -16.866666666666667 1.4 5000013.1492
10.42463 -16.9 1.4 5000012.7389
10.411776666666666 -16.933333333333334 1.4 5000012.3533
10.39968 -16.966666666666665 1.4 5000011.9904
10.388273333333334 -17.0 1.4 5000011.6482
10.388273333333334 -17.033333333333335 1.4 5000011.6482
10.3775 -17.066666666666666 1.4 5000011.325
10.4529 -17.266666666666666 1.4 5000013.587
10.4529 -17.3 1.4 5000013.587
10.4529 -17.333333333333332 1.4 5000013.587
10.42463 -17.4 1.4 5000012.7389
10.411776666666666 -17.433333333333334 1.4 5000012.3533
10.411776666666666 -17.466666666666665 1.4 5000012.3533
10.39968 -17.5 1.4 5000011.9904
10.39968 -17.533333333333335 1.4 5000011.9904
10.388273333333334 -17.566666666666666 1.4 5000011.6482
10.388273333333334 -17.6 1.4 5000011.6482
10.3775 -17.633333333333333 1.4 5000011.325
10.36731 -17.666666666666668 1.4 5000011.0193
10.357653333333333 -17.7 1.4 5000010.7296
10.357653333333333 -17.733333333333334 1.4 5000010.7296
10.357653333333333 -17.766666666666666 1.4 5000010.7296
10.4529 -15.833333333333334 1.3666666666666667 5000013.587
10.438306666666668 -16.133333333333333 1.3666666666666667 5000013.1492
10.438306666666668 -16.166666666666668 1.3666666666666667 5000013.1492
10.357653333333333 -17.7 1.3666666666666667 5000010.7296
10.357653333333333 -17.733333333333334 1.3666666666666667 5000010.7296
10.4529 -15.866666666666667 1.3333333333333333 5000013.587
10.438306666666668 -16.1 1.3333333333333333 5000013.1492
10.438306666666668 -16.133333333333333 1.3333333333333333 5000013.1492
10.438306666666668 -16.166666666666668 1.3333333333333333 5000013.1492
10.4529 -15.866666666666667 1.3 5000013.587
10.4529 -15.9 1.3 5000013.587
10.438306666666668 -16.133333333333333 1.3 5000013.1492
10.4529 -15.9 1.2666666666666666 5000013.587
10.4529 -16.0 1.2666666666666666 5000013.587
10.4529 -16.0 1.2 5000013.587
10.438306666666668 -16.033333333333335 1.2 5000013.1492
10.438306666666668 -16.066666666666666 1.2 5000013.1492
10.438306666666668 -16.1 1.2 5000013.1492
10.4529 -16.033333333333335 1.1666666666666667 5000013.587
10.4529 -16.066666666666666 1.1666666666666667 5000013.587
10.42463 -3.8666666666666667 1.1 5000012.7389
10.4529 -14.7 1.1 5000013.587
10.438306666666668 0.4 0.9333333333333333 5000013.1492
10.438306666666668 0.4 0.9 5000013.1492
10.438306666666668 0.36666666666666664 0.9 5000013.1492
10.438306666666668 0.3333333333333333 0.9 5000013.1492
10.4529 -11.633333333333333 0.9 5000013.587
10.4529 -11.666666666666666 0.9 5000013.587
10.4529 -11.7 0.9 5000013.587
10.4529 -11.733333333333333 0.9 5000013.587
10.42463 -11.766666666666667 0.9 5000012.7389
10.411776666666666 -11.8 0.9 5000012.3533
10.39968 -11.833333333333334 0.9 5000011.9904
10.388273333333334 -11.866666666666667 0.9 5000011.6482
10.411776666666666 -11.8 0.8666666666666667 5000012.3533
10.39968 -11.833333333333334 0.8666666666666667 5000011.9904
10.388273333333334 -11.866666666666667 0.8666666666666667 5000011.6482
10.3775 -11.9 0.8666666666666667 5000011.325
10.348493333333334 -17.9 0.8333333333333334 5000010.4548
10.348493333333334 -17.866666666666667 0.8 5000010.4548
10.348493333333334 -17.9 0.8 5000010.4548
10.348493333333334 -17.9 0.7666666666666667 5000010.4548
10.348493333333334 -17.9 0.7 5000010.4548
10.357653333333333 -2.3 0.6333333333333333 5000010.7296
10.33979 -4.433333333333334 0.5666666666666667 5000010.1937
10.33979 -4.466666666666667 0.5666666666666667 5000010.1937
10.33979 -4.466666666666667 0.5333333333333333 5000010.1937
10.357653333333333 -16.733333333333334 0.5333333333333333 5000010.7296
10.357653333333333 -16.766666666666666 0.5333333333333333 5000010.7296
10.323624666666667 -4.0 0.4666666666666667 5000009.70874
10.323624666666667 -4.033333333333333 0.4666666666666667 5000009.70874
10.36731 2.6 0.43333333333333335 5000011.0193
10.36731 2.566666666666667 0.43333333333333335 5000011.0193
10.36731 2.533333333333333 0.43333333333333335 5000011.0193
10.33151 -3.6 0.43333333333333335 5000009.9453
10.36731 3.0 0.36666666666666664 5000011.0193
10.36731 2.966666666666667 0.36666666666666664 5000011.0193
10.316105666666667 -3.6333333333333333 0.36666666666666664 5000009.48317
10.33151 -17.766666666666666 0.36666666666666664 5000009.9453
10.33151 -17.8 0.36666666666666664 5000009.9453
10.33151 -17.833333333333332 0.36666666666666664 5000009.9453
10.36731 2.966666666666667 0.3333333333333333 5000011.0193
10.36731 2.933333333333333 0.3333333333333333 5000011.0193
10.316105666666667 -3.1666666666666665 0.3333333333333333 5000009.48317
10.316105666666667 -3.6333333333333333 0.3333333333333333 5000009.48317
10.316105666666667 -3.2333333333333334 0.3 5000009.48317
10.302069 -3.433333333333333 0.26666666666666666 5000009.06207
10.357653333333333 -3.1666666666666665 0.23333333333333334 5000010.7296
10.302069 -3.2666666666666666 0.23333333333333334 5000009.06207
10.302069 -3.3333333333333335 0.23333333333333334 5000009.06207
10.302069 -3.3333333333333335 0.2 5000009.06207
10.302069 -3.3666666666666667 0.2 5000009.06207
10.33151 -12.433333333333334 0.2 5000009.9453
10.316105666666667 -12.666666666666666 0.2 5000009.48317
10.316105666666667 -12.7 0.2 5000009.48317
10.308928 -17.333333333333332 0.13333333333333333 5000009.26784
10.308928 -17.366666666666667 0.13333333333333333 5000009.26784
10.308928 -17.4 0.13333333333333333 5000009.26784
10.289226333333334 -2.933333333333333 0.1 5000008.67679
10.289226333333334 -2.933333333333333 0.06666666666666667 5000008.67679
10.289226333333334 -2.933333333333333 0.03333333333333333 5000008.67679
10.277431 -2.1666666666666665 0.0 5000008.32293
10.277431 -2.533333333333333 0.0 5000008.32293
10.277431 -2.6333333333333333 0.0 5000008.32293
10.277431 -2.6666666666666665 0.0 5000008.32293
10.283206 -2.966666666666667 0.0 5000008.49618
10.277431 -3.3 0.0 5000008.32293
10.277431 -3.3333333333333335 0.0 5000008.32293
10.277431 -3.5 0.0 5000008.32293
10.277431 -2.533333333333333 -0.03333333333333333 5000008.32293
10.277431 -2.566666666666667 -0.03333333333333333 5000008.32293
10.277431 -3.6333333333333333 -0.03333333333333333 5000008.32293
10.277431 -2.566666666666667 -0.06666666666666667 5000008.32293
10.277431 -3.6666666666666665 -0.06666666666666667 5000008.32293
10.26656 -0.9666666666666667 -0.1 5000007.9968
10.277431 -3.7 -0.1 5000008.32293
10.271887 -2.6 -0.13333333333333333 5000008.15661
10.26656 -2.4 -0.16666666666666666 5000007.9968
10.256509 -1.5 -0.2 5000007.69527
10.26656 -3.1 -0.2 5000007.9968
10.256509 -1.5333333333333334 -0.23333333333333334 5000007.69527
10.26656 -3.1333333333333333 -0.23333333333333334 5000007.9968
10.256509 -1.0666666666666667 -0.26666666666666666 5000007.69527
10.256509 -1.1666666666666667 -0.26666666666666666 5000007.69527
10.256509 -2.466666666666667 -0.26666666666666666 5000007.69527
10.256509 -2.5 -0.26666666666666666 5000007.69527
10.256509 -2.533333333333333 -0.26666666666666666 5000007.69527
10.256509 -2.5 -0.3 5000007.69527
10.256509 -2.533333333333333 -0.3 5000007.69527
10.247188333333334 -1.1666666666666667 -0.36666666666666664 5000007.41565
10.247188333333334 -1.2 -0.36666666666666664 5000007.41565
10.251762333333334 -2.9 -0.36666666666666664 5000007.55287
10.256509 -3.4 -0.36666666666666664 5000007.69527
10.271887 -3.466666666666667 -0.36666666666666664 5000008.15661
10.238521333333333 0.7333333333333333 -0.4 5000007.15564
10.247188333333334 -1.0333333333333334 -0.4 5000007.41565
10.251762333333334 -3.3666666666666667 -0.4 5000007.55287
10.247188333333334 -0.8333333333333334 -0.43333333333333335 5000007.41565
10.247188333333334 -0.8666666666666667 -0.43333333333333335 5000007.41565
10.247188333333334 -0.9 -0.43333333333333335 5000007.41565
10.26656 -2.2333333333333334 -0.43333333333333335 5000007.9968
10.238521333333333 -2.3333333333333335 -0.43333333333333335 5000007.15564
10.238521333333333 -2.3666666666666667 -0.43333333333333335 5000007.15564
10.247188333333334 -3.066666666666667 -0.43333333333333335 5000007.41565
10.247188333333334 -0.8333333333333334 -0.4666666666666667 5000007.41565
10.247188333333334 -0.8666666666666667 -0.4666666666666667 5000007.41565
10.247188333333334 -0.9 -0.4666666666666667 5000007.41565
10.247188333333334 -0.9333333333333333 -0.4666666666666667 5000007.41565
10.238521333333333 -2.3666666666666667 -0.4666666666666667 5000007.15564
10.242777333333333 -3.1 -0.4666666666666667 5000007.28332
10.242777333333333 -3.1333333333333333 -0.4666666666666667 5000007.28332
10.251762333333334 -3.3666666666666667 -0.4666666666666667 5000007.55287
10.256509 -3.9 -0.4666666666666667 5000007.69527
10.247188333333334 -0.8666666666666667 -0.5 5000007.41565
10.238521333333333 -2.1666666666666665 -0.5 5000007.15564
10.238521333333333 -2.3666666666666667 -0.5 5000007.15564
10.247188333333334 -2.533333333333333 -0.5 5000007.41565
10.247188333333334 -2.566666666666667 -0.5 5000007.41565
10.247188333333334 -2.6 -0.5 5000007.41565
10.242777333333333 -3.1333333333333333 -0.5 5000007.28332
10.242777333333333 -3.1666666666666665 -0.5 5000007.28332
10.242777333333333 -3.2 -0.5 5000007.28332
10.247188333333334 -3.3666666666666667 -0.5 5000007.41565
10.247188333333334 -3.4 -0.5 5000007.41565
10.256509 -3.933333333333333 -0.5 5000007.69527
10.247188333333334 -0.26666666666666666 -0.5333333333333333 5000007.41565
10.234411666666666 -2.1666666666666665 -0.5333333333333333 5000007.03235
10.247188333333334 -2.6333333333333333 -0.5333333333333333 5000007.41565
10.242777333333333 -2.933333333333333 -0.5333333333333333 5000007.28332
10.242777333333333 -2.966666666666667 -0.5333333333333333 5000007.28332
10.251762333333334 -4.1 -0.5333333333333333 5000007.55287
10.251762333333334 -4.133333333333334 -0.5333333333333333 5000007.55287
10.238521333333333 -1.2333333333333334 -0.5666666666666667 5000007.15564
10.238521333333333 -2.1333333333333333 -0.5666666666666667 5000007.15564
10.234411666666666 -2.1666666666666665 -0.5666666666666667 5000007.03235
10.242777333333333 -2.5 -0.5666666666666667 5000007.28332
10.242777333333333 -2.533333333333333 -0.5666666666666667 5000007.28332
10.242777333333333 -3.066666666666667 -0.5666666666666667 5000007.28332
10.234411666666666 -1.0 -0.6 5000007.03235
10.234411666666666 -2.1666666666666665 -0.6 5000007.03235
10.234411666666666 -2.2 -0.6 5000007.03235
10.234411666666666 -2.2333333333333334 -0.6 5000007.03235
10.242777333333333 -2.533333333333333 -0.6 5000007.28332
10.242777333333333 -2.566666666666667 -0.6 5000007.28332
10.256509 -0.7333333333333333 -0.6333333333333333 5000007.69527
10.234411666666666 -0.8333333333333334 -0.6333333333333333 5000007.03235
10.234411666666666 -1.0333333333333334 -0.6333333333333333 5000007.03235
10.226603333333333 0.7 -0.6666666666666666 5000006.7981
10.230441333333333 -0.6333333333333333 -0.6666666666666666 5000006.91324
10.234411666666666 -0.8333333333333334 -0.6666666666666666 5000007.03235
10.226603333333333 0.7 -0.7 5000006.7981
10.230441333333333 0.36666666666666664 -0.7 5000006.91324
10.230441333333333 0.3333333333333333 -0.7 5000006.91324
10.230441333333333 -0.6 -0.7 5000006.91324
10.230441333333333 -0.6333333333333333 -0.7 5000006.91324
10.238521333333333 -3.433333333333333 -0.7 5000007.15564
10.238521333333333 -3.466666666666667 -0.7 5000007.15564
10.226603333333333 0.7 -0.7333333333333333 5000006.7981
10.230441333333333 0.4 -0.7333333333333333 5000006.91324
10.230441333333333 0.4 -0.7666666666666667 5000006.91324
10.230441333333333 -2.533333333333333 -0.7666666666666667 5000006.91324
10.226603333333333 0.6333333333333333 -0.8 5000006.7981
10.226603333333333 0.6 -0.8 5000006.7981
10.226603333333333 0.5666666666666667 -0.8 5000006.7981
10.226603333333333 -0.23333333333333334 -0.8 5000006.7981
10.222891 -1.7 -0.8 5000006.68673
10.222891 -1.7333333333333334 -0.8 5000006.68673
10.242777333333333 -4.1 -0.8 5000007.28332
10.242777333333333 -4.133333333333334 -0.8 5000007.28332
10.219298333333333 -0.43333333333333335 -0.8333333333333334 5000006.57895
10.219298333333333 -0.4666666666666667 -0.8333333333333334 5000006.57895
10.219298333333333 -0.5 -0.8333333333333334 5000006.57895
10.242777333333333 -4.3 -0.8333333333333334 5000007.28332
10.242777333333333 -4.333333333333333 -0.8333333333333334 5000007.28332
10.215819666666667 0.23333333333333334 -0.8666666666666667 5000006.47459
10.219298333333333 -0.43333333333333335 -0.8666666666666667 5000006.57895
10.219298333333333 -0.4666666666666667 -0.8666666666666667 5000006.57895
10.222891 -1.1 -0.8666666666666667 5000006.68673
10.242777333333333 -1.1666666666666667 -0.8666666666666667 5000007.28332
10.222891 -1.2666666666666666 -0.8666666666666667 5000006.68673
10.222891 -1.3 -0.8666666666666667 5000006.68673
10.219298333333333 -1.5 -0.8666666666666667 5000006.57895
10.219298333333333 -1.5333333333333334 -0.8666666666666667 5000006.57895
10.219298333333333 -1.5666666666666667 -0.8666666666666667 5000006.57895
10.215819666666667 0.3333333333333333 -0.9 5000006.47459
10.215819666666667 0.23333333333333334 -0.9 5000006.47459
10.215819666666667 -1.0333333333333334 -0.9 5000006.47459
10.222891 -1.2666666666666666 -0.9 5000006.68673
10.222891 -1.3 -0.9 5000006.68673
10.219298333333333 -2.3666666666666667 -0.9 5000006.57895
10.219298333333333 -2.4 -0.9 5000006.57895
10.219298333333333 -3.0 -0.9 5000006.57895
10.215819666666667 0.9666666666666667 -0.9333333333333333 5000006.47459
10.215819666666667 0.36666666666666664 -0.9333333333333333 5000006.47459
10.215819666666667 0.3333333333333333 -0.9333333333333333 5000006.47459
10.215819666666667 -0.7 -0.9333333333333333 5000006.47459
10.222891 -1.0 -0.9333333333333333 5000006.68673
10.222891 -2.3333333333333335 -0.9333333333333333 5000006.68673
10.219298333333333 -2.4 -0.9333333333333333 5000006.57895
10.222891 -2.433333333333333 -0.9333333333333333 5000006.68673
10.219298333333333 -3.0 -0.9333333333333333 5000006.57895
10.219298333333333 -3.033333333333333 -0.9333333333333333 5000006.57895
10.234411666666666 -3.9 -0.9333333333333333 5000007.03235
10.234411666666666 -3.933333333333333 -0.9333333333333333 5000007.03235
10.234411666666666 -3.966666666666667 -0.9333333333333333 5000007.03235
10.219298333333333 1.3666666666666667 -0.9666666666666667 5000006.57895
10.219298333333333 1.3333333333333333 -0.9666666666666667 5000006.57895
10.215819666666667 1.0666666666666667 -0.9666666666666667 5000006.47459
10.219298333333333 1.0333333333333334 -0.9666666666666667 5000006.57895
10.215819666666667 0.9333333333333333 -0.9666666666666667 5000006.47459
10.215819666666667 0.16666666666666666 -0.9666666666666667 5000006.47459
10.212449666666666 -0.36666666666666664 -0.9666666666666667 5000006.37349
10.215819666666667 -0.5333333333333333 -0.9666666666666667 5000006.47459
10.215819666666667 -0.6 -0.9666666666666667 5000006.47459
10.212449666666666 -1.4333333333333333 -0.9666666666666667 5000006.37349
10.212449666666666 -1.4666666666666666 -0.9666666666666667 5000006.37349
10.212449666666666 -1.5 -0.9666666666666667 5000006.37349
10.212449666666666 -1.7666666666666666 -0.9666666666666667 5000006.37349
10.234411666666666 -3.933333333333333 -0.9666666666666667 5000007.03235
10.234411666666666 -3.966666666666667 -0.9666666666666667 5000007.03235
10.234411666666666 -4.1 -0.9666666666666667 5000007.03235
10.219298333333333 1.3666666666666667 -1.0 5000006.57895
10.219298333333333 1.3333333333333333 -1.0 5000006.57895
10.215819666666667 1.0666666666666667 -1.0 5000006.47459
10.215819666666667 1.0333333333333334 -1.0 5000006.47459
10.215819666666667 1.0 -1.0 5000006.47459
10.212449666666666 -0.36666666666666664 -1.0 5000006.37349
10.212449666666666 -0.4 -1.0 5000006.37349
10.215819666666667 -0.6 -1.0 5000006.47459
10.215819666666667 -0.6333333333333333 -1.0 5000006.47459
10.234411666666666 -4.133333333333334 -1.0 5000007.03235
10.234411666666666 -4.166666666666667 -1.0 5000007.03235
10.212449666666666 0.03333333333333333 -1.0333333333333334 5000006.37349
10.212449666666666 -0.4 -1.0333333333333334 5000006.37349
10.212449666666666 -0.43333333333333335 -1.0333333333333334 5000006.37349
10.212449666666666 -1.6333333333333333 -1.0333333333333334 5000006.37349
10.212449666666666 -2.1 -1.0333333333333334 5000006.37349
10.206015666666667 2.066666666666667 -1.0666666666666667 5000006.18047
10.209183 2.0 -1.0666666666666667 5000006.27549
10.209183 1.9666666666666666 -1.0666666666666667 5000006.27549
10.209183 1.9333333333333333 -1.0666666666666667 5000006.27549
10.209183 1.8666666666666667 -1.0666666666666667 5000006.27549
10.209183 1.7666666666666666 -1.0666666666666667 5000006.27549
10.209183 1.7333333333333334 -1.0666666666666667 5000006.27549
10.209183 1.7 -1.0666666666666667 5000006.27549
10.215819666666667 1.0 -1.0666666666666667 5000006.47459
10.206015666666667 -1.3666666666666667 -1.0666666666666667 5000006.18047
10.212449666666666 -1.6333333333333333 -1.0666666666666667 5000006.37349
10.212449666666666 -2.8333333333333335 -1.0666666666666667 5000006.37349
10.206015666666667 2.066666666666667 -1.1 5000006.18047
10.206015666666667 2.033333333333333 -1.1 5000006.18047
10.209183 2.0 -1.1 5000006.27549
10.209183 1.9666666666666666 -1.1 5000006.27549
10.209183 1.9333333333333333 -1.1 5000006.27549
10.209183 1.9 -1.1 5000006.27549
10.209183 1.8333333333333333 -1.1 5000006.27549
10.209183 1.8 -1.1 5000006.27549
10.215819666666667 -1.1333333333333333 -1.1 5000006.47459
10.206015666666667 -1.3666666666666667 -1.1 5000006.18047
10.209183 -2.566666666666667 -1.1 5000006.27549
10.209183 1.8 -1.1333333333333333 5000006.27549
10.209183 1.7666666666666666 -1.1333333333333333 5000006.27549
10.206015666666667 -0.36666666666666664 -1.1333333333333333 5000006.18047
10.215819666666667 -1.1333333333333333 -1.1333333333333333 5000006.47459
10.202942666666667 -1.2333333333333334 -1.1333333333333333 5000006.08828
10.206015666666667 -1.4 -1.1333333333333333 5000006.18047
10.206015666666667 -2.033333333333333 -1.1333333333333333 5000006.18047
10.206015666666667 -0.36666666666666664 -1.1666666666666667 5000006.18047
10.202942666666667 -1.2 -1.1666666666666667 5000006.08828
10.202942666666667 -1.2333333333333334 -1.1666666666666667 5000006.08828
10.202942666666667 -1.2666666666666666 -1.1666666666666667 5000006.08828
10.197063666666667 0.3 -1.2 5000005.91191
10.202942666666667 -1.2 -1.2 5000006.08828
10.209183 -3.3 -1.2 5000006.27549
10.234411666666666 -14.066666666666666 -1.2 5000007.03235
10.226603333333333 -14.1 -1.2 5000006.7981
10.222891 -14.366666666666667 -1.2 5000006.68673
10.222891 -14.4 -1.2 5000006.68673
10.222891 -14.433333333333334 -1.2 5000006.68673
10.219298333333333 -14.466666666666667 -1.2 5000006.57895
10.215819666666667 -14.5 -1.2 5000006.47459
10.212449666666666 -14.533333333333333 -1.2 5000006.37349
10.206015666666667 1.5666666666666667 -1.2333333333333334 5000006.18047
10.197063666666667 0.3 -1.2333333333333334 5000005.91191
10.197063666666667 0.26666666666666666 -1.2333333333333334 5000005.91191
10.197063666666667 -0.8333333333333334 -1.2333333333333334 5000005.91191
10.202942666666667 -1.2 -1.2333333333333334 5000006.08828
10.19996 -1.2333333333333334 -1.2333333333333334 5000005.9988
10.226603333333333 -14.1 -1.2333333333333334 5000006.7981
10.226603333333333 -14.133333333333333 -1.2333333333333334 5000006.7981
10.222891 -14.166666666666666 -1.2333333333333334 5000006.68673
10.222891 -14.2 -1.2333333333333334 5000006.68673
10.222891 -14.233333333333333 -1.2333333333333334 5000006.68673
10.222891 -14.266666666666667 -1.2333333333333334 5000006.68673
10.222891 -14.3 -1.2333333333333334 5000006.68673
10.222891 -14.333333333333334 -1.2333333333333334 5000006.68673
10.222891 -14.366666666666667 -1.2333333333333334 5000006.68673
10.222891 -14.4 -1.2333333333333334 5000006.68673
10.222891 -14.433333333333334 -1.2333333333333334 5000006.68673
10.219298333333333 -14.466666666666667 -1.2333333333333334 5000006.57895
10.215819666666667 -14.5 -1.2333333333333334 5000006.47459
10.212449666666666 -14.533333333333333 -1.2333333333333334 5000006.37349
10.19996 0.16666666666666666 -1.2666666666666666 5000005.9988
10.202942666666667 -0.2 -1.2666666666666666 5000006.08828
10.202942666666667 -0.23333333333333334 -1.2666666666666666 5000006.08828
10.19996 -1.3 -1.2666666666666666 5000005.9988
10.19996 -1.8666666666666667 -1.2666666666666666 5000005.9988
10.222891 -14.166666666666666 -1.2666666666666666 5000006.68673
10.222891 -14.2 -1.2666666666666666 5000006.68673
10.222891 -14.233333333333333 -1.2666666666666666 5000006.68673
10.222891 -14.266666666666667 -1.2666666666666666 5000006.68673
10.222891 -14.3 -1.2666666666666666 5000006.68673
10.222891 -14.333333333333334 -1.2666666666666666 5000006.68673
10.222891 -14.366666666666667 -1.2666666666666666 5000006.68673
10.219298333333333 -14.466666666666667 -1.2666666666666666 5000006.57895
10.215819666666667 -14.5 -1.2666666666666666 5000006.47459
10.212449666666666 -14.533333333333333 -1.2666666666666666 5000006.37349
10.212449666666666 -14.566666666666666 -1.2666666666666666 5000006.37349
10.206015666666667 -14.6 -1.2666666666666666 5000006.18047
10.197063666666667 1.8333333333333333 -1.3 5000005.91191
10.19996 1.6 -1.3 5000005.9988
10.197063666666667 0.1 -1.3 5000005.91191
10.202942666666667 -0.2 -1.3 5000006.08828
10.202942666666667 -0.23333333333333334 -1.3 5000006.08828
10.219298333333333 -16.833333333333332 -1.3 5000006.57895
10.219298333333333 -16.866666666666667 -1.3 5000006.57895
10.219298333333333 -16.9 -1.3 5000006.57895
10.197063666666667 1.6 -1.3333333333333333 5000005.91191
10.212449666666666 0.2 -1.3333333333333333 5000006.37349
10.194250333333333 0.1 -1.3333333333333333 5000005.82751
10.194250333333333 0.06666666666666667 -1.3333333333333333 5000005.82751
10.202942666666667 -0.23333333333333334 -1.3333333333333333 5000006.08828
10.212449666666666 -16.966666666666665 -1.3333333333333333 5000006.37349
10.209183 -17.0 -1.3333333333333333 5000006.27549
10.209183 -17.033333333333335 -1.3333333333333333 5000006.27549
10.209183 -17.066666666666666 -1.3333333333333333 5000006.27549
10.191516 2.0 -1.3666666666666667 5000005.74548
10.191516 1.9666666666666666 -1.3666666666666667 5000005.74548
10.197063666666667 1.5666666666666667 -1.3666666666666667 5000005.91191
10.19996 1.3333333333333333 -1.3666666666666667 5000005.9988
10.188857333333333 0.4666666666666667 -1.3666666666666667 5000005.66572
10.194250333333333 0.06666666666666667 -1.3666666666666667 5000005.82751
10.194250333333333 0.03333333333333333 -1.3666666666666667 5000005.82751
10.197063666666667 -1.6666666666666667 -1.3666666666666667 5000005.91191
10.197063666666667 -1.7 -1.3666666666666667 5000005.91191
10.197063666666667 -2.6 -1.3666666666666667 5000005.91191
10.212449666666666 -17.233333333333334 -1.3666666666666667 5000006.37349
10.212449666666666 -17.266666666666666 -1.3666666666666667 5000006.37349
10.191516 1.9666666666666666 -1.4 5000005.74548
10.197063666666667 1.5333333333333334 -1.4 5000005.91191
10.19996 1.3333333333333333 -1.4 5000005.9988
10.194250333333333 1.1666666666666667 -1.4 5000005.82751
10.188857333333333 0.4666666666666667 -1.4 5000005.66572
10.188857333333333 0.43333333333333335 -1.4 5000005.66572
10.194250333333333 0.03333333333333333 -1.4 5000005.82751
10.19996 -3.1 -1.4 5000005.9988
10.19996 -3.1333333333333333 -1.4 5000005.9988
10.209183 -17.4 -1.4 5000006.27549
10.209183 -17.433333333333334 -1.4 5000006.27549
10.206015666666667 -17.466666666666665 -1.4 5000006.18047
10.209183 -17.5 -1.4 5000006.27549
10.206015666666667 -17.533333333333335 -1.4 5000006.18047
10.19996 1.3333333333333333 -1.4333333333333333 5000005.9988
10.188857333333333 1.2 -1.4333333333333333 5000005.66572
10.197063666666667 1.1 -1.4333333333333333 5000005.91191
10.188857333333333 0.5666666666666667 -1.4333333333333333 5000005.66572
10.188857333333333 0.5333333333333333 -1.4333333333333333 5000005.66572
10.191516 -0.6333333333333333 -1.4333333333333333 5000005.74548
10.191516 -1.6 -1.4333333333333333 5000005.74548
10.197063666666667 -2.466666666666667 -1.4333333333333333 5000005.91191
10.197063666666667 -2.5 -1.4333333333333333 5000005.91191
10.197063666666667 -2.533333333333333 -1.4333333333333333 5000005.91191
10.19996 -3.1 -1.4333333333333333 5000005.9988
10.19996 -3.1333333333333333 -1.4333333333333333 5000005.9988
10.19996 -3.1666666666666665 -1.4333333333333333 5000005.9988
10.209183 -17.066666666666666 -1.4333333333333333 5000006.27549
10.209183 -17.1 -1.4333333333333333 5000006.27549
10.209183 -17.7 -1.4333333333333333 5000006.27549
10.209183 -17.733333333333334 -1.4333333333333333 5000006.27549
10.19996 1.3666666666666667 -1.4666666666666666 5000005.9988
10.19996 1.3333333333333333 -1.4666666666666666 5000005.9988
10.19996 1.3 -1.4666666666666666 5000005.9988
10.188857333333333 0.5333333333333333 -1.4666666666666666 5000005.66572
10.191516 -0.5 -1.4666666666666666 5000005.74548
10.191516 -0.7 -1.4666666666666666 5000005.74548
10.188857333333333 -1.1666666666666667 -1.4666666666666666 5000005.66572
10.188857333333333 -1.2 -1.4666666666666666 5000005.66572
10.188857333333333 -1.5 -1.4666666666666666 5000005.66572
10.188857333333333 -1.5333333333333334 -1.4666666666666666 5000005.66572
10.188857333333333 -1.5666666666666667 -1.4666666666666666 5000005.66572
10.19996 -3.1 -1.4666666666666666 5000005.9988
10.19996 -3.1333333333333333 -1.4666666666666666 5000005.9988
10.209183 -17.166666666666668 -1.4666666666666666 5000006.27549
10.19996 -17.9 -1.4666666666666666 5000005.9988
10.194250333333333 1.3333333333333333 -1.5 5000005.82751
10.188857333333333 1.2 -1.5 5000005.66572
10.191516 -0.2 -1.5 5000005.74548
10.191516 -0.23333333333333334 -1.5 5000005.74548
10.188857333333333 -1.2 -1.5 5000005.66572
10.188857333333333 -1.2333333333333334 -1.5 5000005.66572
10.188857333333333 -1.5666666666666667 -1.5 5000005.66572
10.188857333333333 -1.6 -1.5 5000005.66572
10.206015666666667 -3.4 -1.5 5000006.18047
10.202942666666667 -17.266666666666666 -1.5 5000006.08828
10.206015666666667 -17.3 -1.5 5000006.18047
10.202942666666667 -17.333333333333332 -1.5 5000006.08828
10.188857333333333 2.9 -1.5333333333333334 5000005.66572
10.188857333333333 0.5666666666666667 -1.5333333333333334 5000005.66572
10.191516 -0.26666666666666666 -1.5333333333333334 5000005.74548
10.188857333333333 -1.2333333333333334 -1.5333333333333334 5000005.66572
10.202942666666667 -17.366666666666667 -1.5333333333333334 5000006.08828
10.202942666666667 -17.4 -1.5333333333333334 5000006.08828
10.202942666666667 -17.433333333333334 -1.5333333333333334 5000006.08828
10.188857333333333 2.9 -1.5666666666666667 5000005.66572
10.191516 1.3333333333333333 -1.5666666666666667 5000005.74548
10.188857333333333 0.5666666666666667 -1.5666666666666667 5000005.66572
10.186271666666666 -1.2666666666666666 -1.5666666666666667 5000005.58815
10.191516 -2.933333333333333 -1.5666666666666667 5000005.74548
10.206015666666667 -3.3333333333333335 -1.5666666666666667 5000006.18047
10.206015666666667 -3.3666666666666667 -1.5666666666666667 5000006.18047
10.202942666666667 -17.466666666666665 -1.5666666666666667 5000006.08828
10.202942666666667 -17.5 -1.5666666666666667 5000006.08828
10.202942666666667 -17.533333333333335 -1.5666666666666667 5000006.08828
10.188857333333333 1.1 -1.6 5000005.66572
10.188857333333333 1.0333333333333334 -1.6 5000005.66572
10.183756 -0.9 -1.6 5000005.51268
10.183756 -0.9666666666666667 -1.6 5000005.51268
10.191516 -2.6666666666666665 -1.6 5000005.74548
10.188857333333333 -2.8 -1.6 5000005.66572
10.191516 -2.9 -1.6 5000005.74548
10.191516 -2.933333333333333 -1.6 5000005.74548
10.191516 -2.966666666666667 -1.6 5000005.74548
10.19996 -17.6 -1.6 5000005.9988
10.19996 -17.633333333333333 -1.6 5000005.9988
10.19996 -17.666666666666668 -1.6 5000005.9988
10.183756 -0.9666666666666667 -1.6333333333333333 5000005.51268
10.183756 -1.0 -1.6333333333333333 5000005.51268
10.183756 -1.0333333333333334 -1.6333333333333333 5000005.51268
10.186271666666666 2.4 -1.6666666666666667 5000005.58815
10.181307333333333 -0.8333333333333334 -1.6666666666666667 5000005.43922
10.181307333333333 -0.8666666666666667 -1.6666666666666667 5000005.43922
10.197063666666667 -17.766666666666666 -1.6666666666666667 5000005.91191
10.197063666666667 -17.8 -1.6666666666666667 5000005.91191
10.197063666666667 -17.833333333333332 -1.6666666666666667 5000005.91191
10.181307333333333 2.5 -1.7 5000005.43922
10.186271666666666 2.466666666666667 -1.7 5000005.58815
10.186271666666666 2.4 -1.7 5000005.58815
10.181307333333333 0.9666666666666667 -1.7 5000005.43922
10.181307333333333 0.9333333333333333 -1.7 5000005.43922
10.181307333333333 -0.8333333333333334 -1.7 5000005.43922
10.181307333333333 -0.8666666666666667 -1.7 5000005.43922
10.197063666666667 -11.9 -1.7 5000005.91191
10.197063666666667 -17.833333333333332 -1.7 5000005.91191
10.197063666666667 -17.866666666666667 -1.7 5000005.91191
10.197063666666667 -17.9 -1.7 5000005.91191
10.176600333333333 2.6333333333333333 -1.7333333333333334 5000005.29801
10.181307333333333 0.5666666666666667 -1.7333333333333334 5000005.43922
10.181307333333333 -0.8666666666666667 -1.7333333333333334 5000005.43922
10.181307333333333 -0.9 -1.7333333333333334 5000005.43922
10.174337666666666 3.1 -1.7666666666666666 5000005.23013
10.178923 0.5666666666666667 -1.7666666666666666 5000005.36769
10.178923 0.5 -1.7666666666666666 5000005.36769
10.178923 0.43333333333333335 -1.7666666666666666 5000005.36769
10.183756 -0.5333333333333333 -1.7666666666666666 5000005.51268
10.174337666666666 3.1 -1.8 5000005.23013
10.174337666666666 3.066666666666667 -1.8 5000005.23013
10.178923 1.0666666666666667 -1.8 5000005.36769
10.178923 1.0333333333333334 -1.8 5000005.36769
10.178923 0.5666666666666667 -1.8 5000005.36769
10.178923 0.43333333333333335 -1.8 5000005.36769
10.178923 0.4 -1.8 5000005.36769
10.181307333333333 -0.3 -1.8 5000005.43922
10.174337666666666 3.066666666666667 -1.8333333333333333 5000005.23013
10.174337666666666 3.033333333333333 -1.8333333333333333 5000005.23013
10.174337666666666 2.8333333333333335 -1.8333333333333333 5000005.23013
10.176600333333333 2.8 -1.8333333333333333 5000005.29801
10.178923 2.033333333333333 -1.8333333333333333 5000005.36769
10.178923 2.0 -1.8333333333333333 5000005.36769
10.178923 1.1 -1.8333333333333333 5000005.36769
10.178923 1.0666666666666667 -1.8333333333333333 5000005.36769
10.178923 1.0333333333333334 -1.8333333333333333 5000005.36769
10.178923 0.6 -1.8333333333333333 5000005.36769
10.178923 0.5666666666666667 -1.8333333333333333 5000005.36769
10.178923 0.5333333333333333 -1.8333333333333333 5000005.36769
10.178923 0.36666666666666664 -1.8333333333333333 5000005.36769
10.178923 0.3333333333333333 -1.8333333333333333 5000005.36769
10.174337666666666 0.3 -1.8333333333333333 5000005.23013
10.178923 0.26666666666666666 -1.8333333333333333 5000005.36769
10.174337666666666 0.23333333333333334 -1.8333333333333333 5000005.23013
10.176600333333333 -0.36666666666666664 -1.8333333333333333 5000005.29801
10.176600333333333 -0.4 -1.8333333333333333 5000005.29801
10.176600333333333 -0.6 -1.8333333333333333 5000005.29801
10.174337666666666 2.9 -1.8666666666666667 5000005.23013
10.176600333333333 2.8 -1.8666666666666667 5000005.29801
10.178923 2.033333333333333 -1.8666666666666667 5000005.36769
10.178923 2.0 -1.8666666666666667 5000005.36769
10.176600333333333 1.4666666666666666 -1.8666666666666667 5000005.29801
10.178923 0.5333333333333333 -1.8666666666666667 5000005.36769
10.176600333333333 -0.6666666666666666 -1.8666666666666667 5000005.29801
10.174337666666666 2.9 -1.9 5000005.23013
10.188857333333333 -0.5666666666666667 -1.9 5000005.66572
10.176600333333333 -0.6666666666666666 -1.9 5000005.29801
10.176600333333333 -0.7 -1.9 5000005.29801
10.174337666666666 1.5666666666666667 -1.9333333333333333 5000005.23013
10.174337666666666 0.6 -1.9333333333333333 5000005.23013
10.174337666666666 -0.4 -1.9333333333333333 5000005.23013
10.176600333333333 -0.7 -1.9333333333333333 5000005.29801
10.176600333333333 -0.7333333333333333 -1.9333333333333333 5000005.29801
10.172132 -1.0333333333333334 -1.9333333333333333 5000005.16396
10.172132 -1.1 -1.9333333333333333 5000005.16396
10.174337666666666 -1.1666666666666667 -1.9333333333333333 5000005.23013
10.174337666666666 0.6333333333333333 -1.9666666666666666 5000005.23013
10.174337666666666 0.6 -1.9666666666666666 5000005.23013
10.174337666666666 0.5666666666666667 -1.9666666666666666 5000005.23013
10.174337666666666 0.5333333333333333 -1.9666666666666666 5000005.23013
10.174337666666666 0.5 -1.9666666666666666 5000005.23013
10.174337666666666 -0.4666666666666667 -1.9666666666666666 5000005.23013
10.172132 -1.0333333333333334 -1.9666666666666666 5000005.16396
10.172132 -1.0666666666666667 -1.9666666666666666 5000005.16396
10.169981333333334 -1.2 -1.9666666666666666 5000005.09944
10.191516 -4.566666666666666 -1.9666666666666666 5000005.74548
10.174337666666666 0.6 -2.0 5000005.23013
10.174337666666666 0.5666666666666667 -2.0 5000005.23013
10.174337666666666 0.5333333333333333 -2.0 5000005.23013
10.174337666666666 0.5 -2.0 5000005.23013
10.174337666666666 -0.4666666666666667 -2.0 5000005.23013
10.172132 -0.5 -2.0 5000005.16396
10.172132 -0.5333333333333333 -2.0 5000005.16396
10.172132 -1.0333333333333334 -2.0 5000005.16396
10.172132 -1.0666666666666667 -2.0 5000005.16396
10.172132 -1.1 -2.0 5000005.16396
10.172132 -1.1333333333333333 -2.0 5000005.16396
10.172132 -0.5 -2.033333333333333 5000005.16396
10.172132 -0.5333333333333333 -2.033333333333333 5000005.16396
10.172132 -0.5666666666666667 -2.033333333333333 5000005.16396
10.172132 -0.6 -2.033333333333333 5000005.16396
10.172132 -1.1333333333333333 -2.033333333333333 5000005.16396
10.169981333333334 -1.1666666666666667 -2.033333333333333 5000005.09944
10.165837333333334 -0.3 -2.066666666666667 5000004.97512
10.165837333333334 -0.3333333333333333 -2.066666666666667 5000004.97512
10.165837333333334 -0.36666666666666664 -2.066666666666667 5000004.97512
10.165837333333334 -0.4 -2.066666666666667 5000004.97512
10.172132 -0.5666666666666667 -2.066666666666667 5000005.16396
10.169981333333334 -0.4666666666666667 -2.1 5000005.09944
10.172132 0.43333333333333335 -2.1333333333333333 5000005.16396
10.172132 0.4 -2.1333333333333333 5000005.16396
10.172132 -2.1333333333333333 -2.1333333333333333 5000005.16396
10.167883666666667 1.4333333333333333 -2.1666666666666665 5000005.03651
10.172132 0.43333333333333335 -2.1666666666666665 5000005.16396
10.172132 0.4 -2.1666666666666665 5000005.16396
10.197063666666667 2.0 -2.2 5000005.91191
10.161891 1.7 -2.2 5000004.85673
10.167883666666667 -1.4 -2.2 5000005.03651
10.167883666666667 -1.4333333333333333 -2.2 5000005.03651
10.176600333333333 1.8 -2.2333333333333334 5000005.29801
10.163840333333333 1.7333333333333334 -2.2333333333333334 5000004.91521
10.161891 1.7 -2.2333333333333334 5000004.85673
10.161891 1.6666666666666667 -2.2333333333333334 5000004.85673
10.169981333333334 1.2 -2.2333333333333334 5000005.09944
10.186271666666666 -1.2333333333333334 -2.2333333333333334 5000005.58815
10.167883666666667 -1.4 -2.2333333333333334 5000005.03651
10.167883666666667 -1.4333333333333333 -2.2333333333333334 5000005.03651
10.167883666666667 -1.4666666666666666 -2.2333333333333334 5000005.03651
10.161891 1.6666666666666667 -2.2666666666666666 5000004.85673
10.161891 1.6333333333333333 -2.2666666666666666 5000004.85673
10.165837333333334 1.2333333333333334 -2.2666666666666666 5000004.97512
10.161891 1.9666666666666666 -2.3 5000004.85673
10.161891 1.9333333333333333 -2.3 5000004.85673
10.161891 1.3 -2.3 5000004.85673
10.161891 0.16666666666666666 -2.3 5000004.85673
10.161891 0.03333333333333333 -2.3 5000004.85673
10.161891 -0.2 -2.3 5000004.85673
10.161891 -0.23333333333333334 -2.3 5000004.85673
10.167883666666667 2.0 -2.3333333333333335 5000005.03651
10.161891 1.9666666666666666 -2.3333333333333335 5000004.85673
10.161891 1.9333333333333333 -2.3333333333333335 5000004.85673
10.159987333333333 1.9 -2.3333333333333335 5000004.79962
10.159987333333333 1.2333333333333334 -2.3333333333333335 5000004.79962
10.161891 0.13333333333333333 -2.3333333333333335 5000004.85673
10.159987333333333 1.9 -2.3666666666666667 5000004.79962
10.159987333333333 1.8666666666666667 -2.3666666666666667 5000004.79962
10.159987333333333 1.3 -2.3666666666666667 5000004.79962
10.159987333333333 1.2666666666666666 -2.3666666666666667 5000004.79962
10.163840333333333 -0.7333333333333333 -2.3666666666666667 5000004.91521
10.154535666666666 2.1333333333333333 -2.4 5000004.63607
10.154535666666666 2.1 -2.4 5000004.63607
10.159987333333333 1.3 -2.4 5000004.79962
10.159987333333333 1.2666666666666666 -2.4 5000004.79962
10.163840333333333 -0.7333333333333333 -2.4 5000004.91521
10.154535666666666 2.1 -2.433333333333333 5000004.63607
10.154535666666666 2.066666666666667 -2.433333333333333 5000004.63607
10.159987333333333 1.2666666666666666 -2.433333333333333 5000004.79962
10.174337666666666 -3.966666666666667 -2.433333333333333 5000005.23013
10.158127666666667 1.9666666666666666 -2.466666666666667 5000004.74383
10.172132 0.8333333333333334 -2.466666666666667 5000005.16396
10.159987333333333 -0.5333333333333333 -2.466666666666667 5000004.79962
10.154535666666666 2.6 -2.5 5000004.63607
10.158127666666667 1.9666666666666666 -2.5 5000004.74383
10.158127666666667 1.2333333333333334 -2.5 5000004.74383
10.158127666666667 1.2 -2.5 5000004.74383
10.169981333333334 0.9 -2.5 5000005.09944
10.172132 0.8666666666666667 -2.5 5000005.16396
10.172132 0.8333333333333334 -2.5 5000005.16396
10.156311 0.7333333333333333 -2.5 5000004.68933
10.156311 0.7 -2.5 5000004.68933
10.156311 0.6666666666666666 -2.5 5000004.68933
10.154535666666666 0.6333333333333333 -2.5 5000004.63607
10.159987333333333 -0.5333333333333333 -2.5 5000004.79962
10.159987333333333 -0.5666666666666667 -2.5 5000004.79962
10.165837333333334 -0.6 -2.5 5000004.97512
10.154535666666666 2.6 -2.533333333333333 5000004.63607
10.158127666666667 1.2333333333333334 -2.533333333333333 5000004.74383
10.158127666666667 1.2 -2.533333333333333 5000004.74383
10.159987333333333 0.9666666666666667 -2.533333333333333 5000004.79962
10.169981333333334 0.9 -2.533333333333333 5000005.09944
10.172132 0.8666666666666667 -2.533333333333333 5000005.16396
10.156311 0.7333333333333333 -2.533333333333333 5000004.68933
10.156311 0.7 -2.533333333333333 5000004.68933
10.156311 0.6666666666666666 -2.533333333333333 5000004.68933
10.154535666666666 0.6333333333333333 -2.533333333333333 5000004.63607
10.154535666666666 0.6 -2.533333333333333 5000004.63607
10.154535666666666 0.5666666666666667 -2.533333333333333 5000004.63607
10.156311 -0.2 -2.533333333333333 5000004.68933
10.165837333333334 -0.4666666666666667 -2.533333333333333 5000004.97512
10.158127666666667 -0.5 -2.533333333333333 5000004.74383
10.154535666666666 2.7333333333333334 -2.566666666666667 5000004.63607
10.1528 1.0333333333333334 -2.566666666666667 5000004.584
10.154535666666666 0.5666666666666667 -2.566666666666667 5000004.63607
10.154535666666666 0.5333333333333333 -2.566666666666667 5000004.63607
10.156311 -0.2 -2.566666666666667 5000004.68933
10.154535666666666 2.7333333333333334 -2.6 5000004.63607
10.1528 1.0666666666666667 -2.6 5000004.584
10.1528 1.0333333333333334 -2.6 5000004.584
10.1528 1.0 -2.6 5000004.584
10.156311 -0.2 -2.6 5000004.68933
10.156311 -0.23333333333333334 -2.6 5000004.68933
10.156311 -0.3 -2.6 5000004.68933
10.156311 -0.36666666666666664 -2.6 5000004.68933
10.154535666666666 2.7333333333333334 -2.6333333333333333 5000004.63607
10.169981333333334 1.2 -2.6333333333333333 5000005.09944
10.169981333333334 1.1666666666666667 -2.6333333333333333 5000005.09944
10.1528 1.0666666666666667 -2.6333333333333333 5000004.584
10.1528 1.0333333333333334 -2.6333333333333333 5000004.584
10.1528 1.0 -2.6333333333333333 5000004.584
10.1528 0.9666666666666667 -2.6333333333333333 5000004.584
10.156311 -0.2 -2.6333333333333333 5000004.68933
10.156311 -0.4 -2.6333333333333333 5000004.68933
10.149443333333334 2.3666666666666667 -2.6666666666666665 5000004.4833
10.149443333333334 2.3333333333333335 -2.6666666666666665 5000004.4833
10.1528 0.9666666666666667 -2.6666666666666665 5000004.584
10.1528 0.9333333333333333 -2.6666666666666665 5000004.584
10.151102999999999 0.9 -2.6666666666666665 5000004.53309
10.149443333333334 0.8666666666666667 -2.6666666666666665 5000004.4833
10.149443333333334 0.8333333333333334 -2.6666666666666665 5000004.4833
10.154535666666666 -0.5333333333333333 -2.6666666666666665 5000004.63607
