VERSION .7
FIELDS x y z rgb
SIZE 4 4 4 4
TYPE F F F F
COUNT 1 1 1 1
WIDTH 1039
HEIGHT 1
VIEWPOINT 0 0 0 1 0 0 0
POINTS 1039
DATA ascii
7.221906000000001 4.24 -3.24 5000005.03651
7.221906000000001 3.96 -3.24 5000005.03651
7.298376 3.68 -3.24 5000005.16396
7.259664000000001 3.52 -3.24 5000005.09944
7.552889999999999 1.0 -3.24 5000005.58815
7.552889999999999 0.98 -3.24 5000005.58815
7.185072 4.92 -3.26 5000004.97512
7.298376 4.7 -3.26 5000005.16396
7.298376 4.68 -3.26 5000005.16396
7.420614 5.78 -3.28 5000005.36769
7.185072 4.92 -3.28 5000004.97512
7.149126 4.9 -3.28 5000004.91521
7.149126 4.92 -3.3 5000004.91521
7.149126 4.9 -3.3 5000004.91521
7.185072 3.68 -3.3 5000004.97512
7.185072 3.66 -3.3 5000004.97512
7.185072 3.02 -3.3 5000004.97512
7.185072 5.72 -3.32 5000004.97512
7.149126 5.24 -3.32 5000004.91521
7.149126 4.9 -3.32 5000004.91521
7.149126 4.88 -3.32 5000004.91521
7.149126 4.82 -3.32 5000004.91521
7.149126 3.66 -3.32 5000004.91521
7.185072 3.64 -3.32 5000004.97512
7.221906000000001 3.0 -3.32 5000005.03651
7.221906000000001 2.64 -3.32 5000005.03651
7.185072 5.82 -3.34 5000004.97512
7.221906000000001 5.78 -3.34 5000005.03651
7.185072 5.72 -3.34 5000004.97512
7.046298 5.24 -3.34 5000004.74383
7.149126 4.86 -3.34 5000004.91521
7.185072 3.74 -3.34 5000004.97512
7.185072 3.1 -3.34 5000004.97512
7.185072 3.08 -3.34 5000004.97512
7.185072 3.06 -3.34 5000004.97512
7.259664000000001 2.66 -3.34 5000005.09944
7.221906000000001 2.64 -3.34 5000005.03651
7.221906000000001 2.62 -3.34 5000005.03651
7.221906000000001 2.6 -3.34 5000005.03651
7.149126 5.84 -3.36 5000004.91521
7.114037999999999 5.82 -3.36 5000004.85673
7.046298 5.3 -3.36 5000004.74383
7.046298 5.28 -3.36 5000004.74383
7.149126 5.22 -3.36 5000004.91521
7.114037999999999 4.44 -3.36 5000004.85673
7.114037999999999 4.42 -3.36 5000004.85673
7.046298 4.1 -3.36 5000004.74383
7.114037999999999 3.74 -3.36 5000004.85673
7.149126 3.7 -3.36 5000004.91521
7.185072 3.1 -3.36 5000004.97512
7.185072 3.08 -3.36 5000004.97512
7.185072 3.06 -3.36 5000004.97512
7.259664000000001 2.66 -3.36 5000005.09944
7.221906000000001 2.64 -3.36 5000005.03651
7.149126 5.86 -3.38 5000004.91521
7.149126 5.84 -3.38 5000004.91521
7.046298 5.3 -3.38 5000004.74383
7.046298 5.28 -3.38 5000004.74383
7.046298 5.26 -3.38 5000004.74383
7.046298 4.52 -3.38 5000004.74383
7.114037999999999 4.4 -3.38 5000004.85673
7.079772 4.38 -3.38 5000004.79962
7.013598 4.08 -3.38 5000004.68933
7.079772 3.82 -3.38 5000004.79962
7.046298 3.8 -3.38 5000004.74383
7.079772 3.74 -3.38 5000004.79962
7.185072 3.7 -3.38 5000004.97512
7.378806 2.42 -3.38 5000005.29801
7.149126 5.86 -3.4 5000004.91521
7.149126 5.84 -3.4 5000004.91521
7.079772 5.78 -3.4 5000004.79962
7.046298 4.52 -3.4 5000004.74383
7.046298 4.5 -3.4 5000004.74383
7.013598 4.18 -3.4 5000004.68933
7.013598 4.08 -3.4 5000004.68933
7.013598 4.06 -3.4 5000004.68933
7.079772 3.82 -3.4 5000004.79962
7.046298 3.8 -3.4 5000004.74383
7.079772 3.78 -3.4 5000004.79962
7.114037999999999 3.7 -3.4 5000004.85673
7.079772 5.78 -3.42 5000004.79962
7.046298 4.76 -3.42 5000004.74383
7.046298 4.74 -3.42 5000004.74383
7.046298 4.52 -3.42 5000004.74383
7.046298 4.5 -3.42 5000004.74383
7.013598 4.08 -3.42 5000004.68933
7.013598 4.06 -3.42 5000004.68933
7.013598 4.04 -3.42 5000004.68933
7.046298 3.78 -3.42 5000004.74383
7.046298 3.76 -3.42 5000004.74383
7.378806 2.46 -3.42 5000005.29801
7.378806 2.44 -3.42 5000005.29801
7.046298 5.32 -3.44 5000004.74383
7.079772 4.8 -3.44 5000004.79962
7.046298 4.74 -3.44 5000004.74383
7.046298 4.72 -3.44 5000004.74383
7.046298 4.7 -3.44 5000004.74383
7.013598 4.14 -3.44 5000004.68933
6.981642 4.04 -3.44 5000004.63607
6.981642 4.02 -3.44 5000004.63607
7.046298 3.76 -3.44 5000004.74383
7.338077999999999 2.44 -3.44 5000005.23013
7.046298 4.76 -3.46 5000004.74383
7.046298 4.74 -3.46 5000004.74383
7.013598 4.14 -3.46 5000004.68933
6.981642 4.02 -3.46 5000004.63607
7.046298 3.68 -3.46 5000004.74383
7.114037999999999 2.8 -3.46 5000004.85673
7.221906000000001 2.6 -3.46 5000005.03651
7.013598 5.74 -3.48 5000004.68933
7.013598 4.74 -3.48 5000004.68933
6.9504 4.5 -3.48 5000004.584
6.981642 4.02 -3.48 5000004.63607
6.981642 4.0 -3.48 5000004.63607
7.046298 3.5 -3.48 5000004.74383
7.114037999999999 3.1 -3.48 5000004.85673
7.114037999999999 3.0 -3.48 5000004.85673
7.114037999999999 2.9 -3.48 5000004.85673
7.114037999999999 2.88 -3.48 5000004.85673
7.114037999999999 2.8 -3.48 5000004.85673
7.114037999999999 2.78 -3.48 5000004.85673
6.981642 4.24 -3.5 5000004.63607
6.981642 4.22 -3.5 5000004.63607
6.981642 4.02 -3.5 5000004.63607
7.114037999999999 2.78 -3.5 5000004.85673
7.114037999999999 2.76 -3.5 5000004.85673
6.919854 5.12 -3.52 5000004.53309
6.9504 4.52 -3.52 5000004.584
6.981642 4.22 -3.52 5000004.63607
6.981642 4.2 -3.52 5000004.63607
6.981642 4.32 -3.54 5000004.63607
6.981642 4.2 -3.54 5000004.63607
6.9504 4.18 -3.54 5000004.584
6.9504 4.16 -3.54 5000004.584
7.221906000000001 -3.54 -3.54 5000005.03651
7.221906000000001 -3.56 -3.54 5000005.03651
6.69792 5.06 -3.56 5000004.1632
6.9504 4.32 -3.56 5000004.584
6.9504 4.16 -3.56 5000004.584
6.9504 3.86 -3.56 5000004.584
6.9504 3.84 -3.56 5000004.584
7.149126 2.72 -3.56 5000004.91521
7.149126 2.7 -3.56 5000004.91521
6.69792 5.04 -3.58 5000004.1632
6.9504 4.32 -3.58 5000004.584
6.9504 4.3 -3.58 5000004.584
6.919854 5.62 -3.6 5000004.53309
6.804168 4.42 -3.6 5000004.34028
6.919854 4.3 -3.6 5000004.53309
6.919854 4.28 -3.6 5000004.53309
7.221906000000001 1.7 -3.6 5000005.03651
6.919854 5.36 -3.62 5000004.53309
6.9504 3.9 -3.62 5000004.584
6.919854 3.46 -3.62 5000004.53309
7.185072 2.6 -3.62 5000004.97512
7.185072 2.58 -3.62 5000004.97512
6.88998 5.7 -3.64 5000004.4833
6.860754 4.72 -3.64 5000004.43459
6.832158 4.62 -3.64 5000004.38693
6.832158 4.6 -3.64 5000004.38693
6.9504 3.88 -3.64 5000004.584
6.919854 3.46 -3.64 5000004.53309
6.919854 3.44 -3.64 5000004.53309
6.88998 5.7 -3.66 5000004.4833
6.860754 5.28 -3.66 5000004.43459
6.860754 5.26 -3.66 5000004.43459
6.88998 4.78 -3.66 5000004.4833
6.832158 4.6 -3.66 5000004.38693
6.832158 4.58 -3.66 5000004.38693
6.832158 4.56 -3.66 5000004.38693
6.832158 4.1 -3.66 5000004.38693
6.88998 5.74 -3.68 5000004.4833
6.832158 5.38 -3.68 5000004.38693
6.832158 5.36 -3.68 5000004.38693
6.860754 5.26 -3.68 5000004.43459
6.860754 5.24 -3.68 5000004.43459
6.860754 5.22 -3.68 5000004.43459
6.860754 5.2 -3.68 5000004.43459
6.88998 4.78 -3.68 5000004.4833
6.832158 4.7 -3.68 5000004.38693
6.832158 4.68 -3.68 5000004.38693
6.88998 4.2 -3.68 5000004.4833
6.832158 4.12 -3.68 5000004.38693
6.832158 4.1 -3.68 5000004.38693
6.832158 4.08 -3.68 5000004.38693
7.114037999999999 1.38 -3.68 5000004.85673
6.88998 5.76 -3.7 5000004.4833
6.832158 5.38 -3.7 5000004.38693
6.832158 5.36 -3.7 5000004.38693
6.832158 5.34 -3.7 5000004.38693
6.860754 5.22 -3.7 5000004.43459
6.860754 5.2 -3.7 5000004.43459
6.860754 5.18 -3.7 5000004.43459
6.804168 4.7 -3.7 5000004.34028
6.804168 4.68 -3.7 5000004.34028
6.88998 4.14 -3.7 5000004.4833
6.832158 4.12 -3.7 5000004.38693
6.832158 4.1 -3.7 5000004.38693
6.832158 3.5 -3.7 5000004.38693
6.832158 5.36 -3.72 5000004.38693
6.832158 5.34 -3.72 5000004.38693
6.804168 5.32 -3.72 5000004.34028
6.804168 4.68 -3.72 5000004.34028
6.776765999999999 4.56 -3.72 5000004.29461
6.804168 4.54 -3.72 5000004.34028
6.72366 5.28 -3.74 5000004.2061
6.804168 4.54 -3.74 5000004.34028
6.776765999999999 4.5 -3.74 5000004.29461
6.804168 4.48 -3.74 5000004.34028
6.832158 3.54 -3.74 5000004.38693
6.860754 3.44 -3.74 5000004.43459
6.860754 3.42 -3.74 5000004.43459
7.114037999999999 1.66 -3.74 5000004.85673
7.114037999999999 1.64 -3.74 5000004.85673
7.114037999999999 1.62 -3.74 5000004.85673
6.776765999999999 4.5 -3.76 5000004.29461
6.804168 4.48 -3.76 5000004.34028
6.804168 4.46 -3.76 5000004.34028
6.860754 3.42 -3.76 5000004.43459
6.860754 3.4 -3.76 5000004.43459
7.114037999999999 1.62 -3.76 5000004.85673
6.804168 5.48 -3.78 5000004.34028
6.832158 5.4 -3.78 5000004.38693
6.832158 5.38 -3.78 5000004.38693
6.804168 4.46 -3.78 5000004.34028
6.7499340000000005 4.18 -3.78 5000004.24989
6.832158 3.8 -3.78 5000004.38693
6.88998 3.02 -3.78 5000004.4833
6.832158 5.46 -3.8 5000004.38693
6.832158 5.44 -3.8 5000004.38693
6.832158 5.42 -3.8 5000004.38693
6.832158 5.4 -3.8 5000004.38693
6.832158 5.38 -3.8 5000004.38693
6.7499340000000005 4.24 -3.8 5000004.24989
6.7499340000000005 4.16 -3.8 5000004.24989
6.88998 3.02 -3.8 5000004.4833
6.88998 3.0 -3.8 5000004.4833
6.832158 5.46 -3.82 5000004.38693
6.832158 5.44 -3.82 5000004.38693
6.832158 5.4 -3.82 5000004.38693
6.832158 5.38 -3.82 5000004.38693
6.647982 4.82 -3.82 5000004.07997
6.647982 4.8 -3.82 5000004.07997
6.72366 4.24 -3.82 5000004.2061
6.7499340000000005 4.22 -3.82 5000004.24989
6.7499340000000005 4.2 -3.82 5000004.24989
6.7499340000000005 4.14 -3.82 5000004.24989
6.7499340000000005 4.12 -3.82 5000004.24989
6.860754 3.7 -3.82 5000004.43459
6.776765999999999 5.38 -3.84 5000004.29461
6.647982 4.8 -3.84 5000004.07997
6.647982 4.78 -3.84 5000004.07997
6.7499340000000005 4.66 -3.84 5000004.24989
6.7499340000000005 4.64 -3.84 5000004.24989
6.7499340000000005 4.62 -3.84 5000004.24989
6.69792 4.46 -3.84 5000004.1632
6.7499340000000005 4.22 -3.84 5000004.24989
6.7499340000000005 4.2 -3.84 5000004.24989
6.72366 4.12 -3.84 5000004.2061
6.72366 4.1 -3.84 5000004.2061
6.7499340000000005 5.36 -3.86 5000004.24989
6.7499340000000005 4.66 -3.86 5000004.24989
6.7499340000000005 4.64 -3.86 5000004.24989
6.7499340000000005 4.62 -3.86 5000004.24989
6.7499340000000005 4.6 -3.86 5000004.24989
6.7499340000000005 4.58 -3.86 5000004.24989
6.72366 4.2 -3.86 5000004.2061
6.72366 4.18 -3.86 5000004.2061
6.72366 4.16 -3.86 5000004.2061
6.776765999999999 3.66 -3.86 5000004.29461
6.7499340000000005 3.64 -3.86 5000004.24989
6.7499340000000005 3.62 -3.86 5000004.24989
6.7499340000000005 5.36 -3.88 5000004.24989
6.7499340000000005 4.62 -3.88 5000004.24989
6.7499340000000005 4.6 -3.88 5000004.24989
6.7499340000000005 4.58 -3.88 5000004.24989
6.72366 4.56 -3.88 5000004.2061
6.72366 4.14 -3.88 5000004.2061
6.981642 -0.32 -3.88 5000004.63607
6.981642 -5.8 -3.88 5000004.63607
6.672695999999999 4.9 -3.9 5000004.12116
6.672695999999999 4.86 -3.9 5000004.12116
6.69792 5.24 -3.92 5000004.1632
6.623754 4.84 -3.92 5000004.03959
6.623754 4.82 -3.92 5000004.03959
6.623754 4.8 -3.92 5000004.03959
6.647982 4.78 -3.92 5000004.07997
6.647982 4.76 -3.92 5000004.07997
6.69792 4.5 -3.92 5000004.1632
6.69792 4.48 -3.92 5000004.1632
6.72366 4.42 -3.92 5000004.2061
6.72366 3.68 -3.92 5000004.2061
6.9504 0.52 -3.92 5000004.584
6.9504 0.5 -3.92 5000004.584
6.919854 -5.48 -3.92 5000004.53309
6.623754 4.72 -3.94 5000004.03959
6.623754 4.7 -3.94 5000004.03959
6.7499340000000005 4.58 -3.94 5000004.24989
6.7499340000000005 4.56 -3.94 5000004.24989
6.72366 3.8 -3.94 5000004.2061
6.672695999999999 3.76 -3.94 5000004.12116
6.72366 3.68 -3.94 5000004.2061
6.72366 3.66 -3.94 5000004.2061
6.776765999999999 3.42 -3.94 5000004.29461
6.776765999999999 3.4 -3.94 5000004.29461
6.9504 -3.1 -3.94 5000004.584
6.72366 3.74 -3.96 5000004.2061
6.69792 4.18 -3.98 5000004.1632
6.69792 4.16 -3.98 5000004.1632
6.88998 -4.02 -3.98 5000004.4833
6.672695999999999 4.0 -4.0 5000004.12116
6.72366 5.94 -4.02 5000004.2061
6.623754 4.86 -4.02 5000004.03959
6.647982 4.46 -4.02 5000004.07997
6.672695999999999 4.0 -4.02 5000004.12116
6.672695999999999 3.98 -4.02 5000004.12116
6.672695999999999 3.96 -4.02 5000004.12116
6.623754 4.62 -4.04 5000004.03959
6.623754 4.6 -4.04 5000004.03959
6.647982 4.46 -4.04 5000004.07997
6.647982 4.44 -4.04 5000004.07997
6.672695999999999 3.98 -4.04 5000004.12116
6.672695999999999 3.96 -4.04 5000004.12116
6.69792 3.72 -4.04 5000004.1632
6.69792 3.7 -4.04 5000004.1632
6.69792 3.34 -4.06 5000004.1632
6.832158 2.72 -4.06 5000004.38693
6.832158 2.7 -4.06 5000004.38693
6.860754 -0.26 -4.06 5000004.43459
6.860754 -0.28 -4.06 5000004.43459
6.647982 5.16 -4.08 5000004.07997
6.623754 4.94 -4.08 5000004.03959
6.832158 2.7 -4.08 5000004.38693
6.832158 2.06 -4.08 5000004.38693
6.623754 4.46 -4.12 5000004.03959
6.804168 2.12 -4.12 5000004.34028
6.832158 -0.24 -4.12 5000004.38693
6.832158 -0.26 -4.12 5000004.38693
6.804168 2.1 -4.14 5000004.34028
6.804168 2.08 -4.14 5000004.34028
6.623754 4.0 -4.16 5000004.03959
6.623754 3.48 -4.16 5000004.03959
6.804168 5.88 -4.22 5000004.34028
6.623754 4.7 -4.24 5000004.03959
6.623754 4.68 -4.24 5000004.03959
6.623754 3.48 -4.24 5000004.03959
6.623754 5.6 -4.26 5000004.03959
6.623754 4.68 -4.26 5000004.03959
6.623754 5.6 -4.28 5000004.03959
6.69792 -1.16 -4.28 5000004.1632
6.623754 4.88 -4.3 5000004.03959
6.623754 4.98 -4.32 5000004.03959
6.623754 4.88 -4.32 5000004.03959
6.623754 5.9 -4.34 5000004.03959
6.623754 5.88 -4.34 5000004.03959
6.623754 5.8 -4.34 5000004.03959
6.623754 5.68 -4.34 5000004.03959
6.672695999999999 -5.5 -4.34 5000004.12116
6.623754 5.9 -4.36 5000004.03959
6.672695999999999 -5.5 -4.36 5000004.12116
6.672695999999999 -5.52 -4.36 5000004.12116
6.672695999999999 -5.54 -4.36 5000004.12116
6.623754 4.82 -4.38 5000004.03959
6.623754 4.82 -4.4 5000004.03959
6.623754 4.8 -4.4 5000004.03959
6.623754 4.5 -4.4 5000004.03959
6.623754 -1.88 -4.4 5000004.03959
6.647982 -5.08 -4.4 5000004.07997
6.647982 -5.1 -4.4 5000004.07997
6.623754 4.8 -4.42 5000004.03959
6.623754 0.12 -4.42 5000004.03959
6.647982 -5.56 -4.42 5000004.07997
6.647982 -5.58 -4.42 5000004.07997
6.623754 -6.44 -5.0 5000004.03959
-3.66 5000004.43459
7.7933200000000005 4.78 -3.66 5000004.4833
7.754772 4.6 -3.66 5000004.38693
7.754772 4.58 -3.66 5000004.38693
7.754772 4.56 -3.66 5000004.38693
7.754772 4.1 -3.66 5000004.38693
7.7933200000000005 5.74 -3.68 5000004.4833
7.754772 5.38 -3.68 5000004.38693
7.754772 5.36 -3.68 5000004.38693
7.773835999999999 5.26 -3.68 5000004.43459
7.773835999999999 5.24 -3.68 5000004.43459
7.773835999999999 5.22 -3.68 5000004.43459
7.773835999999999 5.2 -3.68 5000004.43459
7.7933200000000005 4.78 -3.68 5000004.4833
7.754772 4.7 -3.68 5000004.38693
7.754772 4.68 -3.68 5000004.38693
7.7933200000000005 4.2 -3.68 5000004.4833
7.754772 4.12 -3.68 5000004.38693
7.754772 4.1 -3.68 5000004.38693
7.754772 4.08 -3.68 5000004.38693
7.942692 1.38 -3.68 5000004.85673
7.7933200000000005 5.76 -3.7 5000004.4833
7.754772 5.38 -3.7 5000004.38693
7.754772 5.36 -3.7 5000004.38693
7.754772 5.34 -3.7 5000004.38693
7.773835999999999 5.22 -3.7 5000004.43459
7.773835999999999 5.2 -3.7 5000004.43459
7.773835999999999 5.18 -3.7 5000004.43459
7.736111999999999 4.7 -3.7 5000004.34028
7.736111999999999 4.68 -3.7 5000004.34028
7.7933200000000005 4.14 -3.7 5000004.4833
7.754772 4.12 -3.7 5000004.38693
7.754772 4.1 -3.7 5000004.38693
7.754772 3.5 -3.7 5000004.38693
7.754772 5.36 -3.72 5000004.38693
7.754772 5.34 -3.72 5000004.38693
7.736111999999999 5.32 -3.72 5000004.34028
7.736111999999999 4.68 -3.72 5000004.34028
7.7178439999999995 4.56 -3.72 5000004.29461
7.736111999999999 4.54 -3.72 5000004.34028
7.68244 5.28 -3.74 5000004.2061
7.736111999999999 4.54 -3.74 5000004.34028
7.7178439999999995 4.5 -3.74 5000004.29461
7.736111999999999 4.48 -3.74 5000004.34028
7.754772 3.54 -3.74 5000004.38693
7.773835999999999 3.44 -3.74 5000004.43459
7.773835999999999 3.42 -3.74 5000004.43459
7.942692 1.66 -3.74 5000004.85673
7.942692 1.64 -3.74 5000004.85673
7.942692 1.62 -3.74 5000004.85673
7.7178439999999995 4.5 -3.76 5000004.29461
7.736111999999999 4.48 -3.76 5000004.34028
7.736111999999999 4.46 -3.76 5000004.34028
7.773835999999999 3.42 -3.76 5000004.43459
7.773835999999999 3.4 -3.76 5000004.43459
7.942692 1.62 -3.76 5000004.85673
7.736111999999999 5.48 -3.78 5000004.34028
7.754772 5.4 -3.78 5000004.38693
7.754772 5.38 -3.78 5000004.38693
7.736111999999999 4.46 -3.78 5000004.34028
7.699956 4.18 -3.78 5000004.24989
7.754772 3.8 -3.78 5000004.38693
7.7933200000000005 3.02 -3.78 5000004.4833
7.754772 5.46 -3.8 5000004.38693
7.754772 5.44 -3.8 5000004.38693
7.754772 5.42 -3.8 5000004.38693
7.754772 5.4 -3.8 5000004.38693
7.754772 5.38 -3.8 5000004.38693
7.699956 4.24 -3.8 5000004.24989
7.699956 4.16 -3.8 5000004.24989
7.7933200000000005 3.02 -3.8 5000004.4833
7.7933200000000005 3.0 -3.8 5000004.4833
7.754772 5.46 -3.82 5000004.38693
7.754772 5.44 -3.82 5000004.38693
7.754772 5.4 -3.82 5000004.38693
7.754772 5.38 -3.82 5000004.38693
7.631988 4.82 -3.82 5000004.07997
7.631988 4.8 -3.82 5000004.07997
7.68244 4.24 -3.82 5000004.2061
7.699956 4.22 -3.82 5000004.24989
7.699956 4.2 -3.82 5000004.24989
7.699956 4.14 -3.82 5000004.24989
7.699956 4.12 -3.82 5000004.24989
7.773835999999999 3.7 -3.82 5000004.43459
7.7178439999999995 5.38 -3.84 5000004.29461
7.631988 4.8 -3.84 5000004.07997
7.631988 4.78 -3.84 5000004.07997
7.699956 4.66 -3.84 5000004.24989
7.699956 4.64 -3.84 5000004.24989
7.699956 4.62 -3.84 5000004.24989
7.66528 4.46 -3.84 5000004.1632
7.699956 4.22 -3.84 5000004.24989
7.699956 4.2 -3.84 5000004.24989
7.68244 4.12 -3.84 5000004.2061
7.68244 4.1 -3.84 5000004.2061
7.699956 5.36 -3.86 5000004.24989
7.699956 4.66 -3.86 5000004.24989
7.699956 4.64 -3.86 5000004.24989
7.699956 4.62 -3.86 5000004.24989
7.699956 4.6 -3.86 5000004.24989
7.699956 4.58 -3.86 5000004.24989
7.68244 4.2 -3.86 5000004.2061
7.68244 4.18 -3.86 5000004.2061
7.68244 4.16 -3.86 5000004.2061
7.7178439999999995 3.66 -3.86 5000004.29461
7.699956 3.64 -3.86 5000004.24989
7.699956 3.62 -3.86 5000004.24989
7.699956 5.36 -3.88 5000004.24989
7.699956 4.62 -3.88 5000004.24989
7.699956 4.6 -3.88 5000004.24989
7.699956 4.58 -3.88 5000004.24989
7.68244 4.56 -3.88 5000004.2061
7.68244 4.14 -3.88 5000004.2061
7.854428 -0.32 -3.88 5000004.63607
7.854428 -5.8 -3.88 5000004.63607
7.648464000000001 4.9 -3.9 5000004.12116
7.648464000000001 4.86 -3.9 5000004.12116
7.66528 5.24 -3.92 5000004.1632
7.615836 4.84 -3.92 5000004.03959
7.615836 4.82 -3.92 5000004.03959
7.615836 4.8 -3.92 5000004.03959
7.631988 4.78 -3.92 5000004.07997
7.631988 4.76 -3.92 5000004.07997
7.66528 4.5 -3.92 5000004.1632
7.66528 4.48 -3.92 5000004.1632
7.68244 4.42 -3.92 5000004.2061
7.68244 3.68 -3.92 5000004.2061
7.8336 0.52 -3.92 5000004.584
7.8336 0.5 -3.92 5000004.584
7.813236 -5.48 -3.92 5000004.53309
7.615836 4.72 -3.94 5000004.03959
7.615836 4.7 -3.94 5000004.03959
7.699956 4.58 -3.94 5000004.24989
7.699956 4.56 -3.94 5000004.24989
7.68244 3.8 -3.94 5000004.2061
7.648464000000001 3.76 -3.94 5000004.12116
7.68244 3.68 -3.94 5000004.2061
7.68244 3.66 -3.94 5000004.2061
7.7178439999999995 3.42 -3.94 5000004.29461
7.7178439999999995 3.4 -3.94 5000004.29461
7.8336 -3.1 -3.94 5000004.584
7.68244 3.74 -3.96 5000004.2061
7.66528 4.18 -3.98 5000004.1632
7.66528 4.16 -3.98 5000004.1632
7.7933200000000005 -4.02 -3.98 5000004.4833
7.648464000000001 4.0 -4.0 5000004.12116
7.68244 5.94 -4.02 5000004.2061
7.615836 4.86 -4.02 5000004.03959
7.631988 4.46 -4.02 5000004.07997
7.648464000000001 4.0 -4.02 5000004.12116
7.648464000000001 3.98 -4.02 5000004.12116
7.648464000000001 3.96 -4.02 5000004.12116
7.615836 4.62 -4.04 5000004.03959
7.615836 4.6 -4.04 5000004.03959
7.631988 4.46 -4.04 5000004.07997
7.631988 4.44 -4.04 5000004.07997
7.648464000000001 3.98 -4.04 5000004.12116
7.648464000000001 3.96 -4.04 5000004.12116
7.66528 3.72 -4.04 5000004.1632
7.66528 3.7 -4.04 5000004.1632
7.66528 3.34 -4.06 5000004.1632
7.754772 2.72 -4.06 5000004.38693
7.754772 2.7 -4.06 5000004.38693
7.773835999999999 -0.26 -4.06 5000004.43459
7.773835999999999 -0.28 -4.06 5000004.43459
7.631988 5.16 -4.08 5000004.07997
7.615836 4.94 -4.08 5000004.03959
7.754772 2.7 -4.08 5000004.38693
7.754772 2.06 -4.08 5000004.38693
7.615836 4.46 -4.12 5000004.03959
7.736111999999999 2.12 -4.12 5000004.34028
7.754772 -0.24 -4.12 5000004.38693
7.754772 -0.26 -4.12 5000004.38693
7.736111999999999 2.1 -4.14 5000004.34028
7.736111999999999 2.08 -4.14 5000004.34028
7.615836 4.0 -4.16 5000004.03959
7.615836 3.48 -4.16 5000004.03959
7.736111999999999 5.88 -4.22 5000004.34028
7.615836 4.7 -4.24 5000004.03959
7.615836 4.68 -4.24 5000004.03959
7.615836 3.48 -4.24 5000004.03959
7.615836 5.6 -4.26 5000004.03959
7.615836 4.68 -4.26 5000004.03959
7.615836 5.6 -4.28 5000004.03959
7.66528 -1.16 -4.28 5000004.1632
7.615836 4.88 -4.3 5000004.03959
7.615836 4.98 -4.32 5000004.03959
7.615836 4.88 -4.32 5000004.03959
7.615836 5.9 -4.34 5000004.03959
7.615836 5.88 -4.34 5000004.03959
7.615836 5.8 -4.34 5000004.03959
7.615836 5.68 -4.34 5000004.03959
7.648464000000001 -5.5 -4.34 5000004.12116
7.615836 5.9 -4.36 5000004.03959
7.648464000000001 -5.5 -4.36 5000004.12116
7.648464000000001 -5.52 -4.36 5000004.12116
7.648464000000001 -5.54 -4.36 5000004.12116
7.615836 4.82 -4.38 5000004.03959
7.615836 4.82 -4.4 5000004.03959
7.615836 4.8 -4.4 5000004.03959
7.615836 4.5 -4.4 5000004.03959
7.615836 -1.88 -4.4 5000004.03959
7.631988 -5.08 -4.4 5000004.07997
7.631988 -5.1 -4.4 5000004.07997
7.615836 4.8 -4.42 5000004.03959
7.615836 0.12 -4.42 5000004.03959
7.631988 -5.56 -4.42 5000004.07997
7.631988 -5.58 -4.42 5000004.07997
7.615836 -6.44 -5.0 5000004.03959
.766666666666666 1.7 5000011.325
10.3775 -17.8 1.7 5000011.325
10.36731 -17.833333333333332 1.7 5000011.0193
10.357653333333333 -17.866666666666667 1.7 5000010.7296
10.357653333333333 -17.9 1.7 5000010.7296
10.503143333333334 -14.933333333333334 1.6666666666666667 5000015.0943
10.42463 -16.333333333333332 1.6666666666666667 5000012.7389
10.42463 -16.366666666666667 1.6666666666666667 5000012.7389
10.590493333333333 -14.033333333333333 1.6333333333333333 5000017.7148
10.590493333333333 -14.066666666666666 1.6333333333333333 5000017.7148
10.503143333333334 -15.133333333333333 1.6333333333333333 5000015.0943
10.503143333333334 -15.166666666666666 1.6333333333333333 5000015.0943
10.42463 -16.333333333333332 1.6333333333333333 5000012.7389
10.42463 -16.366666666666667 1.6333333333333333 5000012.7389
10.503143333333334 -15.133333333333333 1.6 5000015.0943
10.503143333333334 -15.166666666666666 1.6 5000015.0943
10.503143333333334 -14.933333333333334 1.5666666666666667 5000015.0943
10.503143333333334 -15.166666666666666 1.5666666666666667 5000015.0943
10.411776666666666 -16.6 1.5666666666666667 5000012.3533
10.411776666666666 -16.533333333333335 1.5 5000012.3533
10.411776666666666 -16.5 1.4666666666666666 5000012.3533
10.411776666666666 -16.533333333333335 1.4666666666666666 5000012.3533
10.411776666666666 -16.7 1.4666666666666666 5000012.3533
10.411776666666666 -16.733333333333334 1.4666666666666666 5000012.3533
10.411776666666666 -16.533333333333335 1.4333333333333333 5000012.3533
10.411776666666666 -16.6 1.4333333333333333 5000012.3533
10.411776666666666 -16.7 1.4333333333333333 5000012.3533
10.411776666666666 -16.733333333333334 1.4333333333333333 5000012.3533
10.503143333333334 -15.1 1.4 5000015.0943
10.503143333333334 -15.133333333333333 1.4 5000015.0943
10.503143333333334 -15.366666666666667 1.4 5000015.0943
10.503143333333334 -15.4 1.4 5000015.0943
10.503143333333334 -15.0 1.3666666666666667 5000015.0943
10.42463 -16.4 1.3666666666666667 5000012.7389
10.42463 -16.433333333333334 1.3666666666666667 5000012.7389
10.411776666666666 -16.666666666666668 1.3 5000012.3533
10.411776666666666 -16.7 1.3 5000012.3533
10.411776666666666 -16.733333333333334 1.3 5000012.3533
10.411776666666666 -16.666666666666668 1.2666666666666666 5000012.3533
10.411776666666666 -16.7 1.2666666666666666 5000012.3533
10.468493333333333 -17.266666666666666 1.2666666666666666 5000014.0548
10.4529 -17.333333333333332 1.2666666666666666 5000013.587
10.4529 -17.366666666666667 1.2666666666666666 5000013.587
10.42463 -17.433333333333334 1.2666666666666666 5000012.7389
10.411776666666666 -17.466666666666665 1.2666666666666666 5000012.3533
10.39968 -17.5 1.2666666666666666 5000011.9904
10.39968 -17.533333333333335 1.2666666666666666 5000011.9904
10.388273333333334 -17.566666666666666 1.2666666666666666 5000011.6482
10.388273333333334 -17.6 1.2666666666666666 5000011.6482
10.3775 -17.633333333333333 1.2666666666666666 5000011.325
10.468493333333333 -17.266666666666666 1.2333333333333334 5000014.0548
10.4529 -17.3 1.2333333333333334 5000013.587
10.4529 -17.333333333333332 1.2333333333333334 5000013.587
10.4529 -17.366666666666667 1.2333333333333334 5000013.587
10.438306666666668 -17.4 1.2333333333333334 5000013.1492
10.42463 -17.433333333333334 1.2333333333333334 5000012.7389
10.411776666666666 -17.466666666666665 1.2333333333333334 5000012.3533
10.39968 -17.5 1.2333333333333334 5000011.9904
10.39968 -17.533333333333335 1.2333333333333334 5000011.9904
10.388273333333334 -17.566666666666666 1.2333333333333334 5000011.6482
10.388273333333334 -17.6 1.2333333333333334 5000011.6482
10.3775 -17.633333333333333 1.2333333333333334 5000011.325
10.357653333333333 -17.666666666666668 1.2333333333333334 5000010.7296
10.348493333333334 -17.7 1.2333333333333334 5000010.4548
10.4529 -17.9 1.2333333333333334 5000013.587
10.411776666666666 -16.7 1.2 5000012.3533
10.411776666666666 -16.733333333333334 1.2 5000012.3533
10.39968 -17.5 1.2 5000011.9904
10.39968 -17.533333333333335 1.2 5000011.9904
10.357653333333333 -17.666666666666668 1.2 5000010.7296
10.348493333333334 -17.7 1.2 5000010.4548
10.33979 -17.733333333333334 1.2 5000010.1937
10.33151 -17.766666666666666 1.2 5000009.9453
10.323624666666667 -17.8 1.2 5000009.70874
10.42463 -16.4 1.1666666666666667 5000012.7389
10.411776666666666 -16.666666666666668 1.1666666666666667 5000012.3533
10.411776666666666 -16.7 1.1666666666666667 5000012.3533
10.411776666666666 -16.733333333333334 1.1666666666666667 5000012.3533
10.42463 -16.4 1.1333333333333333 5000012.7389
10.42463 -16.433333333333334 1.1333333333333333 5000012.7389
10.411776666666666 -16.666666666666668 1.1333333333333333 5000012.3533
10.411776666666666 -16.7 1.1333333333333333 5000012.3533
10.411776666666666 -16.733333333333334 1.1333333333333333 5000012.3533
10.42463 -16.433333333333334 1.1 5000012.7389
10.42463 -16.533333333333335 1.1 5000012.7389
10.42463 -16.566666666666666 1.1 5000012.7389
10.411776666666666 -16.566666666666666 1.0 5000012.3533
10.411776666666666 -16.6 1.0 5000012.3533
10.411776666666666 -16.633333333333333 1.0 5000012.3533
10.411776666666666 -16.666666666666668 1.0 5000012.3533
10.39968 -3.533333333333333 0.9 5000011.9904
10.39968 -3.566666666666667 0.9 5000011.9904
10.39968 -16.733333333333334 0.8666666666666667 5000011.9904
10.39968 -16.766666666666666 0.8666666666666667 5000011.9904
10.39968 -16.8 0.8666666666666667 5000011.9904
10.411776666666666 1.0333333333333334 0.7666666666666667 5000012.3533
10.411776666666666 1.0 0.7333333333333333 5000012.3533
10.411776666666666 0.9666666666666667 0.7333333333333333 5000012.3533
10.411776666666666 0.9333333333333333 0.7333333333333333 5000012.3533
10.438306666666668 -11.9 0.7 5000013.1492
10.42463 -11.933333333333334 0.7 5000012.7389
10.42463 -11.966666666666667 0.7 5000012.7389
10.411776666666666 -12.0 0.7 5000012.3533
10.388273333333334 -12.033333333333333 0.7 5000011.6482
10.36731 -12.1 0.7 5000011.0193
10.357653333333333 -12.133333333333333 0.7 5000010.7296
10.42463 -11.966666666666667 0.6666666666666666 5000012.7389
10.411776666666666 -12.0 0.6666666666666666 5000012.3533
10.388273333333334 -12.033333333333333 0.6666666666666666 5000011.6482
10.3775 -12.066666666666666 0.6666666666666666 5000011.325
10.36731 -12.1 0.6666666666666666 5000011.0193
10.357653333333333 -12.133333333333333 0.6666666666666666 5000010.7296
10.357653333333333 -12.166666666666666 0.6666666666666666 5000010.7296
10.348493333333334 -12.2 0.6666666666666666 5000010.4548
10.3775 -16.133333333333333 0.6666666666666666 5000011.325
10.3775 -16.166666666666668 0.6666666666666666 5000011.325
10.33979 -3.1 0.6 5000010.1937
10.323624666666667 -4.033333333333333 0.43333333333333335 5000009.70874
10.308928 -2.8333333333333335 0.3333333333333333 5000009.26784
10.302069 -4.2 0.3333333333333333 5000009.06207
10.302069 -2.6666666666666665 0.3 5000009.06207
10.302069 -4.1 0.3 5000009.06207
10.316105666666667 -4.133333333333334 0.26666666666666666 5000009.48317
10.316105666666667 -4.166666666666667 0.26666666666666666 5000009.48317
10.295508333333334 -3.533333333333333 0.23333333333333334 5000008.86525
10.316105666666667 -17.533333333333335 0.23333333333333334 5000009.48317
10.316105666666667 -17.566666666666666 0.23333333333333334 5000009.48317
10.316105666666667 -17.6 0.23333333333333334 5000009.48317
10.295508333333334 -3.2333333333333334 0.2 5000008.86525
10.295508333333334 -3.533333333333333 0.2 5000008.86525
10.295508333333334 -3.566666666666667 0.2 5000008.86525
10.295508333333334 -3.6 0.2 5000008.86525
10.295508333333334 -3.1333333333333333 0.16666666666666666 5000008.86525
10.295508333333334 -3.1666666666666665 0.16666666666666666 5000008.86525
10.295508333333334 -3.6 0.16666666666666666 5000008.86525
10.289226333333334 -3.6333333333333333 0.16666666666666666 5000008.67679
10.295508333333334 -1.1666666666666667 0.13333333333333333 5000008.86525
10.295508333333334 -3.1666666666666665 0.13333333333333333 5000008.86525
10.295508333333334 -2.7 0.1 5000008.86525
10.283206 -2.466666666666667 0.06666666666666667 5000008.49618
10.277431 -3.2666666666666666 0.06666666666666667 5000008.32293
10.277431 -1.6666666666666667 0.03333333333333333 5000008.32293
10.289226333333334 -2.6333333333333333 0.03333333333333333 5000008.67679
10.277431 -2.8 0.03333333333333333 5000008.32293
10.277431 -3.1666666666666665 0.03333333333333333 5000008.32293
10.277431 -1.5666666666666667 0.0 5000008.32293
10.283206 -2.6666666666666665 -0.03333333333333333 5000008.49618
10.283206 -2.7 -0.03333333333333333 5000008.49618
10.26656 -2.9 -0.06666666666666667 5000007.9968
10.271887 -2.933333333333333 -0.06666666666666667 5000008.15661
10.271887 -2.6 -0.1 5000008.15661
10.271887 -2.7333333333333334 -0.1 5000008.15661
10.26656 -2.8 -0.1 5000007.9968
10.26656 -2.8333333333333335 -0.1 5000007.9968
10.261438 -2.5 -0.13333333333333333 5000007.84314
10.26656 -2.533333333333333 -0.13333333333333333 5000007.9968
10.26656 -2.8 -0.13333333333333333 5000007.9968
10.26656 -2.8333333333333335 -0.13333333333333333 5000007.9968
10.277431 -3.7 -0.13333333333333333 5000008.32293
10.295508333333334 -12.866666666666667 -0.13333333333333333 5000008.86525
10.295508333333334 -12.9 -0.13333333333333333 5000008.86525
10.295508333333334 -12.933333333333334 -0.13333333333333333 5000008.86525
10.289226333333334 -12.966666666666667 -0.13333333333333333 5000008.67679
10.283206 -13.133333333333333 -0.13333333333333333 5000008.49618
10.283206 -13.166666666666666 -0.13333333333333333 5000008.49618
10.283206 -13.2 -0.13333333333333333 5000008.49618
10.277431 -3.7 -0.16666666666666666 5000008.32293
10.261438 -2.4 -0.2 5000007.84314
10.26656 -2.433333333333333 -0.2 5000007.9968
10.261438 -2.3333333333333335 -0.23333333333333334 5000007.84314
10.251762333333334 -1.6666666666666667 -0.26666666666666666 5000007.55287
10.261438 -2.3333333333333335 -0.26666666666666666 5000007.84314
10.256509 -2.3333333333333335 -0.3333333333333333 5000007.69527
10.251762333333334 -1.4333333333333333 -0.36666666666666664 5000007.55287
10.247188333333334 -1.9666666666666666 -0.36666666666666664 5000007.41565
10.256509 -2.3666666666666667 -0.36666666666666664 5000007.69527
10.247188333333334 -2.7 -0.36666666666666664 5000007.41565
10.247188333333334 -2.7333333333333334 -0.36666666666666664 5000007.41565
10.247188333333334 -2.7666666666666666 -0.36666666666666664 5000007.41565
10.251762333333334 -2.966666666666667 -0.36666666666666664 5000007.55287
10.261438 -4.033333333333333 -0.36666666666666664 5000007.84314
10.247188333333334 -1.8333333333333333 -0.4 5000007.41565
10.247188333333334 -1.8666666666666667 -0.4 5000007.41565
10.247188333333334 -2.0 -0.4 5000007.41565
10.247188333333334 -2.7333333333333334 -0.4 5000007.41565
10.247188333333334 -2.8333333333333335 -0.4 5000007.41565
10.251762333333334 -2.966666666666667 -0.4 5000007.55287
10.247188333333334 -3.066666666666667 -0.4 5000007.41565
10.247188333333334 -1.8666666666666667 -0.43333333333333335 5000007.41565
10.247188333333334 -1.9 -0.43333333333333335 5000007.41565
10.247188333333334 -3.1 -0.43333333333333335 5000007.41565
10.247188333333334 -3.1333333333333333 -0.4666666666666667 5000007.41565
10.242777333333333 0.9 -0.5 5000007.28332
10.238521333333333 -0.06666666666666667 -0.5 5000007.15564
10.247188333333334 -3.1666666666666665 -0.5 5000007.41565
10.242777333333333 -3.2 -0.5 5000007.28332
10.238521333333333 -0.06666666666666667 -0.5333333333333333 5000007.15564
10.238521333333333 -1.9 -0.5333333333333333 5000007.15564
10.238521333333333 -2.8333333333333335 -0.5333333333333333 5000007.15564
10.247188333333334 -3.2333333333333334 -0.5333333333333333 5000007.41565
10.242777333333333 -3.2666666666666666 -0.5333333333333333 5000007.28332
10.234411666666666 -1.9 -0.5666666666666667 5000007.03235
10.238521333333333 -1.9333333333333333 -0.5666666666666667 5000007.15564
10.230441333333333 -1.0333333333333334 -0.6 5000006.91324
10.234411666666666 -1.6666666666666667 -0.6 5000007.03235
10.238521333333333 -3.466666666666667 -0.6 5000007.15564
10.230441333333333 -0.6333333333333333 -0.6333333333333333 5000006.91324
10.230441333333333 -0.6666666666666666 -0.6333333333333333 5000006.91324
10.234411666666666 -1.6666666666666667 -0.6333333333333333 5000007.03235
10.234411666666666 -1.7 -0.6333333333333333 5000007.03235
10.234411666666666 -1.8333333333333333 -0.6333333333333333 5000007.03235
10.234411666666666 -1.8666666666666667 -0.6333333333333333 5000007.03235
10.230441333333333 -2.466666666666667 -0.6333333333333333 5000006.91324
10.230441333333333 -0.6666666666666666 -0.6666666666666666 5000006.91324
10.230441333333333 -2.5 -0.6666666666666666 5000006.91324
10.230441333333333 -2.533333333333333 -0.6666666666666666 5000006.91324
10.226603333333333 0.16666666666666666 -0.7 5000006.7981
10.226603333333333 -0.13333333333333333 -0.7 5000006.7981
10.226603333333333 -0.26666666666666666 -0.7 5000006.7981
10.226603333333333 -1.0333333333333334 -0.7 5000006.7981
10.234411666666666 -1.7333333333333334 -0.7 5000007.03235
10.234411666666666 -1.7666666666666666 -0.7 5000007.03235
10.234411666666666 -1.8 -0.7 5000007.03235
10.230441333333333 -2.5 -0.7 5000006.91324
10.230441333333333 -2.533333333333333 -0.7 5000006.91324
10.247188333333334 -17.433333333333334 -0.7 5000007.41565
10.226603333333333 -0.26666666666666666 -0.7333333333333333 5000006.7981
10.230441333333333 -1.7 -0.7333333333333333 5000006.91324
10.230441333333333 -1.7333333333333334 -0.7333333333333333 5000006.91324
10.230441333333333 -1.7666666666666666 -0.7333333333333333 5000006.91324
10.230441333333333 -1.8 -0.7333333333333333 5000006.91324
10.226603333333333 -1.8333333333333333 -0.7333333333333333 5000006.7981
10.226603333333333 -1.8666666666666667 -0.7333333333333333 5000006.7981
10.226603333333333 -2.8 -0.8 5000006.7981
10.226603333333333 -2.8333333333333335 -0.8 5000006.7981
10.219298333333333 -0.23333333333333334 -0.8333333333333334 5000006.57895
10.222891 -2.533333333333333 -0.8333333333333334 5000006.68673
10.226603333333333 -2.8333333333333335 -0.8333333333333334 5000006.7981
10.226603333333333 -2.8666666666666667 -0.8333333333333334 5000006.7981
10.215819666666667 0.36666666666666664 -0.8666666666666667 5000006.47459
10.219298333333333 -0.03333333333333333 -0.8666666666666667 5000006.57895
10.215819666666667 -2.2333333333333334 -0.8666666666666667 5000006.47459
10.222891 -2.566666666666667 -0.8666666666666667 5000006.68673
10.226603333333333 -2.7666666666666666 -0.8666666666666667 5000006.7981
10.219298333333333 2.066666666666667 -0.9 5000006.57895
10.215819666666667 -0.13333333333333333 -0.9 5000006.47459
10.219298333333333 -2.1 -0.9 5000006.57895
10.215819666666667 0.13333333333333333 -0.9333333333333333 5000006.47459
10.215819666666667 0.1 -0.9333333333333333 5000006.47459
10.215819666666667 -0.9333333333333333 -0.9333333333333333 5000006.47459
10.230441333333333 -1.4 -0.9333333333333333 5000006.91324
10.209183 -1.5 -0.9333333333333333 5000006.27549
10.209183 -1.5333333333333334 -0.9333333333333333 5000006.27549
10.215819666666667 -2.4 -0.9333333333333333 5000006.47459
10.219298333333333 0.16666666666666666 -0.9666666666666667 5000006.57895
10.215819666666667 0.13333333333333333 -0.9666666666666667 5000006.47459
10.215819666666667 0.1 -0.9666666666666667 5000006.47459
10.215819666666667 0.06666666666666667 -0.9666666666666667 5000006.47459
10.215819666666667 0.03333333333333333 -0.9666666666666667 5000006.47459
10.230441333333333 -1.4 -0.9666666666666667 5000006.91324
10.209183 -1.5333333333333334 -0.9666666666666667 5000006.27549
10.209183 -1.5666666666666667 -0.9666666666666667 5000006.27549
10.215819666666667 -2.3666666666666667 -0.9666666666666667 5000006.47459
10.219298333333333 -2.7333333333333334 -0.9666666666666667 5000006.57895
10.226603333333333 -3.3333333333333335 -0.9666666666666667 5000006.7981
10.219298333333333 -3.3666666666666667 -0.9666666666666667 5000006.57895
10.215819666666667 0.06666666666666667 -1.0 5000006.47459
10.215819666666667 0.03333333333333333 -1.0 5000006.47459
10.209183 -1.3333333333333333 -1.0 5000006.27549
10.209183 -1.5666666666666667 -1.0 5000006.27549
10.212449666666666 -1.8 -1.0 5000006.37349
10.215819666666667 -2.433333333333333 -1.0 5000006.47459
10.212449666666666 -2.466666666666667 -1.0 5000006.37349
10.219298333333333 -2.7333333333333334 -1.0 5000006.57895
10.219298333333333 -2.7666666666666666 -1.0 5000006.57895
10.219298333333333 -3.3666666666666667 -1.0 5000006.57895
10.219298333333333 -3.4 -1.0 5000006.57895
10.219298333333333 -3.433333333333333 -1.0 5000006.57895
10.212449666666666 0.8333333333333334 -1.0333333333333334 5000006.37349
10.212449666666666 0.5666666666666667 -1.0333333333333334 5000006.37349
10.209183 0.4 -1.0333333333333334 5000006.27549
10.209183 -1.3 -1.0333333333333334 5000006.27549
10.209183 -1.3333333333333333 -1.0333333333333334 5000006.27549
10.209183 -1.5666666666666667 -1.0333333333333334 5000006.27549
10.212449666666666 -1.8333333333333333 -1.0333333333333334 5000006.37349
10.212449666666666 -1.8666666666666667 -1.0333333333333334 5000006.37349
10.212449666666666 -2.5 -1.0333333333333334 5000006.37349
10.212449666666666 -2.533333333333333 -1.0333333333333334 5000006.37349
10.215819666666667 -3.566666666666667 -1.0333333333333334 5000006.47459
10.212449666666666 0.8333333333333334 -1.0666666666666667 5000006.37349
10.212449666666666 0.5666666666666667 -1.0666666666666667 5000006.37349
10.209183 -1.3 -1.0666666666666667 5000006.27549
10.209183 -1.3333333333333333 -1.0666666666666667 5000006.27549
10.212449666666666 -1.7333333333333334 -1.0666666666666667 5000006.37349
10.212449666666666 -1.9 -1.0666666666666667 5000006.37349
10.212449666666666 -2.2333333333333334 -1.0666666666666667 5000006.37349
10.209183 -2.3 -1.0666666666666667 5000006.27549
10.215819666666667 -3.6 -1.0666666666666667 5000006.47459
10.215819666666667 -3.6333333333333333 -1.0666666666666667 5000006.47459
10.209183 -1.1333333333333333 -1.1 5000006.27549
10.209183 -1.3 -1.1 5000006.27549
10.209183 -1.3333333333333333 -1.1 5000006.27549
10.212449666666666 -1.7333333333333334 -1.1 5000006.37349
10.212449666666666 -1.7666666666666666 -1.1 5000006.37349
10.212449666666666 -1.8 -1.1 5000006.37349
10.212449666666666 -2.3666666666666667 -1.1 5000006.37349
10.215819666666667 -3.3666666666666667 -1.1 5000006.47459
10.202942666666667 0.03333333333333333 -1.1333333333333333 5000006.08828
10.206015666666667 -1.3 -1.1333333333333333 5000006.18047
10.206015666666667 -1.3333333333333333 -1.1333333333333333 5000006.18047
10.206015666666667 -1.3666666666666667 -1.1333333333333333 5000006.18047
10.202942666666667 -1.4 -1.1333333333333333 5000006.08828
10.212449666666666 -1.7666666666666666 -1.1333333333333333 5000006.37349
10.212449666666666 -1.8 -1.1333333333333333 5000006.37349
10.202942666666667 0.26666666666666666 -1.1666666666666667 5000006.08828
10.202942666666667 0.23333333333333334 -1.1666666666666667 5000006.08828
10.202942666666667 -0.13333333333333333 -1.1666666666666667 5000006.08828
10.202942666666667 -0.9666666666666667 -1.1666666666666667 5000006.08828
10.206015666666667 -1.3333333333333333 -1.1666666666666667 5000006.18047
10.206015666666667 -1.3666666666666667 -1.1666666666666667 5000006.18047
10.215819666666667 -3.3 -1.1666666666666667 5000006.47459
10.215819666666667 -3.3333333333333335 -1.1666666666666667 5000006.47459
10.19996 0.43333333333333335 -1.2 5000005.9988
10.202942666666667 0.23333333333333334 -1.2 5000006.08828
10.202942666666667 0.2 -1.2 5000006.08828
10.202942666666667 0.0 -1.2 5000006.08828
10.202942666666667 -0.03333333333333333 -1.2 5000006.08828
10.202942666666667 -0.9666666666666667 -1.2 5000006.08828
10.202942666666667 -1.0 -1.2 5000006.08828
10.19996 0.4666666666666667 -1.2333333333333334 5000005.9988
10.202942666666667 0.23333333333333334 -1.2333333333333334 5000006.08828
10.202942666666667 0.2 -1.2333333333333334 5000006.08828
10.202942666666667 -2.8 -1.2333333333333334 5000006.08828
10.202942666666667 -2.8333333333333335 -1.2333333333333334 5000006.08828
10.197063666666667 2.033333333333333 -1.2666666666666666 5000005.91191
10.197063666666667 1.6 -1.2666666666666666 5000005.91191
10.19996 0.5 -1.2666666666666666 5000005.9988
10.19996 0.4666666666666667 -1.2666666666666666 5000005.9988
10.202942666666667 -2.8666666666666667 -1.2666666666666666 5000006.08828
10.197063666666667 2.033333333333333 -1.3 5000005.91191
10.215819666666667 1.7666666666666666 -1.3 5000006.47459
10.197063666666667 1.6666666666666667 -1.3 5000005.91191
10.197063666666667 1.6 -1.3 5000005.91191
10.19996 1.5666666666666667 -1.3 5000005.9988
10.19996 0.4666666666666667 -1.3 5000005.9988
10.197063666666667 -1.5666666666666667 -1.3 5000005.91191
10.202942666666667 -2.066666666666667 -1.3 5000006.08828
10.226603333333333 -3.8 -1.3 5000006.7981
10.215819666666667 1.8 -1.3333333333333333 5000006.47459
10.215819666666667 1.7666666666666666 -1.3333333333333333 5000006.47459
10.197063666666667 1.7 -1.3333333333333333 5000005.91191
10.197063666666667 1.6666666666666667 -1.3333333333333333 5000005.91191
10.197063666666667 1.6333333333333333 -1.3333333333333333 5000005.91191
10.191516 -0.06666666666666667 -1.3333333333333333 5000005.74548
10.197063666666667 -1.5666666666666667 -1.3333333333333333 5000005.91191
10.197063666666667 -1.6 -1.3333333333333333 5000005.91191
10.202942666666667 -1.7 -1.3333333333333333 5000006.08828
10.197063666666667 1.9333333333333333 -1.3666666666666667 5000005.91191
10.191516 0.5333333333333333 -1.3666666666666667 5000005.74548
10.188857333333333 -1.0666666666666667 -1.3666666666666667 5000005.66572
10.202942666666667 -1.7333333333333334 -1.3666666666666667 5000006.08828
10.222891 -3.5 -1.3666666666666667 5000006.68673
10.222891 -3.566666666666667 -1.3666666666666667 5000006.68673
10.197063666666667 1.9333333333333333 -1.4 5000005.91191
10.197063666666667 1.9 -1.4 5000005.91191
10.215819666666667 1.8333333333333333 -1.4 5000006.47459
10.194250333333333 0.9666666666666667 -1.4 5000005.82751
10.191516 0.5 -1.4 5000005.74548
10.191516 -0.6 -1.4 5000005.74548
10.191516 -0.6333333333333333 -1.4 5000005.74548
10.191516 -0.7 -1.4 5000005.74548
10.188857333333333 -0.7333333333333333 -1.4 5000005.66572
10.194250333333333 -1.4666666666666666 -1.4 5000005.82751
10.19996 -2.466666666666667 -1.4 5000005.9988
10.212449666666666 -3.7666666666666666 -1.4 5000006.37349
10.212449666666666 -3.8 -1.4 5000006.37349
10.194250333333333 0.9333333333333333 -1.4333333333333333 5000005.82751
10.188857333333333 0.7333333333333333 -1.4333333333333333 5000005.66572
10.191516 -0.3333333333333333 -1.4333333333333333 5000005.74548
10.188857333333333 -0.7333333333333333 -1.4333333333333333 5000005.66572
10.183756 -1.1 -1.4333333333333333 5000005.51268
10.212449666666666 -3.7666666666666666 -1.4333333333333333 5000006.37349
10.212449666666666 -3.8 -1.4333333333333333 5000006.37349
10.194250333333333 2.066666666666667 -1.4666666666666666 5000005.82751
10.188857333333333 0.7666666666666667 -1.4666666666666666 5000005.66572
10.188857333333333 0.7333333333333333 -1.4666666666666666 5000005.66572
10.188857333333333 0.7 -1.4666666666666666 5000005.66572
10.188857333333333 0.6666666666666666 -1.4666666666666666 5000005.66572
10.191516 -0.23333333333333334 -1.4666666666666666 5000005.74548
10.191516 -0.36666666666666664 -1.4666666666666666 5000005.74548
10.186271666666666 -0.5 -1.4666666666666666 5000005.58815
10.191516 -0.5333333333333333 -1.4666666666666666 5000005.74548
10.183756 -1.1 -1.4666666666666666 5000005.51268
10.191516 -1.6 -1.4666666666666666 5000005.74548
10.209183 -3.3666666666666667 -1.4666666666666666 5000006.27549
10.209183 -3.4 -1.4666666666666666 5000006.27549
10.188857333333333 2.2 -1.5 5000005.66572
10.183756 1.5666666666666667 -1.5 5000005.51268
10.215819666666667 -0.03333333333333333 -1.5 5000006.47459
10.191516 -0.2 -1.5 5000005.74548
10.191516 -0.23333333333333334 -1.5 5000005.74548
10.186271666666666 -0.5 -1.5 5000005.58815
10.186271666666666 -0.5333333333333333 -1.5 5000005.58815
10.186271666666666 -0.5666666666666667 -1.5 5000005.58815
10.194250333333333 -2.3666666666666667 -1.5 5000005.82751
10.209183 -3.3333333333333335 -1.5 5000006.27549
10.206015666666667 -3.433333333333333 -1.5 5000006.18047
10.183756 1.6666666666666667 -1.5333333333333334 5000005.51268
10.183756 1.6 -1.5333333333333334 5000005.51268
10.183756 1.5666666666666667 -1.5333333333333334 5000005.51268
10.215819666666667 0.03333333333333333 -1.5333333333333334 5000006.47459
10.191516 -0.2 -1.5333333333333334 5000005.74548
10.191516 -0.23333333333333334 -1.5333333333333334 5000005.74548
10.191516 -0.26666666666666666 -1.5333333333333334 5000005.74548
10.191516 -1.4666666666666666 -1.5333333333333334 5000005.74548
10.191516 -1.5 -1.5333333333333334 5000005.74548
10.191516 -1.5333333333333334 -1.5333333333333334 5000005.74548
10.186271666666666 -1.9333333333333333 -1.5333333333333334 5000005.58815
10.209183 -3.3333333333333335 -1.5333333333333334 5000006.27549
10.206015666666667 -3.3666666666666667 -1.5333333333333334 5000006.18047
10.191516 2.7666666666666666 -1.5666666666666667 5000005.74548
10.183756 1.6666666666666667 -1.5666666666666667 5000005.51268
10.183756 1.6333333333333333 -1.5666666666666667 5000005.51268
10.183756 1.6 -1.5666666666666667 5000005.51268
10.183756 0.5333333333333333 -1.5666666666666667 5000005.51268
10.183756 0.13333333333333333 -1.5666666666666667 5000005.51268
10.191516 -1.5 -1.5666666666666667 5000005.74548
10.191516 -1.5333333333333334 -1.5666666666666667 5000005.74548
10.188857333333333 -1.5666666666666667 -1.5666666666666667 5000005.66572
10.186271666666666 -1.9333333333333333 -1.5666666666666667 5000005.58815
10.186271666666666 -1.9666666666666666 -1.5666666666666667 5000005.58815
10.186271666666666 -2.1666666666666665 -1.5666666666666667 5000005.58815
10.186271666666666 -2.2 -1.5666666666666667 5000005.58815
10.186271666666666 -2.2333333333333334 -1.5666666666666667 5000005.58815
10.206015666666667 -3.3666666666666667 -1.5666666666666667 5000006.18047
10.202942666666667 -3.533333333333333 -1.5666666666666667 5000006.08828
10.188857333333333 2.8666666666666667 -1.6 5000005.66572
10.191516 2.8333333333333335 -1.6 5000005.74548
10.186271666666666 2.5 -1.6 5000005.58815
10.186271666666666 2.4 -1.6 5000005.58815
10.183756 0.5 -1.6 5000005.51268
10.183756 0.16666666666666666 -1.6 5000005.51268
10.183756 0.13333333333333333 -1.6 5000005.51268
10.183756 -0.36666666666666664 -1.6 5000005.51268
10.186271666666666 -2.2 -1.6 5000005.58815
10.186271666666666 -2.2333333333333334 -1.6 5000005.58815
10.186271666666666 -2.2666666666666666 -1.6 5000005.58815
10.202942666666667 -3.533333333333333 -1.6 5000006.08828
10.202942666666667 -3.566666666666667 -1.6 5000006.08828
10.202942666666667 -3.6 -1.6 5000006.08828
10.188857333333333 2.9 -1.6333333333333333 5000005.66572
10.188857333333333 2.8666666666666667 -1.6333333333333333 5000005.66572
10.191516 2.8333333333333335 -1.6333333333333333 5000005.74548
10.186271666666666 2.533333333333333 -1.6333333333333333 5000005.58815
10.186271666666666 2.5 -1.6333333333333333 5000005.58815
10.186271666666666 2.466666666666667 -1.6333333333333333 5000005.58815
