VERSION .7
FIELDS x y z rgb
SIZE 4 4 4 4
TYPE F F F F
COUNT 1 1 1 1
WIDTH 1482
HEIGHT 1
VIEWPOINT 0 0 0 1 0 0 0
POINTS 1482
DATA ascii
20.4822 4.56 3.14 5000027.137
20.4822 4.44 3.14 5000027.137
20.4822 4.42 3.14 5000027.137
20.4822 3.8 3.14 5000027.137
20.4822 3.62 3.14 5000027.137
13.25658 0.7 3.14 5000015.0943
21.64188 -6.56 3.14 5000029.0698
21.64188 -6.58 3.14 5000029.0698
20.4822 4.44 3.12 5000027.137
20.4822 3.82 3.12 5000027.137
20.4822 3.8 3.12 5000027.137
20.4822 3.62 3.12 5000027.137
26.38116 2.6 3.12 5000036.9686
13.25658 0.7 3.12 5000015.0943
21.64188 -6.56 3.12 5000029.0698
21.64188 -6.58 3.12 5000029.0698
21.64188 -6.72 3.12 5000029.0698
20.4822 4.56 3.1 5000027.137
20.4822 4.44 3.1 5000027.137
19.467180000000003 4.24 3.1 5000025.4453
20.4822 3.96 3.1 5000027.137
20.4822 3.84 3.1 5000027.137
20.4822 3.82 3.1 5000027.137
20.4822 3.8 3.1 5000027.137
20.4822 3.62 3.1 5000027.137
13.25658 0.7 3.1 5000015.0943
19.467180000000003 -4.28 3.1 5000025.4453
19.467180000000003 -4.3 3.1 5000025.4453
21.64188 -6.56 3.1 5000029.0698
20.4822 4.56 3.08 5000027.137
20.4822 4.38 3.08 5000027.137
19.467180000000003 4.24 3.08 5000025.4453
20.4822 4.0 3.08 5000027.137
20.4822 3.98 3.08 5000027.137
20.4822 3.96 3.08 5000027.137
20.4822 3.86 3.08 5000027.137
20.4822 3.84 3.08 5000027.137
13.25658 0.7 3.08 5000015.0943
18.57126 -4.68 3.08 5000023.9521
20.4822 4.56 3.06 5000027.137
20.4822 4.38 3.06 5000027.137
19.467180000000003 4.24 3.06 5000025.4453
20.4822 4.18 3.06 5000027.137
20.4822 4.02 3.06 5000027.137
20.4822 4.0 3.06 5000027.137
13.25658 0.7 3.06 5000015.0943
18.57126 -4.18 3.06 5000023.9521
18.57126 -4.38 3.06 5000023.9521
18.57126 -4.4 3.06 5000023.9521
18.57126 -4.66 3.06 5000023.9521
20.4822 4.6 3.04 5000027.137
19.467180000000003 4.24 3.04 5000025.4453
20.4822 4.18 3.04 5000027.137
20.4822 4.02 3.04 5000027.137
20.4822 4.0 3.04 5000027.137
20.4822 3.62 3.04 5000027.137
15.3111 0.76 3.04 5000018.5185
13.25658 0.7 3.04 5000015.0943
21.64188 -1.48 3.04 5000029.0698
18.57126 -4.4 3.04 5000023.9521
21.64188 -6.56 3.04 5000029.0698
21.64188 -6.58 3.04 5000029.0698
21.64188 -6.7 3.04 5000029.0698
21.64188 -6.72 3.04 5000029.0698
19.467180000000003 4.24 3.02 5000025.4453
20.4822 4.18 3.02 5000027.137
20.4822 4.02 3.02 5000027.137
20.4822 4.0 3.02 5000027.137
20.4822 3.8 3.02 5000027.137
20.4822 3.74 3.02 5000027.137
20.4822 3.64 3.02 5000027.137
21.64188 3.62 3.02 5000029.0698
15.3111 0.76 3.02 5000018.5185
13.25658 0.7 3.02 5000015.0943
24.53898 -0.78 3.02 5000033.8983
21.64188 -1.42 3.02 5000029.0698
21.64188 -1.44 3.02 5000029.0698
21.64188 -1.46 3.02 5000029.0698
21.64188 -1.48 3.02 5000029.0698
22.97934 -1.62 3.02 5000031.2989
21.64188 -1.64 3.02 5000029.0698
21.64188 -1.66 3.02 5000029.0698
20.4822 -3.88 3.02 5000027.137
18.57126 -4.4 3.02 5000023.9521
17.77464 -4.86 3.02 5000022.6244
21.64188 -6.56 3.02 5000029.0698
21.64188 -6.68 3.02 5000029.0698
21.64188 -6.7 3.02 5000029.0698
20.4822 4.56 3.0 5000027.137
20.4822 4.42 3.0 5000027.137
20.4822 4.18 3.0 5000027.137
20.4822 4.02 3.0 5000027.137
20.4822 4.0 3.0 5000027.137
20.4822 3.66 3.0 5000027.137
20.4822 3.64 3.0 5000027.137
13.25658 0.7 3.0 5000015.0943
21.64188 -1.42 3.0 5000029.0698
21.64188 -1.44 3.0 5000029.0698
26.38116 -1.58 3.0 5000036.9686
21.64188 -6.72 3.0 5000029.0698
20.4822 4.6 2.98 5000027.137
20.4822 4.44 2.98 5000027.137
20.4822 4.02 2.98 5000027.137
20.4822 4.0 2.98 5000027.137
20.4822 3.84 2.98 5000027.137
20.4822 3.7 2.98 5000027.137
20.4822 3.68 2.98 5000027.137
20.4822 3.66 2.98 5000027.137
26.38116 2.52 2.98 5000036.9686
13.25658 0.7 2.98 5000015.0943
22.97934 -1.38 2.98 5000031.2989
21.64188 -1.4 2.98 5000029.0698
28.590239999999998 -1.56 2.98 5000040.6504
21.64188 -6.72 2.98 5000029.0698
19.467180000000003 4.6 2.96 5000025.4453
19.467180000000003 4.46 2.96 5000025.4453
19.467180000000003 4.44 2.96 5000025.4453
20.4822 4.02 2.96 5000027.137
20.4822 3.84 2.96 5000027.137
20.4822 3.7 2.96 5000027.137
26.38116 2.52 2.96 5000036.9686
14.82888 0.76 2.96 5000017.7148
13.25658 0.7 2.96 5000015.0943
22.97934 -1.36 2.96 5000031.2989
22.97934 -1.38 2.96 5000031.2989
20.4822 -6.6 2.96 5000027.137
20.4822 4.02 2.94 5000027.137
20.4822 3.84 2.94 5000027.137
20.4822 3.72 2.94 5000027.137
20.4822 3.7 2.94 5000027.137
26.38116 2.54 2.94 5000036.9686
26.38116 2.52 2.94 5000036.9686
15.3111 0.76 2.94 5000018.5185
13.25658 0.7 2.94 5000015.0943
31.28802 -0.96 2.94 5000045.1467
31.28802 -0.98 2.94 5000045.1467
22.97934 -1.34 2.94 5000031.2989
22.97934 -1.36 2.94 5000031.2989
18.57126 -4.0 2.94 5000023.9521
18.57126 -4.44 2.94 5000023.9521
18.57126 -4.46 2.94 5000023.9521
18.57126 -4.9 2.94 5000023.9521
18.57126 -4.92 2.94 5000023.9521
17.77464 -5.16 2.94 5000022.6244
20.4822 -6.6 2.94 5000027.137
21.64188 -6.72 2.94 5000029.0698
19.467180000000003 4.6 2.92 5000025.4453
19.467180000000003 4.58 2.92 5000025.4453
20.4822 4.44 2.92 5000027.137
20.4822 3.92 2.92 5000027.137
20.4822 3.72 2.92 5000027.137
20.4822 3.7 2.92 5000027.137
26.38116 2.54 2.92 5000036.9686
15.3111 0.76 2.92 5000018.5185
13.25658 0.7 2.92 5000015.0943
22.97934 -1.34 2.92 5000031.2989
18.57126 -4.46 2.92 5000023.9521
18.57126 -4.88 2.92 5000023.9521
20.4822 -6.58 2.92 5000027.137
21.64188 -6.72 2.92 5000029.0698
21.64188 -6.74 2.92 5000029.0698
19.467180000000003 4.7 2.9 5000025.4453
19.467180000000003 4.6 2.9 5000025.4453
19.467180000000003 4.58 2.9 5000025.4453
20.4822 4.44 2.9 5000027.137
20.4822 4.02 2.9 5000027.137
20.4822 3.72 2.9 5000027.137
26.38116 2.68 2.9 5000036.9686
15.3111 0.76 2.9 5000018.5185
13.25658 0.7 2.9 5000015.0943
18.57126 -4.36 2.9 5000023.9521
18.57126 -4.38 2.9 5000023.9521
18.57126 -4.44 2.9 5000023.9521
18.57126 -4.46 2.9 5000023.9521
21.64188 -6.72 2.9 5000029.0698
19.467180000000003 4.72 2.88 5000025.4453
19.467180000000003 4.7 2.88 5000025.4453
19.467180000000003 4.02 2.88 5000025.4453
20.4822 3.72 2.88 5000027.137
15.3111 0.76 2.88 5000018.5185
13.25658 0.7 2.88 5000015.0943
19.467180000000003 4.02 2.86 5000025.4453
20.4822 3.72 2.86 5000027.137
28.590239999999998 2.46 2.86 5000040.6504
15.3111 0.76 2.86 5000018.5185
13.25658 0.7 2.86 5000015.0943
18.57126 -4.38 2.86 5000023.9521
17.77464 -5.04 2.86 5000022.6244
17.77464 -5.06 2.86 5000022.6244
20.4822 -6.16 2.86 5000027.137
20.4822 4.58 2.84 5000027.137
20.4822 4.42 2.84 5000027.137
19.467180000000003 4.02 2.84 5000025.4453
19.467180000000003 4.0 2.84 5000025.4453
20.4822 3.74 2.84 5000027.137
20.4822 3.72 2.84 5000027.137
28.590239999999998 2.46 2.84 5000040.6504
13.25658 0.7 2.84 5000015.0943
19.467180000000003 -4.72 2.84 5000025.4453
19.467180000000003 -4.74 2.84 5000025.4453
21.64188 -6.58 2.84 5000029.0698
20.4822 -6.62 2.84 5000027.137
21.64188 -6.74 2.84 5000029.0698
20.4822 4.56 2.82 5000027.137
20.4822 4.42 2.82 5000027.137
19.467180000000003 4.04 2.82 5000025.4453
20.4822 3.74 2.82 5000027.137
20.4822 3.72 2.82 5000027.137
28.590239999999998 2.48 2.82 5000040.6504
28.590239999999998 2.46 2.82 5000040.6504
14.82888 0.76 2.82 5000017.7148
13.25658 0.7 2.82 5000015.0943
17.77464 -4.44 2.82 5000022.6244
21.64188 -6.22 2.82 5000029.0698
20.4822 -6.6 2.82 5000027.137
20.4822 -6.62 2.82 5000027.137
21.64188 -6.74 2.82 5000029.0698
20.4822 4.58 2.8 5000027.137
20.4822 4.04 2.8 5000027.137
19.467180000000003 3.84 2.8 5000025.4453
19.467180000000003 3.82 2.8 5000025.4453
20.4822 3.74 2.8 5000027.137
20.4822 3.72 2.8 5000027.137
28.590239999999998 2.48 2.8 5000040.6504
14.82888 0.76 2.8 5000017.7148
13.25658 0.7 2.8 5000015.0943
17.77464 -4.46 2.8 5000022.6244
17.77464 -4.48 2.8 5000022.6244
18.57126 -5.28 2.8 5000023.9521
20.4822 -6.64 2.8 5000027.137
21.64188 -6.74 2.8 5000029.0698
19.467180000000003 4.32 2.78 5000025.4453
19.467180000000003 4.3 2.78 5000025.4453
19.467180000000003 3.84 2.78 5000025.4453
20.4822 3.74 2.78 5000027.137
20.4822 3.72 2.78 5000027.137
28.590239999999998 2.48 2.78 5000040.6504
14.82888 0.76 2.78 5000017.7148
13.25658 0.7 2.78 5000015.0943
19.467180000000003 -4.02 2.78 5000025.4453
19.467180000000003 -4.04 2.78 5000025.4453
17.77464 -4.46 2.78 5000022.6244
17.77464 -4.48 2.78 5000022.6244
20.4822 -6.66 2.78 5000027.137
20.4822 -6.68 2.78 5000027.137
21.64188 -6.74 2.78 5000029.0698
19.467180000000003 4.72 2.76 5000025.4453
19.467180000000003 4.32 2.76 5000025.4453
20.4822 3.74 2.76 5000027.137
20.4822 3.72 2.76 5000027.137
28.590239999999998 2.48 2.76 5000040.6504
14.82888 0.76 2.76 5000017.7148
13.25658 0.7 2.76 5000015.0943
22.97934 -0.54 2.76 5000031.2989
17.77464 -4.48 2.76 5000022.6244
21.64188 -6.74 2.76 5000029.0698
19.467180000000003 4.72 2.74 5000025.4453
19.467180000000003 4.3 2.74 5000025.4453
20.4822 4.04 2.74 5000027.137
20.4822 4.02 2.74 5000027.137
20.4822 3.74 2.74 5000027.137
26.38116 2.5 2.74 5000036.9686
26.38116 2.48 2.74 5000036.9686
15.3111 0.76 2.74 5000018.5185
13.25658 0.7 2.74 5000015.0943
20.4822 4.54 2.72 5000027.137
20.4822 4.04 2.72 5000027.137
20.4822 3.82 2.72 5000027.137
20.4822 3.74 2.72 5000027.137
26.38116 2.5 2.72 5000036.9686
14.82888 0.76 2.72 5000017.7148
13.25658 0.7 2.72 5000015.0943
21.64188 -6.72 2.72 5000029.0698
19.467180000000003 4.7 2.7 5000025.4453
20.4822 4.54 2.7 5000027.137
20.4822 4.28 2.7 5000027.137
20.4822 3.82 2.7 5000027.137
21.64188 3.74 2.7 5000029.0698
26.38116 2.52 2.7 5000036.9686
26.38116 2.5 2.7 5000036.9686
13.25658 0.7 2.7 5000015.0943
19.467180000000003 -4.48 2.7 5000025.4453
20.4822 -6.72 2.7 5000027.137
20.4822 -6.74 2.7 5000027.137
20.4822 4.7 2.68 5000027.137
20.4822 4.28 2.68 5000027.137
20.4822 4.22 2.68 5000027.137
20.4822 3.82 2.68 5000027.137
21.64188 3.74 2.68 5000029.0698
20.4822 3.6 2.68 5000027.137
26.38116 2.52 2.68 5000036.9686
15.3111 0.76 2.68 5000018.5185
13.25658 0.7 2.68 5000015.0943
19.467180000000003 -4.46 2.68 5000025.4453
19.467180000000003 -4.48 2.68 5000025.4453
20.4822 4.72 2.66 5000027.137
20.4822 4.7 2.66 5000027.137
20.4822 4.24 2.66 5000027.137
19.467180000000003 4.02 2.66 5000025.4453
21.64188 3.76 2.66 5000029.0698
20.4822 3.62 2.66 5000027.137
20.4822 3.6 2.66 5000027.137
26.38116 2.52 2.66 5000036.9686
15.3111 0.76 2.66 5000018.5185
13.25658 0.7 2.66 5000015.0943
18.57126 -4.46 2.66 5000023.9521
20.4822 4.74 2.64 5000027.137
20.4822 4.72 2.64 5000027.137
19.467180000000003 4.02 2.64 5000025.4453
20.4822 3.62 2.64 5000027.137
26.38116 2.64 2.64 5000036.9686
26.38116 2.52 2.64 5000036.9686
15.3111 0.76 2.64 5000018.5185
13.25658 0.7 2.64 5000015.0943
20.4822 4.6 2.62 5000027.137
20.4822 4.42 2.62 5000027.137
20.4822 3.62 2.62 5000027.137
15.3111 0.76 2.62 5000018.5185
13.25658 0.7 2.62 5000015.0943
19.467180000000003 -4.48 2.62 5000025.4453
17.06172 -5.5 2.62 5000021.4362
21.64188 5.92 2.6 5000029.0698
21.64188 5.7 2.6 5000029.0698
20.4822 4.74 2.6 5000027.137
20.4822 3.72 2.6 5000027.137
20.4822 3.62 2.6 5000027.137
15.3111 0.76 2.6 5000018.5185
13.25658 0.7 2.6 5000015.0943
20.4822 -6.3 2.6 5000027.137
21.64188 5.94 2.58 5000029.0698
21.64188 5.36 2.58 5000029.0698
20.4822 4.74 2.58 5000027.137
19.467180000000003 4.46 2.58 5000025.4453
20.4822 3.74 2.58 5000027.137
20.4822 3.72 2.58 5000027.137
20.4822 3.62 2.58 5000027.137
15.3111 0.76 2.58 5000018.5185
13.25658 0.7 2.58 5000015.0943
22.97934 -1.44 2.58 5000031.2989
21.64188 5.94 2.56 5000029.0698
20.4822 4.52 2.56 5000027.137
19.467180000000003 4.5 2.56 5000025.4453
19.467180000000003 4.46 2.56 5000025.4453
19.467180000000003 3.9 2.56 5000025.4453
19.467180000000003 3.88 2.56 5000025.4453
20.4822 3.64 2.56 5000027.137
20.4822 3.62 2.56 5000027.137
15.3111 0.76 2.56 5000018.5185
13.25658 0.7 2.56 5000015.0943
24.53898 -0.2 2.56 5000033.8983
22.97934 -6.74 2.56 5000031.2989
22.97934 5.7 2.54 5000031.2989
20.4822 4.72 2.54 5000027.137
20.4822 4.54 2.54 5000027.137
20.4822 4.52 2.54 5000027.137
20.4822 4.4 2.54 5000027.137
20.4822 4.32 2.54 5000027.137
19.467180000000003 3.9 2.54 5000025.4453
19.467180000000003 3.88 2.54 5000025.4453
20.4822 3.64 2.54 5000027.137
15.3111 0.76 2.54 5000018.5185
13.25658 0.7 2.54 5000015.0943
17.06172 -5.36 2.54 5000021.4362
17.06172 -5.62 2.54 5000021.4362
22.97934 5.7 2.52 5000031.2989
20.4822 4.42 2.52 5000027.137
19.467180000000003 3.9 2.52 5000025.4453
20.4822 3.64 2.52 5000027.137
13.25658 0.7 2.52 5000015.0943
22.97934 -1.54 2.52 5000031.2989
22.97934 5.7 2.5 5000031.2989
20.4822 4.72 2.5 5000027.137
20.4822 4.66 2.5 5000027.137
20.4822 4.54 2.5 5000027.137
20.4822 3.84 2.5 5000027.137
20.4822 3.66 2.5 5000027.137
20.4822 3.64 2.5 5000027.137
15.3111 0.76 2.5 5000018.5185
13.25658 0.7 2.5 5000015.0943
20.4822 -4.22 2.5 5000027.137
19.467180000000003 -4.26 2.5 5000025.4453
18.57126 -4.3 2.5 5000023.9521
18.57126 -4.32 2.5 5000023.9521
17.77464 -5.46 2.5 5000022.6244
17.77464 -5.48 2.5 5000022.6244
19.467180000000003 4.72 2.48 5000025.4453
20.4822 4.54 2.48 5000027.137
20.4822 3.84 2.48 5000027.137
20.4822 3.66 2.48 5000027.137
15.3111 0.76 2.48 5000018.5185
13.25658 0.7 2.48 5000015.0943
18.57126 -4.3 2.48 5000023.9521
18.57126 -4.32 2.48 5000023.9521
18.57126 -4.5 2.48 5000023.9521
21.64188 -5.9 2.48 5000029.0698
21.64188 5.94 2.46 5000029.0698
19.467180000000003 4.56 2.46 5000025.4453
15.3111 0.76 2.46 5000018.5185
13.25658 0.7 2.46 5000015.0943
31.28802 -1.22 2.46 5000045.1467
19.467180000000003 -4.06 2.46 5000025.4453
18.57126 -4.32 2.46 5000023.9521
18.57126 -4.5 2.46 5000023.9521
22.97934 5.78 2.44 5000031.2989
20.4822 4.72 2.44 5000027.137
19.467180000000003 4.56 2.44 5000025.4453
19.467180000000003 4.46 2.44 5000025.4453
19.467180000000003 4.1 2.44 5000025.4453
19.467180000000003 4.06 2.44 5000025.4453
20.4822 3.74 2.44 5000027.137
26.38116 2.38 2.44 5000036.9686
15.3111 0.76 2.44 5000018.5185
13.25658 0.7 2.44 5000015.0943
22.97934 -1.48 2.44 5000031.2989
21.64188 -4.0 2.44 5000029.0698
19.467180000000003 -4.04 2.44 5000025.4453
19.467180000000003 -4.42 2.44 5000025.4453
19.467180000000003 -4.44 2.44 5000025.4453
18.57126 -4.5 2.44 5000023.9521
17.77464 -4.7 2.44 5000022.6244
22.97934 5.78 2.42 5000031.2989
19.467180000000003 4.54 2.42 5000025.4453
19.467180000000003 4.1 2.42 5000025.4453
20.4822 3.74 2.42 5000027.137
26.38116 2.5 2.42 5000036.9686
26.38116 2.48 2.42 5000036.9686
26.38116 2.38 2.42 5000036.9686
13.25658 0.7 2.42 5000015.0943
22.97934 5.7 2.4 5000031.2989
22.97934 5.54 2.4 5000031.2989
19.467180000000003 4.54 2.4 5000025.4453
20.4822 4.4 2.4 5000027.137
20.4822 4.32 2.4 5000027.137
20.4822 4.3 2.4 5000027.137
20.4822 4.24 2.4 5000027.137
20.4822 3.74 2.4 5000027.137
28.590239999999998 2.64 2.4 5000040.6504
15.3111 0.76 2.4 5000018.5185
13.25658 0.7 2.4 5000015.0943
18.57126 -4.5 2.4 5000023.9521
21.64188 5.92 2.38 5000029.0698
22.97934 5.54 2.38 5000031.2989
19.467180000000003 4.52 2.38 5000025.4453
20.4822 4.32 2.38 5000027.137
20.4822 4.24 2.38 5000027.137
28.590239999999998 2.64 2.38 5000040.6504
15.3111 0.76 2.38 5000018.5185
13.25658 0.7 2.38 5000015.0943
18.57126 -4.5 2.38 5000023.9521
21.64188 5.94 2.36 5000029.0698
21.64188 5.92 2.36 5000029.0698
20.4822 4.62 2.36 5000027.137
20.4822 4.44 2.36 5000027.137
20.4822 4.26 2.36 5000027.137
20.4822 4.24 2.36 5000027.137
26.38116 2.34 2.36 5000036.9686
26.38116 2.32 2.36 5000036.9686
15.3111 0.76 2.36 5000018.5185
13.25658 0.7 2.36 5000015.0943
18.57126 -4.5 2.36 5000023.9521
21.64188 5.94 2.34 5000029.0698
21.64188 5.92 2.34 5000029.0698
21.64188 5.7 2.34 5000029.0698
21.64188 5.46 2.34 5000029.0698
20.4822 4.68 2.34 5000027.137
20.4822 4.62 2.34 5000027.137
20.4822 4.26 2.34 5000027.137
13.25658 0.7 2.34 5000015.0943
18.57126 -4.42 2.34 5000023.9521
21.64188 5.92 2.32 5000029.0698
21.64188 5.58 2.32 5000029.0698
38.9826 3.54 2.32 5000057.971
44.74056 3.48 2.32 5000067.5676
15.3111 0.76 2.32 5000018.5185
13.25658 0.7 2.32 5000015.0943
26.38116 -2.84 2.32 5000036.9686
18.57126 -4.44 2.32 5000023.9521
18.57126 -4.46 2.32 5000023.9521
21.64188 5.92 2.3 5000029.0698
21.64188 5.6 2.3 5000029.0698
44.74056 3.48 2.3 5000067.5676
26.38116 2.32 2.3 5000036.9686
13.25658 0.7 2.3 5000015.0943
18.57126 -4.42 2.3 5000023.9521
18.57126 -4.44 2.3 5000023.9521
18.57126 -4.46 2.3 5000023.9521
21.64188 5.32 2.28 5000029.0698
20.4822 4.64 2.28 5000027.137
19.467180000000003 4.44 2.28 5000025.4453
20.4822 4.24 2.28 5000027.137
20.4822 3.86 2.28 5000027.137
44.74056 3.48 2.28 5000067.5676
26.38116 2.32 2.28 5000036.9686
15.3111 0.76 2.28 5000018.5185
13.25658 0.7 2.28 5000015.0943
21.64188 5.32 2.26 5000029.0698
20.4822 4.64 2.26 5000027.137
19.467180000000003 4.46 2.26 5000025.4453
19.467180000000003 4.3 2.26 5000025.4453
20.4822 4.24 2.26 5000027.137
20.4822 3.86 2.26 5000027.137
28.590239999999998 2.76 2.26 5000040.6504
26.38116 2.32 2.26 5000036.9686
15.3111 0.76 2.26 5000018.5185
13.25658 0.7 2.26 5000015.0943
21.64188 5.88 2.24 5000029.0698
21.64188 5.72 2.24 5000029.0698
21.64188 5.7 2.24 5000029.0698
21.64188 5.0 2.24 5000029.0698
19.467180000000003 4.64 2.24 5000025.4453
19.467180000000003 4.3 2.24 5000025.4453
20.4822 4.24 2.24 5000027.137
20.4822 3.88 2.24 5000027.137
20.4822 3.86 2.24 5000027.137
44.74056 3.5 2.24 5000067.5676
28.590239999999998 2.56 2.24 5000040.6504
26.38116 2.34 2.24 5000036.9686
28.590239999999998 2.26 2.24 5000040.6504
15.3111 0.76 2.24 5000018.5185
13.25658 0.7 2.24 5000015.0943
17.77464 -5.48 2.24 5000022.6244
17.77464 -5.5 2.24 5000022.6244
21.64188 5.72 2.22 5000029.0698
21.64188 5.6 2.22 5000029.0698
19.467180000000003 4.64 2.22 5000025.4453
20.4822 4.58 2.22 5000027.137
19.467180000000003 4.3 2.22 5000025.4453
20.4822 4.24 2.22 5000027.137
44.74056 3.52 2.22 5000067.5676
44.74056 3.5 2.22 5000067.5676
28.590239999999998 2.56 2.22 5000040.6504
26.38116 2.34 2.22 5000036.9686
15.3111 0.76 2.22 5000018.5185
13.25658 0.7 2.22 5000015.0943
28.590239999999998 -2.7 2.22 5000040.6504
28.590239999999998 -2.72 2.22 5000040.6504
17.77464 -5.46 2.22 5000022.6244
17.77464 -5.48 2.22 5000022.6244
21.64188 5.9 2.2 5000029.0698
21.64188 5.86 2.2 5000029.0698
21.64188 5.74 2.2 5000029.0698
21.64188 5.42 2.2 5000029.0698
19.467180000000003 4.64 2.2 5000025.4453
20.4822 4.24 2.2 5000027.137
20.4822 3.9 2.2 5000027.137
34.65684 3.74 2.2 5000050.7614
44.74056 3.52 2.2 5000067.5676
15.3111 0.76 2.2 5000018.5185
13.25658 0.7 2.2 5000015.0943
18.57126 -4.4 2.2 5000023.9521
18.57126 -4.42 2.2 5000023.9521
19.467180000000003 4.64 2.18 5000025.4453
20.4822 4.24 2.18 5000027.137
20.4822 3.92 2.18 5000027.137
19.467180000000003 3.9 2.18 5000025.4453
34.65684 3.74 2.18 5000050.7614
44.74056 3.52 2.18 5000067.5676
26.38116 2.3 2.18 5000036.9686
15.3111 0.76 2.18 5000018.5185
13.25658 0.7 2.18 5000015.0943
18.57126 -4.42 2.18 5000023.9521
18.57126 -4.44 2.18 5000023.9521
21.64188 5.58 2.16 5000029.0698
20.4822 4.24 2.16 5000027.137
38.9826 3.54 2.16 5000057.971
26.38116 2.62 2.16 5000036.9686
26.38116 2.6 2.16 5000036.9686
28.590239999999998 2.32 2.16 5000040.6504
28.590239999999998 2.3 2.16 5000040.6504
15.3111 0.76 2.16 5000018.5185
13.25658 0.7 2.16 5000015.0943
18.57126 -4.44 2.16 5000023.9521
17.06172 -5.5 2.16 5000021.4362
21.64188 5.82 2.14 5000029.0698
20.4822 4.64 2.14 5000027.137
20.4822 4.58 2.14 5000027.137
20.4822 3.96 2.14 5000027.137
38.9826 3.54 2.14 5000057.971
28.590239999999998 2.74 2.14 5000040.6504
26.38116 2.6 2.14 5000036.9686
13.25658 0.7 2.14 5000015.0943
18.57126 -4.42 2.14 5000023.9521
18.57126 -4.44 2.14 5000023.9521
19.467180000000003 -5.12 2.14 5000025.4453
19.467180000000003 -5.14 2.14 5000025.4453
21.64188 5.88 2.12 5000029.0698
20.4822 4.72 2.12 5000027.137
21.64188 3.96 2.12 5000029.0698
21.64188 3.94 2.12 5000029.0698
38.9826 3.56 2.12 5000057.971
38.9826 3.54 2.12 5000057.971
28.590239999999998 2.76 2.12 5000040.6504
31.28802 2.3 2.12 5000045.1467
31.28802 2.28 2.12 5000045.1467
13.25658 0.7 2.12 5000015.0943
19.467180000000003 -4.42 2.12 5000025.4453
21.64188 5.88 2.1 5000029.0698
20.4822 4.72 2.1 5000027.137
21.64188 3.92 2.1 5000029.0698
38.9826 3.56 2.1 5000057.971
44.74056 3.3 2.1 5000067.5676
28.590239999999998 2.76 2.1 5000040.6504
28.590239999999998 2.4 2.1 5000040.6504
34.65684 2.3 2.1 5000050.7614
34.65684 2.28 2.1 5000050.7614
13.25658 0.7 2.1 5000015.0943
26.38116 -1.76 2.1 5000036.9686
21.64188 5.9 2.08 5000029.0698
20.4822 4.72 2.08 5000027.137
38.9826 3.56 2.08 5000057.971
28.590239999999998 2.76 2.08 5000040.6504
34.65684 2.3 2.08 5000050.7614
15.3111 0.76 2.08 5000018.5185
13.25658 0.7 2.08 5000015.0943
21.64188 5.92 2.06 5000029.0698
21.64188 5.9 2.06 5000029.0698
21.64188 5.6 2.06 5000029.0698
21.64188 5.3 2.06 5000029.0698
20.4822 4.74 2.06 5000027.137
38.9826 3.56 2.06 5000057.971
44.74056 3.36 2.06 5000067.5676
34.65684 2.3 2.06 5000050.7614
15.3111 0.76 2.06 5000018.5185
13.25658 0.7 2.06 5000015.0943
18.57126 -4.46 2.06 5000023.9521
21.64188 5.3 2.04 5000029.0698
20.4822 4.62 2.04 5000027.137
20.4822 4.46 2.04 5000027.137
19.467180000000003 3.96 2.04 5000025.4453
28.590239999999998 2.6 2.04 5000040.6504
13.25658 0.7 2.04 5000015.0943
18.57126 -4.44 2.04 5000023.9521
18.57126 -4.46 2.04 5000023.9521
18.57126 -4.74 2.04 5000023.9521
18.57126 -4.76 2.04 5000023.9521
20.4822 5.68 2.02 5000027.137
21.64188 5.62 2.02 5000029.0698
21.64188 5.3 2.02 5000029.0698
20.4822 4.76 2.02 5000027.137
20.4822 4.62 2.02 5000027.137
19.467180000000003 4.06 2.02 5000025.4453
19.467180000000003 3.96 2.02 5000025.4453
44.74056 3.54 2.02 5000067.5676
34.65684 1.26 2.02 5000050.7614
13.25658 0.7 2.02 5000015.0943
18.57126 -4.44 2.02 5000023.9521
18.57126 -4.46 2.02 5000023.9521
20.4822 5.68 2.0 5000027.137
21.64188 5.64 2.0 5000029.0698
22.97934 5.02 2.0 5000031.2989
20.4822 4.76 2.0 5000027.137
19.467180000000003 4.06 2.0 5000025.4453
20.4822 3.96 2.0 5000027.137
44.74056 3.46 2.0 5000067.5676
28.590239999999998 2.78 2.0 5000040.6504
28.590239999999998 2.56 2.0 5000040.6504
26.38116 2.32 2.0 5000036.9686
34.65684 1.28 2.0 5000050.7614
34.65684 1.26 2.0 5000050.7614
13.25658 0.7 2.0 5000015.0943
18.57126 -4.46 2.0 5000023.9521
20.4822 5.7 1.98 5000027.137
21.64188 5.64 1.98 5000029.0698
20.4822 4.48 1.98 5000027.137
44.74056 3.48 1.98 5000067.5676
44.74056 3.46 1.98 5000067.5676
28.590239999999998 2.78 1.98 5000040.6504
26.38116 2.32 1.98 5000036.9686
13.25658 0.7 1.98 5000015.0943
21.64188 5.88 1.96 5000029.0698
21.64188 5.04 1.96 5000029.0698
20.4822 4.76 1.96 5000027.137
20.4822 3.98 1.96 5000027.137
44.74056 3.48 1.96 5000067.5676
44.74056 3.46 1.96 5000067.5676
26.38116 2.32 1.96 5000036.9686
28.590239999999998 2.2 1.96 5000040.6504
13.25658 0.7 1.96 5000015.0943
28.590239999999998 -2.96 1.96 5000040.6504
21.64188 5.04 1.94 5000029.0698
19.467180000000003 4.56 1.94 5000025.4453
20.4822 4.5 1.94 5000027.137
44.74056 3.48 1.94 5000067.5676
28.590239999999998 2.2 1.94 5000040.6504
13.25658 0.7 1.94 5000015.0943
19.467180000000003 -5.26 1.94 5000025.4453
19.467180000000003 -5.28 1.94 5000025.4453
21.64188 5.74 1.92 5000029.0698
21.64188 5.72 1.92 5000029.0698
21.64188 5.04 1.92 5000029.0698
20.4822 4.5 1.92 5000027.137
20.4822 3.96 1.92 5000027.137
44.74056 3.48 1.92 5000067.5676
28.590239999999998 2.76 1.92 5000040.6504
28.590239999999998 2.2 1.92 5000040.6504
15.3111 0.76 1.92 5000018.5185
13.25658 0.7 1.92 5000015.0943
21.64188 5.78 1.9 5000029.0698
21.64188 5.76 1.9 5000029.0698
21.64188 5.44 1.9 5000029.0698
21.64188 5.24 1.9 5000029.0698
20.4822 4.76 1.9 5000027.137
20.4822 4.74 1.9 5000027.137
44.74056 3.52 1.9 5000067.5676
44.74056 3.5 1.9 5000067.5676
44.74056 3.34 1.9 5000067.5676
28.590239999999998 2.76 1.9 5000040.6504
13.25658 0.7 1.9 5000015.0943
18.57126 -3.72 1.9 5000023.9521
18.57126 -3.74 1.9 5000023.9521
18.57126 -3.76 1.9 5000023.9521
20.4822 5.88 1.88 5000027.137
21.64188 5.78 1.88 5000029.0698
20.4822 4.76 1.88 5000027.137
20.4822 4.74 1.88 5000027.137
19.467180000000003 4.64 1.88 5000025.4453
20.4822 4.0 1.88 5000027.137
44.74056 3.52 1.88 5000067.5676
28.590239999999998 2.76 1.88 5000040.6504
26.38116 2.52 1.88 5000036.9686
26.38116 2.22 1.88 5000036.9686
26.38116 2.2 1.88 5000036.9686
13.25658 0.7 1.88 5000015.0943
18.57126 -3.96 1.88 5000023.9521
18.57126 -4.42 1.88 5000023.9521
18.57126 -4.44 1.88 5000023.9521
21.64188 5.88 1.86 5000029.0698
20.4822 4.74 1.86 5000027.137
26.38116 2.54 1.86 5000036.9686
26.38116 2.22 1.86 5000036.9686
15.3111 0.76 1.86 5000018.5185
13.25658 0.7 1.86 5000015.0943
18.57126 -3.96 1.86 5000023.9521
18.57126 -4.42 1.86 5000023.9521
18.57126 -4.44 1.86 5000023.9521
21.64188 5.88 1.84 5000029.0698
22.97934 5.48 1.84 5000031.2989
20.4822 5.34 1.84 5000027.137
44.74056 3.42 1.84 5000067.5676
28.590239999999998 2.74 1.84 5000040.6504
26.38116 2.54 1.84 5000036.9686
26.38116 2.42 1.84 5000036.9686
26.38116 2.32 1.84 5000036.9686
26.38116 2.22 1.84 5000036.9686
15.3111 0.76 1.84 5000018.5185
13.25658 0.7 1.84 5000015.0943
21.64188 5.88 1.82 5000029.0698
22.97934 5.48 1.82 5000031.2989
21.64188 5.04 1.82 5000029.0698
20.4822 4.74 1.82 5000027.137
20.4822 4.0 1.82 5000027.137
44.74056 3.44 1.82 5000067.5676
26.38116 2.54 1.82 5000036.9686
26.38116 2.42 1.82 5000036.9686
26.38116 2.22 1.82 5000036.9686
15.3111 0.76 1.82 5000018.5185
13.25658 0.7 1.82 5000015.0943
21.64188 5.06 1.8 5000029.0698
21.64188 5.04 1.8 5000029.0698
20.4822 4.74 1.8 5000027.137
28.590239999999998 2.54 1.8 5000040.6504
13.25658 0.7 1.8 5000015.0943
19.467180000000003 -4.14 1.8 5000025.4453
21.64188 5.9 1.78 5000029.0698
21.64188 5.54 1.78 5000029.0698
21.64188 5.06 1.78 5000029.0698
20.4822 4.74 1.78 5000027.137
20.4822 4.68 1.78 5000027.137
28.590239999999998 2.54 1.78 5000040.6504
13.25658 0.7 1.78 5000015.0943
24.53898 -2.24 1.78 5000033.8983
18.57126 -4.18 1.78 5000023.9521
21.64188 5.9 1.76 5000029.0698
21.64188 5.8 1.76 5000029.0698
21.64188 5.54 1.76 5000029.0698
21.64188 4.92 1.76 5000029.0698
20.4822 4.74 1.76 5000027.137
38.9826 3.46 1.76 5000057.971
26.38116 2.24 1.76 5000036.9686
26.38116 2.22 1.76 5000036.9686
13.25658 0.7 1.76 5000015.0943
21.64188 5.92 1.74 5000029.0698
21.64188 5.9 1.74 5000029.0698
21.64188 5.62 1.74 5000029.0698
21.64188 5.12 1.74 5000029.0698
20.4822 4.74 1.74 5000027.137
38.9826 3.48 1.74 5000057.971
26.38116 2.42 1.74 5000036.9686
26.38116 2.24 1.74 5000036.9686
13.25658 0.7 1.74 5000015.0943
18.57126 -4.22 1.74 5000023.9521
19.467180000000003 -4.4 1.74 5000025.4453
19.467180000000003 -4.42 1.74 5000025.4453
21.64188 5.92 1.72 5000029.0698
21.64188 5.84 1.72 5000029.0698
21.64188 5.58 1.72 5000029.0698
22.97934 3.56 1.72 5000031.2989
38.9826 3.48 1.72 5000057.971
26.38116 2.42 1.72 5000036.9686
26.38116 2.24 1.72 5000036.9686
34.65684 1.26 1.72 5000050.7614
13.25658 0.7 1.72 5000015.0943
26.38116 -0.32 1.72 5000036.9686
26.38116 -0.36 1.72 5000036.9686
19.467180000000003 -4.4 1.72 5000025.4453
19.467180000000003 -4.42 1.72 5000025.4453
21.64188 5.92 1.7 5000029.0698
21.64188 5.58 1.7 5000029.0698
21.64188 5.0 1.7 5000029.0698
21.64188 4.98 1.7 5000029.0698
22.97934 3.56 1.7 5000031.2989
38.9826 3.48 1.7 5000057.971
44.74056 3.42 1.7 5000067.5676
44.74056 3.32 1.7 5000067.5676
26.38116 2.44 1.7 5000036.9686
34.65684 1.28 1.7 5000050.7614
13.25658 0.7 1.7 5000015.0943
21.64188 5.94 1.68 5000029.0698
21.64188 5.2 1.68 5000029.0698
21.64188 5.12 1.68 5000029.0698
21.64188 5.0 1.68 5000029.0698
44.74056 3.32 1.68 5000067.5676
28.590239999999998 2.6 1.68 5000040.6504
26.38116 2.44 1.68 5000036.9686
34.65684 1.28 1.68 5000050.7614
13.25658 0.7 1.68 5000015.0943
21.64188 5.94 1.66 5000029.0698
22.97934 5.84 1.66 5000031.2989
21.64188 5.6 1.66 5000029.0698
21.64188 5.24 1.66 5000029.0698
21.64188 5.14 1.66 5000029.0698
21.64188 5.1 1.66 5000029.0698
21.64188 5.02 1.66 5000029.0698
44.74056 3.32 1.66 5000067.5676
28.590239999999998 2.6 1.66 5000040.6504
13.25658 0.7 1.66 5000015.0943
21.64188 5.94 1.64 5000029.0698
22.97934 5.84 1.64 5000031.2989
22.97934 5.6 1.64 5000031.2989
21.64188 5.26 1.64 5000029.0698
21.64188 5.14 1.64 5000029.0698
44.74056 3.32 1.64 5000067.5676
26.38116 2.2 1.64 5000036.9686
26.38116 2.18 1.64 5000036.9686
13.25658 0.7 1.64 5000015.0943
22.97934 5.72 1.62 5000031.2989
44.74056 3.32 1.62 5000067.5676
26.38116 2.18 1.62 5000036.9686
34.65684 1.3 1.62 5000050.7614
13.25658 0.7 1.62 5000015.0943
21.64188 5.94 1.6 5000029.0698
22.97934 5.74 1.6 5000031.2989
22.97934 5.62 1.6 5000031.2989
21.64188 5.12 1.6 5000029.0698
44.74056 3.32 1.6 5000067.5676
26.38116 2.44 1.6 5000036.9686
26.38116 2.18 1.6 5000036.9686
34.65684 1.58 1.6 5000050.7614
34.65684 1.3 1.6 5000050.7614
13.25658 0.7 1.6 5000015.0943
21.64188 5.94 1.58 5000029.0698
21.64188 5.14 1.58 5000029.0698
21.64188 5.06 1.58 5000029.0698
26.38116 2.2 1.58 5000036.9686
26.38116 2.18 1.58 5000036.9686
15.3111 0.76 1.58 5000018.5185
13.25658 0.7 1.58 5000015.0943
21.64188 5.94 1.56 5000029.0698
22.97934 5.64 1.56 5000031.2989
22.97934 5.2 1.56 5000031.2989
19.467180000000003 4.66 1.56 5000025.4453
26.38116 2.2 1.56 5000036.9686
26.38116 2.18 1.56 5000036.9686
13.25658 0.7 1.56 5000015.0943
22.97934 5.8 1.54 5000031.2989
28.590239999999998 2.5 1.54 5000040.6504
26.38116 2.2 1.54 5000036.9686
34.65684 1.4 1.54 5000050.7614
13.25658 0.7 1.54 5000015.0943
28.590239999999998 2.5 1.52 5000040.6504
34.65684 1.4 1.52 5000050.7614
34.65684 1.32 1.52 5000050.7614
13.25658 0.7 1.52 5000015.0943
22.97934 5.7 1.5 5000031.2989
22.97934 5.68 1.5 5000031.2989
21.64188 3.66 1.5 5000029.0698
44.74056 3.34 1.5 5000067.5676
28.590239999999998 2.5 1.5 5000040.6504
26.38116 2.14 1.5 5000036.9686
34.65684 1.32 1.5 5000050.7614
13.25658 0.7 1.5 5000015.0943
22.97934 5.72 1.48 5000031.2989
22.97934 5.7 1.48 5000031.2989
22.97934 5.2 1.48 5000031.2989
22.97934 5.04 1.48 5000031.2989
21.64188 3.66 1.48 5000029.0698
28.590239999999998 2.5 1.48 5000040.6504
28.590239999999998 2.26 1.48 5000040.6504
26.38116 2.14 1.48 5000036.9686
13.25658 0.7 1.48 5000015.0943
21.64188 5.9 1.46 5000029.0698
21.64188 5.88 1.46 5000029.0698
22.97934 5.72 1.46 5000031.2989
22.97934 5.22 1.46 5000031.2989
22.97934 5.2 1.46 5000031.2989
26.38116 2.16 1.46 5000036.9686
26.38116 2.14 1.46 5000036.9686
13.25658 0.7 1.46 5000015.0943
21.64188 5.9 1.44 5000029.0698
22.97934 5.88 1.44 5000031.2989
22.97934 5.8 1.44 5000031.2989
20.4822 3.86 1.44 5000027.137
44.74056 3.36 1.44 5000067.5676
26.38116 2.16 1.44 5000036.9686
13.25658 0.7 1.44 5000015.0943
21.64188 5.92 1.42 5000029.0698
22.97934 5.82 1.42 5000031.2989
21.64188 5.28 1.42 5000029.0698
21.64188 5.26 1.42 5000029.0698
20.4822 4.6 1.42 5000027.137
20.4822 4.04 1.42 5000027.137
34.65684 1.28 1.42 5000050.7614
13.25658 0.7 1.42 5000015.0943
22.97934 5.84 1.4 5000031.2989
22.97934 5.46 1.4 5000031.2989
22.97934 5.44 1.4 5000031.2989
21.64188 5.42 1.4 5000029.0698
21.64188 5.32 1.4 5000029.0698
20.4822 4.6 1.4 5000027.137
26.38116 2.18 1.4 5000036.9686
34.65684 1.28 1.4 5000050.7614
13.25658 0.7 1.4 5000015.0943
21.64188 5.94 1.38 5000029.0698
22.97934 5.86 1.38 5000031.2989
22.97934 5.84 1.38 5000031.2989
22.97934 5.48 1.38 5000031.2989
21.64188 5.3 1.38 5000029.0698
26.38116 2.18 1.38 5000036.9686
13.25658 0.7 1.38 5000015.0943
21.64188 5.94 1.36 5000029.0698
21.64188 5.9 1.36 5000029.0698
21.64188 5.88 1.36 5000029.0698
22.97934 5.5 1.36 5000031.2989
21.64188 5.32 1.36 5000029.0698
21.64188 5.3 1.36 5000029.0698
26.38116 2.22 1.36 5000036.9686
13.25658 0.7 1.36 5000015.0943
21.64188 5.92 1.34 5000029.0698
21.64188 5.9 1.34 5000029.0698
22.97934 5.54 1.34 5000031.2989
22.97934 5.52 1.34 5000031.2989
21.64188 5.32 1.34 5000029.0698
20.4822 3.86 1.34 5000027.137
26.38116 2.22 1.34 5000036.9686
26.38116 2.2 1.34 5000036.9686
13.25658 0.7 1.34 5000015.0943
21.64188 5.92 1.32 5000029.0698
21.64188 5.9 1.32 5000029.0698
21.64188 5.34 1.32 5000029.0698
21.64188 5.32 1.32 5000029.0698
20.4822 3.86 1.32 5000027.137
26.38116 2.22 1.32 5000036.9686
13.25658 0.7 1.32 5000015.0943
21.64188 5.94 1.3 5000029.0698
22.97934 5.58 1.3 5000031.2989
21.64188 5.34 1.3 5000029.0698
26.38116 2.5 1.3 5000036.9686
13.25658 0.7 1.3 5000015.0943
21.64188 5.94 1.28 5000029.0698
21.64188 5.72 1.28 5000029.0698
21.64188 5.38 1.28 5000029.0698
20.4822 4.12 1.28 5000027.137
26.38116 2.5 1.28 5000036.9686
26.38116 2.26 1.28 5000036.9686
26.38116 2.24 1.28 5000036.9686
13.25658 0.7 1.28 5000015.0943
21.64188 5.94 1.26 5000029.0698
21.64188 5.74 1.26 5000029.0698
21.64188 5.68 1.26 5000029.0698
21.64188 5.38 1.26 5000029.0698
24.53898 4.98 1.26 5000033.8983
20.4822 4.12 1.26 5000027.137
38.9826 3.06 1.26 5000057.971
26.38116 2.26 1.26 5000036.9686
34.65684 1.3 1.26 5000050.7614
13.6044 0.7 1.26 5000015.674
18.57126 -4.46 1.26 5000023.9521
18.57126 -4.54 1.26 5000023.9521
21.64188 5.7 1.24 5000029.0698
26.38116 2.24 1.24 5000036.9686
13.6044 0.7 1.24 5000015.674
24.53898 5.6 1.22 5000033.8983
21.64188 5.48 1.22 5000029.0698
26.38116 2.26 1.22 5000036.9686
26.38116 2.24 1.22 5000036.9686
18.57126 -4.46 1.22 5000023.9521
21.64188 5.78 1.2 5000029.0698
21.64188 5.46 1.2 5000029.0698
21.64188 5.44 1.2 5000029.0698
21.64188 4.98 1.2 5000029.0698
21.64188 3.66 1.2 5000029.0698
26.38116 2.26 1.2 5000036.9686
26.38116 2.24 1.2 5000036.9686
21.64188 5.9 1.18 5000029.0698
21.64188 5.5 1.18 5000029.0698
21.64188 5.46 1.18 5000029.0698
21.64188 3.68 1.18 5000029.0698
21.64188 3.66 1.18 5000029.0698
31.28802 1.42 1.18 5000045.1467
18.57126 -4.54 1.18 5000023.9521
21.64188 5.52 1.16 5000029.0698
20.4822 4.26 1.16 5000027.137
21.64188 3.68 1.16 5000029.0698
31.28802 1.42 1.16 5000045.1467
20.4822 5.66 1.14 5000027.137
21.64188 5.54 1.14 5000029.0698
21.64188 3.8 1.14 5000029.0698
21.64188 3.68 1.14 5000029.0698
21.64188 5.56 1.12 5000029.0698
21.64188 5.5 1.12 5000029.0698
22.97934 5.18 1.12 5000031.2989
21.64188 5.52 1.1 5000029.0698
21.64188 5.5 1.1 5000029.0698
18.57126 -4.46 1.1 5000023.9521
18.57126 -4.48 1.1 5000023.9521
21.64188 5.54 1.08 5000029.0698
21.64188 5.52 1.08 5000029.0698
26.38116 2.2 1.08 5000036.9686
20.4822 5.94 1.06 5000027.137
21.64188 5.54 1.06 5000029.0698
26.38116 2.2 1.06 5000036.9686
20.4822 5.94 1.04 5000027.137
22.97934 5.54 1.04 5000031.2989
21.64188 5.72 1.02 5000029.0698
21.64188 5.7 1.02 5000029.0698
21.64188 5.6 1.02 5000029.0698
21.64188 5.56 1.02 5000029.0698
22.97934 5.54 1.02 5000031.2989
22.97934 5.26 1.02 5000031.2989
38.9826 2.94 1.02 5000057.971
26.38116 2.26 1.02 5000036.9686
21.64188 5.72 1.0 5000029.0698
21.64188 5.6 1.0 5000029.0698
21.64188 5.56 1.0 5000029.0698
22.97934 5.54 1.0 5000031.2989
20.4822 4.2 1.0 5000027.137
21.64188 3.82 1.0 5000029.0698
21.64188 3.7 1.0 5000029.0698
21.64188 3.64 1.0 5000029.0698
38.9826 2.94 1.0 5000057.971
21.64188 5.54 0.98 5000029.0698
20.4822 4.2 0.98 5000027.137
21.64188 3.64 0.98 5000029.0698
38.9826 2.94 0.98 5000057.971
20.4822 5.86 0.96 5000027.137
20.4822 5.84 0.96 5000027.137
21.64188 5.78 0.96 5000029.0698
21.64188 5.62 0.96 5000029.0698
21.64188 5.58 0.96 5000029.0698
21.64188 4.12 0.96 5000029.0698
21.64188 3.64 0.96 5000029.0698
20.4822 5.9 0.94 5000027.137
20.4822 5.88 0.94 5000027.137
21.64188 5.8 0.94 5000029.0698
21.64188 5.78 0.94 5000029.0698
21.64188 5.62 0.94 5000029.0698
21.64188 5.58 0.94 5000029.0698
20.4822 4.44 0.94 5000027.137
20.4822 4.2 0.94 5000027.137
21.64188 4.12 0.94 5000029.0698
21.64188 3.64 0.94 5000029.0698
21.64188 5.6 0.92 5000029.0698
21.64188 5.58 0.92 5000029.0698
20.4822 4.22 0.92 5000027.137
20.4822 4.2 0.92 5000027.137
21.64188 3.64 0.92 5000029.0698
21.64188 5.6 0.9 5000029.0698
21.64188 5.58 0.9 5000029.0698
22.97934 5.3 0.9 5000031.2989
24.53898 5.12 0.9 5000033.8983
20.4822 4.22 0.9 5000027.137
20.4822 4.2 0.9 5000027.137
21.64188 3.82 0.9 5000029.0698
21.64188 3.64 0.9 5000029.0698
13.25658 0.7 0.9 5000015.0943
21.64188 5.6 0.88 5000029.0698
22.97934 5.3 0.88 5000031.2989
34.65684 4.76 0.88 5000050.7614
20.4822 4.2 0.88 5000027.137
21.64188 3.7 0.88 5000029.0698
21.64188 3.64 0.88 5000029.0698
13.25658 0.7 0.88 5000015.0943
21.64188 5.78 0.86 5000029.0698
21.64188 5.6 0.86 5000029.0698
22.97934 5.32 0.86 5000031.2989
22.97934 5.3 0.86 5000031.2989
20.4822 4.2 0.86 5000027.137
21.64188 3.7 0.86 5000029.0698
21.64188 3.64 0.86 5000029.0698
38.9826 2.24 0.86 5000057.971
13.25658 0.7 0.86 5000015.0943
21.64188 5.9 0.84 5000029.0698
21.64188 5.6 0.84 5000029.0698
22.97934 5.22 0.84 5000031.2989
21.64188 4.22 0.84 5000029.0698
21.64188 4.2 0.84 5000029.0698
21.64188 3.82 0.84 5000029.0698
21.64188 3.64 0.84 5000029.0698
13.25658 0.7 0.84 5000015.0943
21.64188 5.92 0.82 5000029.0698
22.97934 5.36 0.82 5000031.2989
24.53898 5.16 0.82 5000033.8983
24.53898 5.14 0.82 5000033.8983
20.4822 4.2 0.82 5000027.137
21.64188 3.72 0.82 5000029.0698
21.64188 3.64 0.82 5000029.0698
21.64188 5.66 0.8 5000029.0698
21.64188 5.6 0.8 5000029.0698
21.64188 5.56 0.8 5000029.0698
22.97934 5.38 0.8 5000031.2989
20.4822 4.2 0.8 5000027.137
21.64188 3.72 0.8 5000029.0698
21.64188 3.64 0.8 5000029.0698
34.65684 2.34 0.8 5000050.7614
34.65684 1.12 0.8 5000050.7614
21.64188 5.62 0.78 5000029.0698
22.97934 5.36 0.78 5000031.2989
22.97934 5.34 0.78 5000031.2989
20.4822 4.2 0.78 5000027.137
21.64188 3.64 0.78 5000029.0698
34.65684 1.12 0.78 5000050.7614
21.64188 5.64 0.76 5000029.0698
21.64188 5.62 0.76 5000029.0698
20.4822 4.2 0.76 5000027.137
21.64188 3.72 0.76 5000029.0698
21.64188 3.64 0.76 5000029.0698
34.65684 2.36 0.76 5000050.7614
34.65684 1.14 0.76 5000050.7614
21.64188 5.66 0.74 5000029.0698
21.64188 5.64 0.74 5000029.0698
22.97934 5.38 0.74 5000031.2989
20.4822 4.2 0.74 5000027.137
21.64188 3.64 0.74 5000029.0698
22.97934 5.88 0.72 5000031.2989
21.64188 5.68 0.72 5000029.0698
21.64188 5.66 0.72 5000029.0698
21.64188 5.44 0.72 5000029.0698
22.97934 5.38 0.72 5000031.2989
20.4822 4.2 0.72 5000027.137
21.64188 3.9 0.72 5000029.0698
21.64188 3.82 0.72 5000029.0698
21.64188 3.72 0.72 5000029.0698
21.64188 3.64 0.72 5000029.0698
34.65684 2.36 0.72 5000050.7614
18.57126 -4.46 0.72 5000023.9521
18.57126 -4.48 0.72 5000023.9521
21.64188 5.76 0.7 5000029.0698
21.64188 5.68 0.7 5000029.0698
22.97934 5.36 0.7 5000031.2989
20.4822 4.2 0.7 5000027.137
21.64188 3.9 0.7 5000029.0698
21.64188 3.72 0.7 5000029.0698
21.64188 3.64 0.7 5000029.0698
34.65684 2.36 0.7 5000050.7614
18.57126 -4.48 0.7 5000023.9521
21.64188 5.78 0.68 5000029.0698
21.64188 5.76 0.68 5000029.0698
21.64188 5.58 0.68 5000029.0698
22.97934 5.36 0.68 5000031.2989
22.97934 5.34 0.68 5000031.2989
22.97934 5.22 0.68 5000031.2989
20.4822 4.22 0.68 5000027.137
20.4822 4.2 0.68 5000027.137
21.64188 3.72 0.68 5000029.0698
21.64188 3.64 0.68 5000029.0698
21.64188 5.62 0.66 5000029.0698
21.64188 5.6 0.66 5000029.0698
22.97934 5.22 0.66 5000031.2989
20.4822 4.2 0.66 5000027.137
21.64188 3.72 0.66 5000029.0698
21.64188 3.64 0.66 5000029.0698
21.64188 5.84 0.64 5000029.0698
22.97934 5.7 0.64 5000031.2989
22.97934 5.68 0.64 5000031.2989
20.4822 4.44 0.64 5000027.137
21.64188 3.72 0.64 5000029.0698
21.64188 3.64 0.64 5000029.0698
21.64188 5.84 0.62 5000029.0698
21.64188 5.74 0.62 5000029.0698
21.64188 5.72 0.62 5000029.0698
22.97934 5.7 0.62 5000031.2989
22.97934 5.58 0.62 5000031.2989
20.4822 4.44 0.62 5000027.137
21.64188 4.14 0.62 5000029.0698
21.64188 3.72 0.62 5000029.0698
21.64188 3.64 0.62 5000029.0698
18.57126 -4.48 0.62 5000023.9521
18.57126 -4.5 0.62 5000023.9521
21.64188 5.86 0.6 5000029.0698
21.64188 5.76 0.6 5000029.0698
21.64188 5.74 0.6 5000029.0698
22.97934 5.56 0.6 5000031.2989
20.4822 4.44 0.6 5000027.137
21.64188 3.72 0.6 5000029.0698
21.64188 3.64 0.6 5000029.0698
64.806 1.66 0.6 5000101.01
18.57126 -4.58 0.6 5000023.9521
21.64188 5.9 0.58 5000029.0698
21.64188 5.78 0.58 5000029.0698
21.64188 5.76 0.58 5000029.0698
22.97934 5.54 0.58 5000031.2989
21.64188 3.9 0.58 5000029.0698
21.64188 3.82 0.58 5000029.0698
21.64188 3.72 0.58 5000029.0698
21.64188 3.64 0.58 5000029.0698
13.6044 0.7 0.58 5000015.674
18.57126 -4.58 0.58 5000023.9521
22.97934 5.82 0.56 5000031.2989
21.64188 3.92 0.56 5000029.0698
21.64188 3.9 0.56 5000029.0698
21.64188 3.82 0.56 5000029.0698
21.64188 3.72 0.56 5000029.0698
21.64188 3.64 0.56 5000029.0698
38.9826 2.48 0.56 5000057.971
13.6044 0.7 0.56 5000015.674
21.64188 5.86 0.54 5000029.0698
22.97934 5.84 0.54 5000031.2989
20.4822 4.14 0.54 5000027.137
21.64188 3.72 0.54 5000029.0698
21.64188 3.64 0.54 5000029.0698
13.25658 0.7 0.54 5000015.0943
21.64188 5.88 0.52 5000029.0698
22.97934 5.86 0.52 5000031.2989
22.97934 5.4 0.52 5000031.2989
20.4822 4.16 0.52 5000027.137
20.4822 4.14 0.52 5000027.137
21.64188 3.72 0.52 5000029.0698
21.64188 3.64 0.52 5000029.0698
34.65684 1.42 0.52 5000050.7614
13.25658 0.7 0.52 5000015.0943
24.53898 -5.58 0.52 5000033.8983
24.53898 -5.6 0.52 5000033.8983
22.97934 -5.62 0.52 5000031.2989
21.64188 5.92 0.5 5000029.0698
21.64188 5.86 0.5 5000029.0698
20.4822 4.16 0.5 5000027.137
20.4822 4.14 0.5 5000027.137
21.64188 3.82 0.5 5000029.0698
21.64188 3.72 0.5 5000029.0698
21.64188 3.64 0.5 5000029.0698
34.65684 2.36 0.5 5000050.7614
34.65684 1.42 0.5 5000050.7614
13.25658 0.7 0.5 5000015.0943
26.38116 -5.54 0.5 5000036.9686
26.38116 -5.56 0.5 5000036.9686
24.53898 -5.58 0.5 5000033.8983
24.53898 -5.6 0.5 5000033.8983
22.97934 -5.62 0.5 5000031.2989
22.97934 -5.64 0.5 5000031.2989
21.64188 -5.66 0.5 5000029.0698
20.4822 -5.68 0.5 5000027.137
21.64188 5.94 0.48 5000029.0698
21.64188 5.92 0.48 5000029.0698
24.53898 5.5 0.48 5000033.8983
20.4822 4.16 0.48 5000027.137
20.4822 4.14 0.48 5000027.137
21.64188 3.72 0.48 5000029.0698
21.64188 3.64 0.48 5000029.0698
34.65684 2.36 0.48 5000050.7614
34.65684 1.44 0.48 5000050.7614
34.65684 1.42 0.48 5000050.7614
13.25658 0.7 0.48 5000015.0943
28.590239999999998 -5.52 0.48 5000040.6504
26.38116 -5.54 0.48 5000036.9686
26.38116 -5.56 0.48 5000036.9686
24.53898 -5.58 0.48 5000033.8983
24.53898 -5.6 0.48 5000033.8983
22.97934 -5.62 0.48 5000031.2989
22.97934 -5.64 0.48 5000031.2989
21.64188 -5.66 0.48 5000029.0698
38.9826 5.7 0.46 5000057.971
38.9826 5.66 0.46 5000057.971
20.4822 4.16 0.46 5000027.137
21.64188 3.72 0.46 5000029.0698
21.64188 3.64 0.46 5000029.0698
34.65684 2.36 0.46 5000050.7614
34.65684 1.44 0.46 5000050.7614
24.53898 -5.58 0.46 5000033.8983
24.53898 -5.6 0.46 5000033.8983
22.97934 -5.62 0.46 5000031.2989
21.64188 3.64 0.44 5000029.0698
34.65684 2.36 0.44 5000050.7614
34.65684 1.44 0.44 5000050.7614
24.53898 5.52 0.42 5000033.8983
24.53898 5.5 0.42 5000033.8983
28.590239999999998 5.28 0.42 5000040.6504
21.64188 3.82 0.42 5000029.0698
34.65684 2.36 0.42 5000050.7614
34.65684 1.44 0.42 5000050.7614
28.590239999999998 5.3 0.4 5000040.6504
26.38116 5.18 0.4 5000036.9686
20.4822 3.92 0.4 5000027.137
21.64188 3.82 0.4 5000029.0698
34.65684 2.36 0.4 5000050.7614
52.78302 2.18 0.4 5000080.9717
34.65684 1.44 0.4 5000050.7614
124.19999999999999 -3.92 0.4 5000200.0
31.28802 -3.98 0.4 5000045.1467
31.28802 -4.0 0.4 5000045.1467
31.28802 -4.02 0.4 5000045.1467
28.590239999999998 -4.04 0.4 5000040.6504
26.38116 -4.06 0.4 5000036.9686
26.38116 -4.08 0.4 5000036.9686
24.53898 -4.1 0.4 5000033.8983
22.97934 -4.12 0.4 5000031.2989
22.97934 -4.14 0.4 5000031.2989
22.97934 5.92 0.38 5000031.2989
22.97934 5.86 0.38 5000031.2989
22.97934 5.84 0.38 5000031.2989
24.53898 5.58 0.38 5000033.8983
20.4822 3.92 0.38 5000027.137
21.64188 3.82 0.38 5000029.0698
52.78302 2.76 0.38 5000080.9717
34.65684 2.36 0.38 5000050.7614
28.590239999999998 2.02 0.38 5000040.6504
34.65684 1.44 0.38 5000050.7614
26.38116 -4.08 0.38 5000036.9686
22.97934 5.86 0.36 5000031.2989
22.97934 5.84 0.36 5000031.2989
26.38116 5.14 0.36 5000036.9686
20.4822 3.92 0.36 5000027.137
21.64188 3.82 0.36 5000029.0698
34.65684 2.36 0.36 5000050.7614
28.590239999999998 2.04 0.36 5000040.6504
28.590239999999998 2.02 0.36 5000040.6504
34.65684 1.44 0.36 5000050.7614
13.25658 0.68 0.36 5000015.0943
31.28802 -4.0 0.36 5000045.1467
28.590239999999998 -4.02 0.36 5000040.6504
26.38116 -4.06 0.36 5000036.9686
26.38116 -4.08 0.36 5000036.9686
26.38116 -4.1 0.36 5000036.9686
22.97934 5.86 0.34 5000031.2989
22.97934 5.38 0.34 5000031.2989
22.97934 5.36 0.34 5000031.2989
22.97934 5.34 0.34 5000031.2989
20.4822 3.92 0.34 5000027.137
21.64188 3.82 0.34 5000029.0698
34.65684 2.36 0.34 5000050.7614
26.38116 -4.08 0.34 5000036.9686
22.97934 5.86 0.32 5000031.2989
38.9826 5.66 0.32 5000057.971
22.97934 5.34 0.32 5000031.2989
20.4822 3.92 0.32 5000027.137
21.64188 3.82 0.32 5000029.0698
34.65684 2.36 0.32 5000050.7614
13.25658 0.68 0.32 5000015.0943
28.590239999999998 -4.04 0.32 5000040.6504
28.590239999999998 -4.06 0.32 5000040.6504
26.38116 -4.08 0.32 5000036.9686
24.53898 -5.54 0.32 5000033.8983
24.53898 -5.56 0.32 5000033.8983
22.97934 -5.66 0.32 5000031.2989
38.9826 5.62 0.3 5000057.971
20.4822 3.92 0.3 5000027.137
21.64188 3.82 0.3 5000029.0698
34.65684 2.36 0.3 5000050.7614
28.590239999999998 2.02 0.3 5000040.6504
64.806 1.78 0.3 5000101.01
13.25658 0.68 0.3 5000015.0943
31.28802 -4.0 0.3 5000045.1467
28.590239999999998 -4.02 0.3 5000040.6504
28.590239999999998 -4.04 0.3 5000040.6504
28.590239999999998 -4.06 0.3 5000040.6504
26.38116 -4.08 0.3 5000036.9686
26.38116 5.82 0.28 5000036.9686
38.9826 5.62 0.28 5000057.971
20.4822 4.16 0.28 5000027.137
20.4822 3.92 0.28 5000027.137
21.64188 3.82 0.28 5000029.0698
34.65684 2.36 0.28 5000050.7614
13.25658 0.68 0.28 5000015.0943
28.590239999999998 -4.02 0.28 5000040.6504
28.590239999999998 -4.04 0.28 5000040.6504
28.590239999999998 -6.3 0.28 5000040.6504
26.38116 5.86 0.26 5000036.9686
26.38116 5.84 0.26 5000036.9686
38.9826 5.62 0.26 5000057.971
38.9826 5.6 0.26 5000057.971
20.4822 3.92 0.26 5000027.137
21.64188 3.82 0.26 5000029.0698
34.65684 2.36 0.26 5000050.7614
34.65684 1.42 0.26 5000050.7614
13.25658 0.68 0.26 5000015.0943
64.806 0.22 0.26 5000101.01
38.9826 5.6 0.24 5000057.971
20.4822 3.92 0.24 5000027.137
21.64188 3.82 0.24 5000029.0698
34.65684 1.42 0.24 5000050.7614
13.25658 0.68 0.24 5000015.0943
38.9826 5.42 0.22 5000057.971
38.9826 5.16 0.22 5000057.971
20.4822 3.92 0.22 5000027.137
21.64188 3.82 0.22 5000029.0698
34.65684 1.42 0.22 5000050.7614
13.25658 0.68 0.22 5000015.0943
21.64188 5.26 0.2 5000029.0698
38.9826 5.12 0.2 5000057.971
20.4822 3.92 0.2 5000027.137
21.64188 3.82 0.2 5000029.0698
34.65684 2.36 0.2 5000050.7614
34.65684 1.4 0.2 5000050.7614
13.25658 0.7 0.2 5000015.0943
22.97934 5.56 0.18 5000031.2989
21.64188 3.92 0.18 5000029.0698
21.64188 3.82 0.18 5000029.0698
34.65684 1.4 0.18 5000050.7614
13.25658 0.7 0.18 5000015.0943
22.97934 5.88 0.16 5000031.2989
22.97934 5.54 0.16 5000031.2989
21.64188 3.92 0.16 5000029.0698
21.64188 3.82 0.16 5000029.0698
34.65684 2.36 0.16 5000050.7614
84.7368 1.78 0.16 5000134.228
13.25658 0.7 0.16 5000015.0943
44.74056 -3.84 0.16 5000067.5676
38.9826 -3.86 0.16 5000057.971
38.9826 -3.88 0.16 5000057.971
38.9826 -3.9 0.16 5000057.971
21.64188 3.92 0.14 5000029.0698
21.64188 3.82 0.14 5000029.0698
34.65684 2.36 0.14 5000050.7614
84.7368 1.8 0.14 5000134.228
34.65684 1.52 0.14 5000050.7614
13.25658 0.7 0.14 5000015.0943
34.65684 -3.72 0.14 5000050.7614
34.65684 -3.74 0.14 5000050.7614
34.65684 -3.76 0.14 5000050.7614
44.74056 -3.84 0.14 5000067.5676
38.9826 -3.86 0.14 5000057.971
38.9826 -3.88 0.14 5000057.971
38.9826 -3.9 0.14 5000057.971
21.64188 3.92 0.12 5000029.0698
21.64188 3.82 0.12 5000029.0698
34.65684 2.36 0.12 5000050.7614
34.65684 1.52 0.12 5000050.7614
13.25658 0.7 0.12 5000015.0943
34.65684 -3.72 0.12 5000050.7614
34.65684 -3.74 0.12 5000050.7614
34.65684 -3.76 0.12 5000050.7614
31.28802 -3.78 0.12 5000045.1467
44.74056 -3.84 0.12 5000067.5676
38.9826 -3.86 0.12 5000057.971
38.9826 -3.88 0.12 5000057.971
38.9826 -3.9 0.12 5000057.971
21.64188 3.82 0.1 5000029.0698
34.65684 2.36 0.1 5000050.7614
13.25658 0.7 0.1 5000015.0943
38.9826 -3.68 0.1 5000057.971
38.9826 -3.7 0.1 5000057.971
34.65684 -3.72 0.1 5000050.7614
34.65684 -3.74 0.1 5000050.7614
34.65684 -3.76 0.1 5000050.7614
31.28802 -3.78 0.1 5000045.1467
38.9826 -3.86 0.1 5000057.971
38.9826 -3.88 0.1 5000057.971
21.64188 3.92 0.08 5000029.0698
21.64188 3.82 0.08 5000029.0698
34.65684 2.36 0.08 5000050.7614
38.9826 -3.72 0.08 5000057.971
34.65684 -3.74 0.08 5000050.7614
34.65684 -5.98 0.08 5000050.7614
21.64188 3.92 0.06 5000029.0698
21.64188 3.82 0.06 5000029.0698
34.65684 1.46 0.06 5000050.7614
34.65684 -5.98 0.06 5000050.7614
20.4822 3.92 0.04 5000027.137
21.64188 3.82 0.04 5000029.0698
21.64188 3.92 0.02 5000029.0698
21.64188 3.82 0.02 5000029.0698
21.64188 3.92 0.0 5000029.0698
21.64188 3.82 0.0 5000029.0698
