VERSION .7
FIELDS x y z rgb
SIZE 4 4 4 4
TYPE F F F F
COUNT 1 1 1 1
WIDTH 1342
HEIGHT 1
VIEWPOINT 0 0 0 1 0 0 0
POINTS 1342
DATA ascii
20.4822 3.88 0.82 5000027.137
21.64188 3.8 0.82 5000029.0698
21.64188 5.84 0.8 5000029.0698
22.97934 5.56 0.8 5000031.2989
22.97934 5.54 0.8 5000031.2989
20.4822 4.38 0.8 5000027.137
21.64188 4.3 0.8 5000029.0698
20.4822 3.88 0.8 5000027.137
21.64188 3.8 0.8 5000029.0698
21.64188 5.86 0.78 5000029.0698
21.64188 5.84 0.78 5000029.0698
20.4822 4.4 0.78 5000027.137
20.4822 4.38 0.78 5000027.137
20.4822 3.88 0.78 5000027.137
21.64188 3.8 0.78 5000029.0698
21.64188 5.94 0.76 5000029.0698
21.64188 5.88 0.76 5000029.0698
22.97934 5.58 0.76 5000031.2989
24.53898 5.1 0.76 5000033.8983
20.4822 4.38 0.76 5000027.137
20.4822 3.88 0.76 5000027.137
21.64188 3.8 0.76 5000029.0698
21.64188 5.94 0.74 5000029.0698
21.64188 5.88 0.74 5000029.0698
21.64188 5.66 0.74 5000029.0698
21.64188 5.64 0.74 5000029.0698
22.97934 5.42 0.74 5000031.2989
24.53898 5.1 0.74 5000033.8983
20.4822 4.38 0.74 5000027.137
20.4822 4.08 0.74 5000027.137
20.4822 3.98 0.74 5000027.137
20.4822 3.88 0.74 5000027.137
21.64188 3.8 0.74 5000029.0698
21.64188 5.9 0.72 5000029.0698
21.64188 5.88 0.72 5000029.0698
22.97934 5.56 0.72 5000031.2989
20.4822 4.4 0.72 5000027.137
20.4822 4.38 0.72 5000027.137
20.4822 4.08 0.72 5000027.137
20.4822 3.88 0.72 5000027.137
21.64188 3.8 0.72 5000029.0698
34.65684 2.44 0.72 5000050.7614
17.77464 -4.6 0.72 5000022.6244
21.64188 5.78 0.7 5000029.0698
22.97934 5.56 0.7 5000031.2989
22.97934 5.54 0.7 5000031.2989
20.4822 4.4 0.7 5000027.137
20.4822 4.38 0.7 5000027.137
20.4822 3.88 0.7 5000027.137
21.64188 3.8 0.7 5000029.0698
17.77464 -4.7 0.7 5000022.6244
21.64188 5.82 0.68 5000029.0698
21.64188 5.8 0.68 5000029.0698
22.97934 5.42 0.68 5000031.2989
20.4822 4.4 0.68 5000027.137
20.4822 3.88 0.68 5000027.137
21.64188 3.8 0.68 5000029.0698
17.77464 -4.7 0.68 5000022.6244
22.97934 5.9 0.66 5000031.2989
19.467180000000003 4.64 0.66 5000025.4453
20.4822 3.88 0.66 5000027.137
21.64188 3.8 0.66 5000029.0698
18.57126 -4.6 0.66 5000023.9521
18.57126 -4.62 0.66 5000023.9521
17.77464 -4.7 0.66 5000022.6244
21.64188 5.94 0.64 5000029.0698
21.64188 5.92 0.64 5000029.0698
22.97934 5.9 0.64 5000031.2989
22.97934 5.42 0.64 5000031.2989
19.467180000000003 4.64 0.64 5000025.4453
20.4822 4.32 0.64 5000027.137
20.4822 3.88 0.64 5000027.137
21.64188 3.8 0.64 5000029.0698
18.57126 -4.6 0.64 5000023.9521
18.57126 -4.62 0.64 5000023.9521
17.77464 -4.7 0.64 5000022.6244
19.467180000000003 4.64 0.62 5000025.4453
20.4822 3.88 0.62 5000027.137
21.64188 3.8 0.62 5000029.0698
12.933599999999998 0.8 0.62 5000014.556
52.78302 0.68 0.62 5000080.9717
20.4822 3.88 0.6 5000027.137
21.64188 3.8 0.6 5000029.0698
20.4822 4.08 0.58 5000027.137
20.4822 3.88 0.58 5000027.137
21.64188 3.8 0.58 5000029.0698
12.933599999999998 0.8 0.58 5000014.556
20.4822 3.88 0.56 5000027.137
21.64188 3.8 0.56 5000029.0698
12.933599999999998 0.8 0.56 5000014.556
19.467180000000003 4.34 0.54 5000025.4453
20.4822 3.88 0.54 5000027.137
21.64188 3.8 0.54 5000029.0698
44.74056 2.22 0.54 5000067.5676
12.933599999999998 0.8 0.54 5000014.556
19.467180000000003 4.34 0.52 5000025.4453
20.4822 3.88 0.52 5000027.137
21.64188 3.8 0.52 5000029.0698
12.933599999999998 0.8 0.52 5000014.556
24.53898 -5.68 0.52 5000033.8983
22.97934 -5.7 0.52 5000031.2989
22.97934 -5.72 0.52 5000031.2989
21.64188 -5.74 0.52 5000029.0698
20.4822 -5.76 0.52 5000027.137
20.4822 -5.78 0.52 5000027.137
19.467180000000003 -5.8 0.52 5000025.4453
19.467180000000003 -5.82 0.52 5000025.4453
22.97934 5.68 0.5 5000031.2989
19.467180000000003 4.34 0.5 5000025.4453
19.467180000000003 4.32 0.5 5000025.4453
20.4822 3.88 0.5 5000027.137
21.64188 3.8 0.5 5000029.0698
34.65684 1.48 0.5 5000050.7614
12.933599999999998 0.8 0.5 5000014.556
38.9826 -5.6 0.5 5000057.971
26.38116 -5.64 0.5 5000036.9686
26.38116 -5.66 0.5 5000036.9686
24.53898 -5.68 0.5 5000033.8983
22.97934 -5.7 0.5 5000031.2989
22.97934 -5.72 0.5 5000031.2989
21.64188 -5.74 0.5 5000029.0698
21.64188 -5.76 0.5 5000029.0698
20.4822 -5.78 0.5 5000027.137
22.97934 5.68 0.48 5000031.2989
22.97934 5.64 0.48 5000031.2989
26.38116 5.36 0.48 5000036.9686
19.467180000000003 4.36 0.48 5000025.4453
20.4822 3.88 0.48 5000027.137
21.64188 3.8 0.48 5000029.0698
34.65684 2.44 0.48 5000050.7614
34.65684 1.48 0.48 5000050.7614
12.933599999999998 0.8 0.48 5000014.556
124.19999999999999 -5.52 0.48 5000200.0
24.53898 -5.68 0.48 5000033.8983
22.97934 -5.72 0.48 5000031.2989
21.64188 -5.74 0.48 5000029.0698
21.64188 -5.76 0.48 5000029.0698
20.4822 -5.78 0.48 5000027.137
20.4822 3.88 0.46 5000027.137
21.64188 3.8 0.46 5000029.0698
34.65684 2.44 0.46 5000050.7614
38.9826 2.04 0.46 5000057.971
34.65684 1.5 0.46 5000050.7614
34.65684 1.48 0.46 5000050.7614
12.933599999999998 0.8 0.46 5000014.556
26.38116 -5.68 0.46 5000036.9686
24.53898 -5.7 0.46 5000033.8983
22.97934 -5.72 0.46 5000031.2989
21.64188 -5.74 0.46 5000029.0698
28.590239999999998 5.24 0.44 5000040.6504
28.590239999999998 5.18 0.44 5000040.6504
20.4822 4.08 0.44 5000027.137
21.64188 3.98 0.44 5000029.0698
21.64188 3.8 0.44 5000029.0698
34.65684 2.44 0.44 5000050.7614
24.53898 5.7 0.42 5000033.8983
24.53898 5.48 0.42 5000033.8983
24.53898 5.46 0.42 5000033.8983
20.4822 4.08 0.42 5000027.137
21.64188 3.98 0.42 5000029.0698
34.65684 2.44 0.42 5000050.7614
34.65684 1.5 0.42 5000050.7614
28.590239999999998 -4.08 0.42 5000040.6504
26.38116 -4.1 0.42 5000036.9686
26.38116 -4.12 0.42 5000036.9686
24.53898 -4.14 0.42 5000033.8983
20.4822 -6.74 0.42 5000027.137
24.53898 5.46 0.4 5000033.8983
44.74056 5.08 0.4 5000067.5676
20.4822 4.08 0.4 5000027.137
21.64188 3.98 0.4 5000029.0698
34.65684 2.44 0.4 5000050.7614
34.65684 1.5 0.4 5000050.7614
34.65684 1.48 0.4 5000050.7614
31.28802 -4.04 0.4 5000045.1467
31.28802 -4.06 0.4 5000045.1467
28.590239999999998 -4.08 0.4 5000040.6504
26.38116 -4.1 0.4 5000036.9686
24.53898 -4.12 0.4 5000033.8983
22.97934 -4.14 0.4 5000031.2989
22.97934 -4.16 0.4 5000031.2989
21.64188 -4.18 0.4 5000029.0698
22.97934 5.78 0.38 5000031.2989
20.4822 4.1 0.38 5000027.137
20.4822 4.08 0.38 5000027.137
21.64188 3.98 0.38 5000029.0698
52.78302 2.82 0.38 5000080.9717
34.65684 2.44 0.38 5000050.7614
28.590239999999998 2.1 0.38 5000040.6504
34.65684 1.5 0.38 5000050.7614
12.63288 0.78 0.38 5000014.0548
22.97934 -4.16 0.38 5000031.2989
21.64188 -4.18 0.38 5000029.0698
20.4822 -4.2 0.38 5000027.137
20.4822 4.1 0.36 5000027.137
20.4822 4.08 0.36 5000027.137
21.64188 3.98 0.36 5000029.0698
26.38116 3.8 0.36 5000036.9686
34.65684 2.44 0.36 5000050.7614
28.590239999999998 2.12 0.36 5000040.6504
28.590239999999998 2.1 0.36 5000040.6504
64.806 1.82 0.36 5000101.01
34.65684 1.5 0.36 5000050.7614
12.63288 0.78 0.36 5000014.0548
31.28802 -4.08 0.36 5000045.1467
24.53898 -4.14 0.36 5000033.8983
22.97934 -4.16 0.36 5000031.2989
21.64188 -4.18 0.36 5000029.0698
21.64188 5.88 0.34 5000029.0698
22.97934 5.56 0.34 5000031.2989
22.97934 5.54 0.34 5000031.2989
19.467180000000003 4.64 0.34 5000025.4453
20.4822 4.1 0.34 5000027.137
20.4822 4.08 0.34 5000027.137
21.64188 3.98 0.34 5000029.0698
34.65684 2.44 0.34 5000050.7614
31.28802 2.04 0.34 5000045.1467
12.63288 0.78 0.34 5000014.0548
24.53898 -4.12 0.34 5000033.8983
24.53898 -4.14 0.34 5000033.8983
22.97934 -5.66 0.34 5000031.2989
22.97934 -5.76 0.34 5000031.2989
44.74056 5.74 0.32 5000067.5676
21.64188 5.62 0.32 5000029.0698
21.64188 5.4 0.32 5000029.0698
20.4822 4.1 0.32 5000027.137
20.4822 4.08 0.32 5000027.137
21.64188 3.98 0.32 5000029.0698
34.65684 2.44 0.32 5000050.7614
34.65684 1.48 0.32 5000050.7614
12.63288 0.78 0.32 5000014.0548
24.53898 -4.14 0.32 5000033.8983
22.97934 -5.76 0.32 5000031.2989
44.74056 5.74 0.3 5000067.5676
21.64188 5.48 0.3 5000029.0698
31.28802 4.18 0.3 5000045.1467
20.4822 4.1 0.3 5000027.137
20.4822 4.08 0.3 5000027.137
21.64188 3.98 0.3 5000029.0698
34.65684 2.44 0.3 5000050.7614
28.590239999999998 2.1 0.3 5000040.6504
12.63288 0.78 0.3 5000014.0548
28.590239999999998 -4.06 0.3 5000040.6504
28.590239999999998 -4.08 0.3 5000040.6504
26.38116 -4.1 0.3 5000036.9686
26.38116 -4.12 0.3 5000036.9686
26.38116 -4.14 0.3 5000036.9686
22.97934 -5.76 0.3 5000031.2989
38.9826 5.94 0.28 5000057.971
38.9826 5.74 0.28 5000057.971
20.4822 4.08 0.28 5000027.137
21.64188 3.98 0.28 5000029.0698
34.65684 2.44 0.28 5000050.7614
38.9826 1.48 0.28 5000057.971
12.63288 0.78 0.28 5000014.0548
28.590239999999998 -4.06 0.28 5000040.6504
28.590239999999998 -4.08 0.28 5000040.6504
26.38116 -4.1 0.28 5000036.9686
26.38116 -4.12 0.28 5000036.9686
22.97934 -5.76 0.28 5000031.2989
28.590239999999998 -6.4 0.28 5000040.6504
38.9826 5.94 0.26 5000057.971
38.9826 5.74 0.26 5000057.971
20.4822 4.1 0.26 5000027.137
20.4822 4.08 0.26 5000027.137
21.64188 3.98 0.26 5000029.0698
31.28802 2.44 0.26 5000045.1467
12.933599999999998 0.78 0.26 5000014.556
28.590239999999998 -6.4 0.26 5000040.6504
38.9826 5.88 0.24 5000057.971
38.9826 5.74 0.24 5000057.971
38.9826 5.72 0.24 5000057.971
38.9826 5.66 0.24 5000057.971
20.4822 4.1 0.24 5000027.137
20.4822 4.08 0.24 5000027.137
21.64188 3.98 0.24 5000029.0698
31.28802 2.44 0.24 5000045.1467
38.9826 1.48 0.24 5000057.971
22.97934 5.54 0.22 5000031.2989
21.64188 5.48 0.22 5000029.0698
22.97934 5.42 0.22 5000031.2989
38.9826 5.28 0.22 5000057.971
20.4822 4.1 0.22 5000027.137
20.4822 4.08 0.22 5000027.137
21.64188 3.98 0.22 5000029.0698
31.28802 2.44 0.22 5000045.1467
34.65684 1.48 0.22 5000050.7614
34.65684 1.46 0.22 5000050.7614
12.933599999999998 0.8 0.22 5000014.556
22.97934 5.78 0.2 5000031.2989
38.9826 5.28 0.2 5000057.971
19.467180000000003 4.34 0.2 5000025.4453
20.4822 4.1 0.2 5000027.137
21.64188 3.98 0.2 5000029.0698
31.28802 2.44 0.2 5000045.1467
34.65684 1.46 0.2 5000050.7614
12.63288 0.82 0.2 5000014.0548
12.63288 0.8 0.2 5000014.0548
22.97934 5.76 0.18 5000031.2989
20.4822 4.1 0.18 5000027.137
20.4822 4.08 0.18 5000027.137
21.64188 3.98 0.18 5000029.0698
31.28802 2.44 0.18 5000045.1467
34.65684 1.46 0.18 5000050.7614
34.65684 1.44 0.18 5000050.7614
12.63288 0.8 0.18 5000014.0548
22.97934 5.74 0.16 5000031.2989
26.38116 5.18 0.16 5000036.9686
20.4822 4.1 0.16 5000027.137
21.64188 3.98 0.16 5000029.0698
31.28802 2.44 0.16 5000045.1467
12.63288 0.8 0.16 5000014.0548
20.4822 4.1 0.14 5000027.137
20.4822 4.08 0.14 5000027.137
21.64188 3.98 0.14 5000029.0698
34.65684 2.44 0.14 5000050.7614
64.806 1.84 0.14 5000101.01
64.806 1.82 0.14 5000101.01
12.63288 0.82 0.14 5000014.0548
12.63288 0.8 0.14 5000014.0548
34.65684 -3.78 0.14 5000050.7614
44.74056 -3.86 0.14 5000067.5676
38.9826 -3.88 0.14 5000057.971
38.9826 -3.9 0.14 5000057.971
38.9826 -3.92 0.14 5000057.971
34.65684 -3.94 0.14 5000050.7614
19.467180000000003 -3.98 0.14 5000025.4453
20.4822 4.1 0.12 5000027.137
20.4822 4.08 0.12 5000027.137
21.64188 3.98 0.12 5000029.0698
34.65684 2.44 0.12 5000050.7614
34.65684 1.58 0.12 5000050.7614
15.3111 0.88 0.12 5000018.5185
12.63288 0.82 0.12 5000014.0548
12.63288 0.8 0.12 5000014.0548
38.9826 -3.74 0.12 5000057.971
34.65684 -3.76 0.12 5000050.7614
34.65684 -3.78 0.12 5000050.7614
34.65684 -3.8 0.12 5000050.7614
38.9826 -3.88 0.12 5000057.971
38.9826 -3.9 0.12 5000057.971
38.9826 -3.92 0.12 5000057.971
34.65684 -3.94 0.12 5000050.7614
20.4822 4.1 0.1 5000027.137
21.64188 3.98 0.1 5000029.0698
34.65684 2.44 0.1 5000050.7614
12.63288 0.8 0.1 5000014.0548
38.9826 -3.74 0.1 5000057.971
34.65684 -3.76 0.1 5000050.7614
34.65684 -3.78 0.1 5000050.7614
34.65684 -3.8 0.1 5000050.7614
44.74056 -3.86 0.1 5000067.5676
38.9826 -3.88 0.1 5000057.971
38.9826 -3.9 0.1 5000057.971
38.9826 -3.92 0.1 5000057.971
19.467180000000003 -3.98 0.1 5000025.4453
19.467180000000003 -4.0 0.1 5000025.4453
31.28802 -6.22 0.1 5000045.1467
31.28802 -6.24 0.1 5000045.1467
20.4822 4.1 0.08 5000027.137
21.64188 3.98 0.08 5000029.0698
34.65684 2.44 0.08 5000050.7614
124.19999999999999 -3.68 0.08 5000200.0
38.9826 -3.74 0.08 5000057.971
38.9826 -3.76 0.08 5000057.971
38.9826 -3.78 0.08 5000057.971
34.65684 -3.8 0.08 5000050.7614
38.9826 -3.88 0.08 5000057.971
38.9826 -3.9 0.08 5000057.971
19.467180000000003 4.66 0.06 5000025.4453
20.4822 4.1 0.06 5000027.137
21.64188 3.98 0.06 5000029.0698
34.65684 2.44 0.06 5000050.7614
31.28802 1.5 0.06 5000045.1467
19.467180000000003 4.66 0.04 5000025.4453
20.4822 4.1 0.04 5000027.137
20.4822 4.08 0.04 5000027.137
21.64188 3.98 0.04 5000029.0698
38.9826 2.46 0.04 5000057.971
52.78302 0.68 0.04 5000080.9717
20.4822 4.1 0.02 5000027.137
21.64188 3.98 0.02 5000029.0698
38.9826 2.46 0.02 5000057.971
20.4822 4.1 0.0 5000027.137
21.64188 3.98 0.0 5000029.0698
64.806 0.32 0.0 5000101.01
20.4822 4.1 -0.02 5000027.137
21.64188 3.98 -0.02 5000029.0698
20.4822 4.66 -0.04 5000027.137
20.4822 4.1 -0.04 5000027.137
21.64188 3.98 -0.04 5000029.0698
34.65684 2.36 -0.04 5000050.7614
19.467180000000003 4.38 -0.06 5000025.4453
20.4822 4.1 -0.06 5000027.137
21.64188 3.98 -0.06 5000029.0698
28.590239999999998 3.2 -0.06 5000040.6504
64.806 0.32 -0.06 5000101.01
19.467180000000003 4.38 -0.08 5000025.4453
28.590239999999998 4.18 -0.08 5000040.6504
28.590239999999998 4.16 -0.08 5000040.6504
21.64188 3.98 -0.08 5000029.0698
28.590239999999998 3.2 -0.08 5000040.6504
28.590239999999998 5.56 -0.1 5000040.6504
19.467180000000003 4.38 -0.1 5000025.4453
28.590239999999998 4.3 -0.1 5000040.6504
28.590239999999998 4.18 -0.1 5000040.6504
21.64188 3.98 -0.1 5000029.0698
28.590239999999998 3.18 -0.1 5000040.6504
31.28802 2.94 -0.1 5000045.1467
31.28802 2.92 -0.1 5000045.1467
19.467180000000003 4.38 -0.12 5000025.4453
28.590239999999998 4.18 -0.12 5000040.6504
28.590239999999998 3.18 -0.12 5000040.6504
31.28802 2.92 -0.12 5000045.1467
26.38116 2.58 -0.12 5000036.9686
12.63288 -6.4 -0.12 5000014.0548
12.63288 -6.42 -0.12 5000014.0548
12.3522 -6.44 -0.12 5000013.587
12.3522 -6.46 -0.12 5000013.587
12.08952 -6.48 -0.12 5000013.1492
28.590239999999998 4.18 -0.14 5000040.6504
28.590239999999998 4.16 -0.14 5000040.6504
26.38116 2.58 -0.14 5000036.9686
20.4822 4.1 -0.16 5000027.137
24.53898 2.58 -0.16 5000033.8983
12.63288 -5.58 -0.16 5000014.0548
20.4822 4.1 -0.18 5000027.137
20.4822 4.08 -0.18 5000027.137
21.64188 4.0 -0.18 5000029.0698
21.64188 3.98 -0.18 5000029.0698
24.53898 2.58 -0.18 5000033.8983
44.74056 1.44 -0.18 5000067.5676
12.933599999999998 0.8 -0.18 5000014.556
12.933599999999998 -5.54 -0.18 5000014.556
12.63288 -5.56 -0.18 5000014.0548
12.63288 -5.6 -0.18 5000014.0548
12.3522 -5.62 -0.18 5000013.587
12.3522 -5.64 -0.18 5000013.587
12.08952 -5.66 -0.18 5000013.1492
11.843340000000001 -5.68 -0.18 5000012.7389
12.3522 -6.48 -0.18 5000013.587
12.3522 -6.5 -0.18 5000013.587
19.467180000000003 4.36 -0.2 5000025.4453
20.4822 4.1 -0.2 5000027.137
21.64188 4.0 -0.2 5000029.0698
21.64188 3.98 -0.2 5000029.0698
24.53898 2.58 -0.2 5000033.8983
44.74056 1.44 -0.2 5000067.5676
12.933599999999998 0.8 -0.2 5000014.556
12.63288 -5.6 -0.2 5000014.0548
12.3522 -5.62 -0.2 5000013.587
12.3522 -5.64 -0.2 5000013.587
12.08952 -5.66 -0.2 5000013.1492
28.590239999999998 4.16 -0.22 5000040.6504
31.28802 2.8 -0.22 5000045.1467
34.65684 2.36 -0.22 5000050.7614
44.74056 1.44 -0.22 5000067.5676
12.63288 0.8 -0.22 5000014.0548
12.933599999999998 -6.34 -0.22 5000014.556
12.933599999999998 -6.36 -0.22 5000014.556
12.08952 -6.6 -0.22 5000013.1492
19.467180000000003 4.4 -0.24 5000025.4453
20.4822 4.1 -0.24 5000027.137
31.28802 2.8 -0.24 5000045.1467
12.63288 0.8 -0.24 5000014.0548
12.3522 -5.54 -0.24 5000013.587
12.933599999999998 -6.34 -0.24 5000014.556
12.933599999999998 -6.36 -0.24 5000014.556
12.08952 -6.58 -0.24 5000013.1492
12.08952 -6.6 -0.24 5000013.1492
19.467180000000003 4.4 -0.26 5000025.4453
20.4822 4.1 -0.26 5000027.137
20.4822 4.08 -0.26 5000027.137
31.28802 2.8 -0.26 5000045.1467
12.63288 0.8 -0.26 5000014.0548
19.467180000000003 4.74 -0.28 5000025.4453
19.467180000000003 4.42 -0.28 5000025.4453
19.467180000000003 4.4 -0.28 5000025.4453
28.590239999999998 4.16 -0.28 5000040.6504
31.28802 3.24 -0.28 5000045.1467
31.28802 2.8 -0.28 5000045.1467
34.65684 2.36 -0.28 5000050.7614
31.28802 1.5 -0.28 5000045.1467
12.63288 0.8 -0.28 5000014.0548
12.3522 -5.54 -0.28 5000013.587
12.933599999999998 -6.28 -0.28 5000014.556
26.38116 5.9 -0.3 5000036.9686
19.467180000000003 4.72 -0.3 5000025.4453
19.467180000000003 4.42 -0.3 5000025.4453
19.467180000000003 4.4 -0.3 5000025.4453
28.590239999999998 4.16 -0.3 5000040.6504
31.28802 1.5 -0.3 5000045.1467
12.63288 0.8 -0.3 5000014.0548
84.7368 -2.44 -0.3 5000134.228
12.08952 -6.56 -0.3 5000013.1492
12.08952 -6.64 -0.3 5000013.1492
26.38116 5.9 -0.32 5000036.9686
19.467180000000003 4.72 -0.32 5000025.4453
19.467180000000003 4.42 -0.32 5000025.4453
28.590239999999998 4.16 -0.32 5000040.6504
31.28802 1.5 -0.32 5000045.1467
12.63288 0.8 -0.32 5000014.0548
13.25658 -4.96 -0.32 5000015.0943
13.25658 -4.98 -0.32 5000015.0943
12.08952 -5.66 -0.32 5000013.1492
12.933599999999998 -6.32 -0.32 5000014.556
12.933599999999998 -6.34 -0.32 5000014.556
19.467180000000003 4.7 -0.34 5000025.4453
19.467180000000003 4.42 -0.34 5000025.4453
28.590239999999998 4.16 -0.34 5000040.6504
28.590239999999998 3.26 -0.34 5000040.6504
12.63288 0.8 -0.34 5000014.0548
44.74056 -0.6 -0.34 5000067.5676
44.74056 -0.62 -0.34 5000067.5676
44.74056 -0.64 -0.34 5000067.5676
84.7368 -0.82 -0.34 5000134.228
64.806 -0.88 -0.34 5000101.01
64.806 -1.8 -0.34 5000101.01
64.806 -1.82 -0.34 5000101.01
17.77464 -2.04 -0.34 5000022.6244
17.77464 -2.06 -0.34 5000022.6244
12.08952 -5.64 -0.34 5000013.1492
12.08952 -5.66 -0.34 5000013.1492
12.08952 -5.68 -0.34 5000013.1492
12.933599999999998 -5.78 -0.34 5000014.556
12.933599999999998 -5.8 -0.34 5000014.556
12.08952 -6.58 -0.34 5000013.1492
12.08952 -6.68 -0.34 5000013.1492
19.467180000000003 4.42 -0.36 5000025.4453
19.467180000000003 4.4 -0.36 5000025.4453
28.590239999999998 4.16 -0.36 5000040.6504
28.590239999999998 3.26 -0.36 5000040.6504
12.63288 0.8 -0.36 5000014.0548
84.7368 -0.82 -0.36 5000134.228
84.7368 -0.84 -0.36 5000134.228
12.63288 -5.78 -0.36 5000014.0548
12.63288 -5.8 -0.36 5000014.0548
12.08952 -6.58 -0.36 5000013.1492
19.467180000000003 4.72 -0.38 5000025.4453
19.467180000000003 4.42 -0.38 5000025.4453
19.467180000000003 4.4 -0.38 5000025.4453
28.590239999999998 4.16 -0.38 5000040.6504
12.63288 0.8 -0.38 5000014.0548
13.979940000000001 -5.06 -0.38 5000016.2999
12.08952 -5.66 -0.38 5000013.1492
12.08952 -5.68 -0.38 5000013.1492
12.63288 -5.92 -0.38 5000014.0548
12.08952 -6.6 -0.38 5000013.1492
11.843340000000001 -6.68 -0.38 5000012.7389
11.843340000000001 -6.7 -0.38 5000012.7389
28.590239999999998 5.4 -0.4 5000040.6504
19.467180000000003 4.72 -0.4 5000025.4453
19.467180000000003 4.42 -0.4 5000025.4453
28.590239999999998 4.18 -0.4 5000040.6504
12.63288 0.8 -0.4 5000014.0548
12.08952 -5.64 -0.4 5000013.1492
12.08952 -5.66 -0.4 5000013.1492
12.08952 -5.68 -0.4 5000013.1492
12.63288 -5.82 -0.4 5000014.0548
12.08952 -6.6 -0.4 5000013.1492
12.08952 -6.7 -0.4 5000013.1492
28.590239999999998 5.66 -0.42 5000040.6504
28.590239999999998 5.4 -0.42 5000040.6504
19.467180000000003 4.72 -0.42 5000025.4453
19.467180000000003 4.42 -0.42 5000025.4453
28.590239999999998 4.18 -0.42 5000040.6504
28.590239999999998 4.16 -0.42 5000040.6504
38.9826 3.74 -0.42 5000057.971
12.63288 0.8 -0.42 5000014.0548
12.08952 -5.64 -0.42 5000013.1492
12.08952 -5.66 -0.42 5000013.1492
12.08952 -5.68 -0.42 5000013.1492
12.63288 -5.8 -0.42 5000014.0548
12.63288 -5.82 -0.42 5000014.0548
12.08952 -6.72 -0.42 5000013.1492
28.590239999999998 5.4 -0.44 5000040.6504
19.467180000000003 4.72 -0.44 5000025.4453
19.467180000000003 4.42 -0.44 5000025.4453
28.590239999999998 4.18 -0.44 5000040.6504
28.590239999999998 4.16 -0.44 5000040.6504
38.9826 3.74 -0.44 5000057.971
12.63288 0.8 -0.44 5000014.0548
34.65684 -1.06 -0.44 5000050.7614
34.65684 -1.08 -0.44 5000050.7614
34.65684 -1.1 -0.44 5000050.7614
24.53898 -1.16 -0.44 5000033.8983
13.25658 -4.92 -0.44 5000015.0943
13.25658 -4.94 -0.44 5000015.0943
12.3522 -5.44 -0.44 5000013.587
12.3522 -5.46 -0.44 5000013.587
12.08952 -5.66 -0.44 5000013.1492
12.08952 -5.68 -0.44 5000013.1492
12.08952 -6.62 -0.44 5000013.1492
28.590239999999998 5.4 -0.46 5000040.6504
19.467180000000003 4.72 -0.46 5000025.4453
19.467180000000003 4.42 -0.46 5000025.4453
28.590239999999998 4.18 -0.46 5000040.6504
28.590239999999998 4.16 -0.46 5000040.6504
38.9826 3.74 -0.46 5000057.971
12.63288 0.8 -0.46 5000014.0548
34.65684 -1.06 -0.46 5000050.7614
34.65684 -1.08 -0.46 5000050.7614
34.65684 -1.1 -0.46 5000050.7614
31.28802 -1.14 -0.46 5000045.1467
13.6044 -4.66 -0.46 5000015.674
13.979940000000001 -4.68 -0.46 5000016.2999
12.08952 -5.66 -0.46 5000013.1492
12.08952 -5.68 -0.46 5000013.1492
12.08952 -6.72 -0.46 5000013.1492
28.590239999999998 5.4 -0.48 5000040.6504
19.467180000000003 4.72 -0.48 5000025.4453
19.467180000000003 4.42 -0.48 5000025.4453
28.590239999999998 4.18 -0.48 5000040.6504
38.9826 3.74 -0.48 5000057.971
64.806 1.3 -0.48 5000101.01
13.6044 -4.74 -0.48 5000015.674
28.590239999999998 5.4 -0.5 5000040.6504
19.467180000000003 4.7 -0.5 5000025.4453
19.467180000000003 4.42 -0.5 5000025.4453
28.590239999999998 4.18 -0.5 5000040.6504
28.590239999999998 4.16 -0.5 5000040.6504
38.9826 3.74 -0.5 5000057.971
14.386740000000001 -4.52 -0.5 5000016.9779
13.979940000000001 -4.54 -0.5 5000016.2999
13.25658 -4.58 -0.5 5000015.0943
12.933599999999998 -4.6 -0.5 5000014.556
13.25658 -4.62 -0.5 5000015.0943
12.08952 -5.54 -0.5 5000013.1492
12.08952 -6.66 -0.5 5000013.1492
28.590239999999998 5.4 -0.52 5000040.6504
19.467180000000003 4.7 -0.52 5000025.4453
19.467180000000003 4.42 -0.52 5000025.4453
28.590239999999998 4.18 -0.52 5000040.6504
28.590239999999998 4.16 -0.52 5000040.6504
14.386740000000001 -4.5 -0.52 5000016.9779
14.386740000000001 -4.52 -0.52 5000016.9779
12.08952 -5.54 -0.52 5000013.1492
12.08952 -5.68 -0.52 5000013.1492
26.38116 5.86 -0.54 5000036.9686
28.590239999999998 5.4 -0.54 5000040.6504
19.467180000000003 4.7 -0.54 5000025.4453
19.467180000000003 4.42 -0.54 5000025.4453
28.590239999999998 4.18 -0.54 5000040.6504
28.590239999999998 4.16 -0.54 5000040.6504
26.38116 2.54 -0.54 5000036.9686
12.08952 -5.54 -0.54 5000013.1492
12.08952 -5.68 -0.54 5000013.1492
12.08952 -6.14 -0.54 5000013.1492
12.08952 -6.16 -0.54 5000013.1492
26.38116 5.66 -0.56 5000036.9686
28.590239999999998 5.4 -0.56 5000040.6504
19.467180000000003 4.7 -0.56 5000025.4453
19.467180000000003 4.42 -0.56 5000025.4453
28.590239999999998 4.16 -0.56 5000040.6504
26.38116 2.38 -0.56 5000036.9686
12.08952 -5.68 -0.56 5000013.1492
26.38116 5.66 -0.58 5000036.9686
28.590239999999998 5.4 -0.58 5000040.6504
19.467180000000003 4.7 -0.58 5000025.4453
19.467180000000003 4.42 -0.58 5000025.4453
19.467180000000003 4.4 -0.58 5000025.4453
28.590239999999998 4.16 -0.58 5000040.6504
14.386740000000001 -4.46 -0.58 5000016.9779
14.386740000000001 -4.48 -0.58 5000016.9779
12.08952 -5.54 -0.58 5000013.1492
12.08952 -5.56 -0.58 5000013.1492
12.08952 -5.58 -0.58 5000013.1492
12.08952 -5.68 -0.58 5000013.1492
26.38116 5.66 -0.6 5000036.9686
28.590239999999998 5.4 -0.6 5000040.6504
19.467180000000003 4.7 -0.6 5000025.4453
19.467180000000003 4.4 -0.6 5000025.4453
12.08952 -5.56 -0.6 5000013.1492
12.08952 -5.58 -0.6 5000013.1492
12.08952 -5.68 -0.6 5000013.1492
10.637759999999998 -6.7 -0.6 5000010.7296
10.637759999999998 -6.72 -0.6 5000010.7296
10.637759999999998 -6.74 -0.6 5000010.7296
28.590239999999998 5.4 -0.62 5000040.6504
19.467180000000003 4.7 -0.62 5000025.4453
12.08952 -5.94 -0.62 5000013.1492
12.08952 -5.96 -0.62 5000013.1492
10.472879999999998 -6.72 -0.62 5000010.4548
26.38116 5.66 -0.64 5000036.9686
14.386740000000001 -4.44 -0.64 5000016.9779
14.386740000000001 -4.46 -0.64 5000016.9779
12.08952 -5.94 -0.64 5000013.1492
12.08952 -5.96 -0.64 5000013.1492
12.08952 -6.48 -0.64 5000013.1492
12.08952 -6.5 -0.64 5000013.1492
10.472879999999998 -6.72 -0.64 5000010.4548
10.472879999999998 -6.74 -0.64 5000010.4548
26.38116 5.66 -0.66 5000036.9686
12.08952 -5.94 -0.66 5000013.1492
12.08952 -5.96 -0.66 5000013.1492
12.08952 -6.48 -0.66 5000013.1492
12.08952 -6.5 -0.66 5000013.1492
10.472879999999998 -6.74 -0.66 5000010.4548
26.38116 5.88 -0.68 5000036.9686
26.38116 5.66 -0.68 5000036.9686
19.467180000000003 4.3 -0.68 5000025.4453
12.08952 -6.46 -0.68 5000013.1492
12.08952 -6.48 -0.68 5000013.1492
20.4822 5.6 -0.7 5000027.137
18.57126 4.7 -0.7 5000023.9521
18.57126 4.68 -0.7 5000023.9521
20.4822 -3.96 -0.7 5000027.137
18.57126 4.7 -0.72 5000023.9521
19.467180000000003 4.34 -0.72 5000025.4453
13.979940000000001 -4.5 -0.72 5000016.2999
13.979940000000001 -4.52 -0.72 5000016.2999
20.4822 5.9 -0.74 5000027.137
20.4822 5.88 -0.74 5000027.137
20.4822 5.86 -0.74 5000027.137
20.4822 5.84 -0.74 5000027.137
19.467180000000003 4.44 -0.74 5000025.4453
19.467180000000003 4.32 -0.74 5000025.4453
20.4822 4.02 -0.74 5000027.137
13.979940000000001 -4.52 -0.74 5000016.2999
20.4822 5.88 -0.76 5000027.137
19.467180000000003 4.3 -0.76 5000025.4453
20.4822 4.0 -0.76 5000027.137
13.979940000000001 -4.44 -0.76 5000016.2999
20.4822 4.0 -0.78 5000027.137
12.63288 -5.18 -0.8 5000014.0548
12.3522 -5.2 -0.8 5000013.587
20.4822 3.94 -0.82 5000027.137
12.63288 -5.16 -0.82 5000014.0548
12.63288 -5.18 -0.82 5000014.0548
12.63288 -5.2 -0.82 5000014.0548
12.3522 -5.26 -0.82 5000013.587
12.3522 -5.28 -0.82 5000013.587
12.3522 -5.3 -0.82 5000013.587
10.811580000000001 -6.54 -0.82 5000011.0193
12.63288 -5.14 -0.84 5000014.0548
12.63288 -5.16 -0.84 5000014.0548
12.63288 -5.18 -0.84 5000014.0548
18.57126 5.0 -0.86 5000023.9521
12.63288 -5.14 -0.86 5000014.0548
12.63288 -5.16 -0.86 5000014.0548
10.811580000000001 -6.42 -0.86 5000011.0193
10.811580000000001 -6.44 -0.86 5000011.0193
12.63288 -5.12 -0.88 5000014.0548
12.63288 -5.14 -0.88 5000014.0548
12.63288 -5.16 -0.88 5000014.0548
12.63288 -5.12 -0.9 5000014.0548
12.63288 -5.14 -0.9 5000014.0548
12.63288 -5.16 -0.9 5000014.0548
12.3522 -5.64 -0.9 5000013.587
12.3522 -5.66 -0.9 5000013.587
12.63288 -5.14 -0.92 5000014.0548
11.18892 -6.18 -0.92 5000011.6482
10.995 -6.2 -0.92 5000011.325
10.811580000000001 -6.42 -0.92 5000011.0193
12.933599999999998 0.8 -0.94 5000014.556
12.63288 -5.14 -0.94 5000014.0548
11.61198 -6.08 -0.94 5000012.3533
11.394240000000002 -6.1 -0.94 5000011.9904
11.394240000000002 -6.12 -0.94 5000011.9904
11.18892 -6.14 -0.94 5000011.6482
11.18892 -6.16 -0.94 5000011.6482
11.18892 -6.18 -0.94 5000011.6482
12.933599999999998 0.8 -0.96 5000014.556
12.63288 -5.12 -0.96 5000014.0548
12.63288 -5.14 -0.96 5000014.0548
11.843340000000001 -5.2 -0.96 5000012.7389
13.25658 -5.98 -0.96 5000015.0943
11.394240000000002 -6.08 -0.96 5000011.9904
11.394240000000002 -6.1 -0.96 5000011.9904
11.394240000000002 -6.12 -0.96 5000011.9904
11.18892 -6.14 -0.96 5000011.6482
11.18892 -6.16 -0.96 5000011.6482
12.933599999999998 0.8 -0.98 5000014.556
11.843340000000001 -5.2 -0.98 5000012.7389
11.394240000000002 -6.1 -0.98 5000011.9904
11.394240000000002 -6.12 -0.98 5000011.9904
11.18892 -6.14 -0.98 5000011.6482
13.979940000000001 -4.54 -1.0 5000016.2999
13.979940000000001 -4.56 -1.0 5000016.2999
12.933599999999998 -4.62 -1.0 5000014.556
12.63288 -5.12 -1.0 5000014.0548
11.843340000000001 -5.18 -1.0 5000012.7389
11.843340000000001 -5.2 -1.0 5000012.7389
11.394240000000002 -6.1 -1.0 5000011.9904
11.394240000000002 -6.12 -1.0 5000011.9904
12.63288 -5.12 -1.02 5000014.0548
12.63288 -5.14 -1.02 5000014.0548
11.843340000000001 -5.2 -1.02 5000012.7389
11.394240000000002 -6.1 -1.02 5000011.9904
11.394240000000002 -6.12 -1.02 5000011.9904
12.3522 -5.28 -1.04 5000013.587
12.3522 -5.3 -1.04 5000013.587
12.3522 -5.32 -1.04 5000013.587
11.394240000000002 -6.1 -1.04 5000011.9904
12.3522 -5.28 -1.06 5000013.587
12.3522 -5.3 -1.06 5000013.587
11.394240000000002 -6.1 -1.06 5000011.9904
14.386740000000001 -4.44 -1.08 5000016.9779
14.386740000000001 -4.46 -1.08 5000016.9779
13.979940000000001 -4.68 -1.08 5000016.2999
13.979940000000001 -4.7 -1.08 5000016.2999
13.25658 -5.92 -1.08 5000015.0943
13.25658 -5.94 -1.08 5000015.0943
12.933599999999998 -5.96 -1.08 5000014.556
12.63288 -5.98 -1.08 5000014.0548
12.3522 -6.0 -1.08 5000013.587
11.843340000000001 -6.02 -1.08 5000012.7389
11.843340000000001 -6.04 -1.08 5000012.7389
11.394240000000002 -6.06 -1.08 5000011.9904
11.394240000000002 -6.08 -1.08 5000011.9904
11.394240000000002 -6.1 -1.08 5000011.9904
11.394240000000002 -6.12 -1.08 5000011.9904
11.18892 -6.14 -1.08 5000011.6482
11.843340000000001 -6.04 -1.1 5000012.7389
11.61198 -6.06 -1.1 5000012.3533
11.394240000000002 -6.08 -1.1 5000011.9904
11.394240000000002 -6.1 -1.1 5000011.9904
12.3522 -5.32 -1.12 5000013.587
12.3522 -5.34 -1.12 5000013.587
10.995 -6.26 -1.12 5000011.325
12.3522 -5.32 -1.14 5000013.587
12.3522 -5.34 -1.14 5000013.587
13.6044 -4.76 -1.16 5000015.674
13.6044 -4.78 -1.16 5000015.674
13.25658 -4.82 -1.16 5000015.0943
13.6044 -4.84 -1.16 5000015.674
12.3522 -5.32 -1.16 5000013.587
12.3522 -5.34 -1.16 5000013.587
12.63288 -5.16 -1.18 5000014.0548
11.18892 -6.2 -1.18 5000011.6482
11.394240000000002 -6.22 -1.18 5000011.9904
10.995 -6.34 -1.18 5000011.325
10.995 -6.36 -1.18 5000011.325
11.394240000000002 -6.22 -1.2 5000011.9904
11.18892 -6.26 -1.2 5000011.6482
11.394240000000002 -6.28 -1.2 5000011.9904
10.995 -6.34 -1.2 5000011.325
10.995 -6.36 -1.2 5000011.325
12.63288 -5.18 -1.22 5000014.0548
12.3522 -5.3 -1.22 5000013.587
12.3522 -5.32 -1.22 5000013.587
10.995 -6.34 -1.22 5000011.325
10.995 -6.36 -1.22 5000011.325
12.3522 -5.3 -1.24 5000013.587
11.18892 -6.14 -1.26 5000011.6482
11.18892 -6.16 -1.26 5000011.6482
11.18892 -6.14 -1.28 5000011.6482
11.18892 -6.32 -1.28 5000011.6482
11.18892 -6.34 -1.28 5000011.6482
11.18892 -6.3 -1.3 5000011.6482
10.995 -6.32 -1.3 5000011.325
10.995 -6.34 -1.3 5000011.325
10.995 -6.36 -1.3 5000011.325
10.995 -6.32 -1.32 5000011.325
10.995 -6.34 -1.32 5000011.325
13.25658 3.36 -1.34 5000015.0943
13.25658 3.34 -1.34 5000015.0943
13.25658 3.32 -1.34 5000015.0943
10.995 -6.34 -1.34 5000011.325
13.6044 5.54 -1.36 5000015.674
13.6044 5.52 -1.36 5000015.674
10.995 -6.34 -1.36 5000011.325
10.995 -6.36 -1.36 5000011.325
10.995 -6.34 -1.38 5000011.325
10.995 -6.36 -1.38 5000011.325
10.995 -6.34 -1.4 5000011.325
11.18892 -6.24 -1.42 5000011.6482
11.18892 -6.26 -1.42 5000011.6482
11.18892 -6.24 -1.44 5000011.6482
11.18892 1.48 -1.46 5000011.6482
11.61198 1.18 -1.46 5000012.3533
10.995 -6.54 -1.46 5000011.325
10.995 -6.56 -1.46 5000011.325
11.18892 1.46 -1.48 5000011.6482
11.18892 1.44 -1.48 5000011.6482
11.18892 -6.16 -1.48 5000011.6482
11.18892 -6.18 -1.48 5000011.6482
10.995 -6.54 -1.48 5000011.325
11.18892 -6.18 -1.52 5000011.6482
11.18892 -6.2 -1.52 5000011.6482
11.18892 -5.74 -1.54 5000011.6482
10.995 1.98 -1.58 5000011.325
10.472879999999998 1.34 -1.62 5000010.4548
10.811580000000001 -5.6 -1.62 5000011.0193
10.811580000000001 -5.62 -1.62 5000011.0193
10.811580000000001 -5.64 -1.62 5000011.0193
10.472879999999998 1.52 -1.66 5000010.4548
10.472879999999998 1.5 -1.66 5000010.4548
10.316220000000001 1.76 -1.68 5000010.1937
10.472879999999998 1.5 -1.68 5000010.4548
10.472879999999998 -6.62 -1.68 5000010.4548
10.472879999999998 -6.62 -1.7 5000010.4548
10.025244 2.26 -1.78 5000009.70874
9.889902000000001 1.84 -1.78 5000009.48317
10.472879999999998 0.88 -1.78 5000010.4548
10.472879999999998 0.86 -1.78 5000010.4548
10.025244 2.58 -1.8 5000009.70874
9.889902000000001 1.88 -1.8 5000009.48317
9.760704 1.9 -1.82 5000009.26784
9.889902000000001 1.88 -1.82 5000009.48317
9.889902000000001 1.86 -1.82 5000009.48317
9.760704 1.86 -1.84 5000009.26784
10.025244 -6.44 -1.84 5000009.70874
10.025244 -6.46 -1.84 5000009.70874
10.025244 -6.48 -1.84 5000009.70874
10.025244 -6.46 -1.86 5000009.70874
10.025244 -6.48 -1.86 5000009.70874
9.51915 2.9 -1.88 5000008.86525
9.51915 2.9 -1.9 5000008.86525
9.51915 2.88 -1.9 5000008.86525
9.51915 3.08 -1.92 5000008.86525
9.51915 2.82 -1.94 5000008.86525
9.637241999999999 -6.66 -1.96 5000009.06207
9.637241999999999 -6.68 -1.96 5000009.06207
9.637241999999999 -6.7 -1.96 5000009.06207
9.637241999999999 -6.62 -1.98 5000009.06207
9.637241999999999 -6.64 -1.98 5000009.06207
9.193757999999999 2.76 -2.0 5000008.32293
9.193757999999999 2.1 -2.0 5000008.32293
9.193757999999999 2.1 -2.02 5000008.32293
9.093966 2.62 -2.04 5000008.15661
9.760704 1.04 -2.04 5000009.26784
9.093966 3.14 -2.06 5000008.15661
9.093966 3.12 -2.06 5000008.15661
9.093966 3.1 -2.06 5000008.15661
8.99808 3.0 -2.06 5000007.9968
9.193757999999999 1.96 -2.06 5000008.32293
9.193757999999999 1.94 -2.06 5000008.32293
9.406074 -6.44 -2.06 5000008.67679
9.093966 3.1 -2.08 5000008.15661
8.99808 2.42 -2.08 5000007.9968
9.093966 1.52 -2.08 5000008.15661
8.64939 2.24 -2.1 5000007.41565
9.093966 1.8 -2.1 5000008.15661
9.093966 1.52 -2.1 5000008.15661
9.093966 1.5 -2.1 5000008.15661
8.99808 2.06 -2.12 5000007.9968
8.99808 2.04 -2.12 5000007.9968
9.406074 1.16 -2.12 5000008.67679
8.905884 3.24 -2.14 5000007.84314
8.817162000000001 2.52 -2.14 5000007.69527
8.817162000000001 2.5 -2.14 5000007.69527
8.817162000000001 3.3 -2.16 5000007.69527
8.817162000000001 2.5 -2.16 5000007.69527
8.905884 1.86 -2.16 5000007.84314
8.905884 1.84 -2.16 5000007.84314
8.817162000000001 2.48 -2.18 5000007.69527
9.193757999999999 1.24 -2.18 5000008.32293
9.193757999999999 1.22 -2.18 5000008.32293
9.193757999999999 1.12 -2.18 5000008.32293
8.731722000000001 3.4 -2.2 5000007.55287
8.731722000000001 2.98 -2.2 5000007.55287
9.193757999999999 -4.1 -2.2 5000008.32293
8.817162000000001 -4.3 -2.2 5000007.69527
8.731722000000001 2.1 -2.22 5000007.55287
8.817162000000001 1.62 -2.22 5000007.69527
9.193757999999999 -4.1 -2.22 5000008.32293
9.193757999999999 -4.12 -2.22 5000008.32293
9.193757999999999 -4.14 -2.22 5000008.32293
9.193757999999999 -4.16 -2.22 5000008.32293
9.193757999999999 -4.18 -2.22 5000008.32293
9.193757999999999 -4.2 -2.22 5000008.32293
9.193757999999999 -4.22 -2.22 5000008.32293
9.193757999999999 -4.24 -2.22 5000008.32293
8.99808 -4.26 -2.22 5000007.9968
8.99808 -4.28 -2.22 5000007.9968
8.817162000000001 -4.3 -2.22 5000007.69527
8.817162000000001 -4.32 -2.22 5000007.69527
8.64939 2.18 -2.24 5000007.41565
8.64939 1.92 -2.24 5000007.41565
8.64939 1.9 -2.24 5000007.41565
8.99808 1.22 -2.24 5000007.9968
9.193757999999999 -4.14 -2.24 5000008.32293
9.193757999999999 -4.16 -2.24 5000008.32293
9.193757999999999 -4.18 -2.24 5000008.32293
9.193757999999999 -4.2 -2.24 5000008.32293
9.193757999999999 -4.22 -2.24 5000008.32293
8.99808 -4.28 -2.24 5000007.9968
8.817162000000001 -4.3 -2.24 5000007.69527
8.817162000000001 -4.32 -2.24 5000007.69527
8.817162000000001 -4.34 -2.24 5000007.69527
8.569992 3.8 -2.26 5000007.28332
8.64939 1.9 -2.26 5000007.41565
8.64939 1.84 -2.26 5000007.41565
8.493384 3.88 -2.28 5000007.15564
8.493384 3.86 -2.28 5000007.15564
8.569992 3.78 -2.28 5000007.28332
8.731722000000001 1.82 -2.28 5000007.55287
8.99808 1.26 -2.28 5000007.9968
8.99808 1.24 -2.28 5000007.9968
8.493384 3.86 -2.3 5000007.15564
8.64939 1.88 -2.3 5000007.41565
8.419410000000001 2.64 -2.32 5000007.03235
8.419410000000001 2.64 -2.34 5000007.03235
8.569992 1.76 -2.36 5000007.28332
8.347944 2.78 -2.38 5000006.91324
8.212038 2.96 -2.4 5000006.68673
8.347944 2.64 -2.4 5000006.91324
8.347944 2.62 -2.4 5000006.91324
8.347944 2.6 -2.4 5000006.91324
8.419410000000001 1.88 -2.4 5000007.03235
8.212038 3.32 -2.42 5000006.68673
8.27886 2.7 -2.42 5000006.7981
8.347944 2.6 -2.42 5000006.91324
8.731722000000001 2.78 -2.44 5000007.55287
8.27886 2.7 -2.44 5000006.7981
8.212038 2.68 -2.44 5000006.68673
8.27886 2.66 -2.44 5000006.7981
8.212038 3.76 -2.46 5000006.68673
8.212038 3.74 -2.46 5000006.68673
8.731722000000001 2.8 -2.46 5000007.55287
8.084754 4.6 -2.5 5000006.47459
8.147369999999999 3.02 -2.5 5000006.57895
8.147369999999999 2.7 -2.5 5000006.57895
8.147369999999999 2.68 -2.5 5000006.57895
8.084754 4.6 -2.52 5000006.47459
8.024094 2.86 -2.54 5000006.37349
8.084754 2.64 -2.56 5000006.47459
8.024094 2.92 -2.58 5000006.37349
8.024094 2.9 -2.58 5000006.37349
8.024094 2.5 -2.58 5000006.37349
7.8529680000000015 4.56 -2.6 5000006.08828
7.965294 3.84 -2.6 5000006.27549
7.965294 3.06 -2.6 5000006.27549
7.965294 3.04 -2.6 5000006.27549
8.084754 2.68 -2.6 5000006.47459
8.024094 2.54 -2.6 5000006.37349
8.024094 2.52 -2.6 5000006.37349
7.8529680000000015 4.64 -2.62 5000006.08828
7.8529680000000015 4.62 -2.62 5000006.08828
7.8529680000000015 3.28 -2.62 5000006.08828
7.965294 3.04 -2.62 5000006.27549
8.084754 2.22 -2.62 5000006.47459
7.965294 4.96 -2.64 5000006.27549
7.8529680000000015 4.62 -2.64 5000006.08828
7.8529680000000015 4.6 -2.64 5000006.08828
7.7992799999999995 3.16 -2.64 5000005.9988
7.965294 3.04 -2.64 5000006.27549
8.024094 2.58 -2.64 5000006.37349
7.8529680000000015 4.6 -2.66 5000006.08828
7.908282 3.76 -2.66 5000006.18047
7.908282 3.76 -2.68 5000006.18047
7.8529680000000015 3.42 -2.68 5000006.08828
7.7992799999999995 3.36 -2.68 5000005.9988
7.8529680000000015 3.04 -2.68 5000006.08828
7.8529680000000015 3.02 -2.68 5000006.08828
7.8529680000000015 3.0 -2.68 5000006.08828
8.147369999999999 -5.92 -2.68 5000006.57895
8.147369999999999 -5.94 -2.68 5000006.57895
8.147369999999999 -5.96 -2.68 5000006.57895
7.7992799999999995 4.48 -2.7 5000005.9988
7.747145999999999 4.02 -2.7 5000005.91191
7.8529680000000015 3.42 -2.7 5000006.08828
7.7992799999999995 3.36 -2.7 5000005.9988
7.8529680000000015 3.02 -2.7 5000006.08828
7.8529680000000015 3.0 -2.7 5000006.08828
8.024094 2.2 -2.7 5000006.37349
7.7992799999999995 4.48 -2.72 5000005.9988
7.7992799999999995 4.46 -2.72 5000005.9988
7.8529680000000015 3.0 -2.72 5000006.08828
8.024094 2.18 -2.72 5000006.37349
7.7992799999999995 4.48 -2.74 5000005.9988
7.7992799999999995 4.46 -2.74 5000005.9988
7.7992799999999995 4.44 -2.74 5000005.9988
7.8529680000000015 2.4 -2.74 5000006.08828
8.212038 0.94 -2.74 5000006.68673
7.7992799999999995 4.48 -2.76 5000005.9988
7.8529680000000015 2.72 -2.76 5000006.08828
7.8529680000000015 2.38 -2.76 5000006.08828
7.8529680000000015 2.36 -2.76 5000006.08828
7.696506 5.34 -2.78 5000005.82751
7.696506 4.56 -2.78 5000005.82751
7.7992799999999995 2.48 -2.78 5000005.9988
7.696506 2.94 -2.8 5000005.82751
7.696506 2.92 -2.8 5000005.82751
7.7992799999999995 2.46 -2.8 5000005.9988
7.747145999999999 3.02 -2.82 5000005.91191
7.696506 2.92 -2.82 5000005.82751
7.696506 2.9 -2.82 5000005.82751
7.6472880000000005 5.06 -2.84 5000005.74548
7.552889999999999 4.4 -2.84 5000005.58815
7.552889999999999 4.38 -2.84 5000005.58815
7.599432 3.16 -2.84 5000005.66572
7.747145999999999 3.02 -2.84 5000005.91191
7.696506 3.0 -2.84 5000005.82751
7.696506 2.9 -2.84 5000005.82751
7.696506 2.88 -2.84 5000005.82751
7.965294 1.92 -2.84 5000006.27549
8.024094 1.76 -2.84 5000006.37349
7.552889999999999 4.4 -2.86 5000005.58815
7.552889999999999 4.38 -2.86 5000005.58815
7.552889999999999 4.34 -2.86 5000005.58815
7.507607999999999 4.32 -2.86 5000005.51268
7.552889999999999 4.02 -2.86 5000005.58815
7.747145999999999 3.02 -2.86 5000005.91191
7.696506 3.0 -2.86 5000005.82751
7.696506 2.98 -2.86 5000005.82751
7.6472880000000005 2.96 -2.86 5000005.74548
7.696506 2.44 -2.86 5000005.82751
7.908282 1.92 -2.86 5000006.18047
7.965294 1.82 -2.86 5000006.27549
7.552889999999999 4.34 -2.88 5000005.58815
7.507607999999999 4.32 -2.88 5000005.51268
7.552889999999999 4.02 -2.88 5000005.58815
7.599432 3.64 -2.88 5000005.66572
7.599432 3.56 -2.88 5000005.66572
7.599432 3.24 -2.88 5000005.66572
7.696506 2.98 -2.88 5000005.82751
7.6472880000000005 2.96 -2.88 5000005.74548
7.6472880000000005 2.94 -2.88 5000005.74548
7.185072 2.78 -2.88 5000004.97512
7.696506 2.36 -2.88 5000005.82751
7.965294 1.8 -2.88 5000006.27549
7.552889999999999 4.0 -2.9 5000005.58815
7.599432 3.56 -2.9 5000005.66572
7.599432 3.54 -2.9 5000005.66572
7.6472880000000005 2.94 -2.9 5000005.74548
7.908282 1.96 -2.9 5000006.18047
7.908282 1.86 -2.9 5000006.18047
7.965294 1.84 -2.9 5000006.27549
7.552889999999999 3.72 -2.92 5000005.58815
7.599432 3.54 -2.92 5000005.66572
7.599432 3.38 -2.92 5000005.66572
7.599432 3.36 -2.92 5000005.66572
7.908282 1.84 -2.92 5000006.18047
7.908282 1.82 -2.92 5000006.18047
7.463532 4.58 -2.94 5000005.43922
7.463532 4.34 -2.94 5000005.43922
7.552889999999999 3.72 -2.94 5000005.58815
7.507607999999999 3.7 -2.94 5000005.51268
7.507607999999999 3.68 -2.94 5000005.51268
7.599432 3.52 -2.94 5000005.66572
7.599432 3.36 -2.94 5000005.66572
7.599432 3.34 -2.94 5000005.66572
7.965294 0.4 -2.94 5000006.27549
7.965294 0.38 -2.94 5000006.27549
7.463532 5.18 -2.96 5000005.43922
7.463532 4.58 -2.96 5000005.43922
7.463532 4.46 -2.96 5000005.43922
7.463532 4.44 -2.96 5000005.43922
7.507607999999999 3.68 -2.96 5000005.51268
7.507607999999999 3.66 -2.96 5000005.51268
7.507607999999999 3.46 -2.96 5000005.51268
7.463532 5.18 -2.98 5000005.43922
7.463532 5.16 -2.98 5000005.43922
7.463532 4.58 -2.98 5000005.43922
7.463532 4.56 -2.98 5000005.43922
7.463532 4.46 -2.98 5000005.43922
7.463532 4.44 -2.98 5000005.43922
7.463532 4.22 -2.98 5000005.43922
7.463532 3.68 -2.98 5000005.43922
7.463532 3.66 -2.98 5000005.43922
7.420614 3.62 -2.98 5000005.36769
7.507607999999999 3.46 -2.98 5000005.51268
7.463532 5.16 -3.0 5000005.43922
7.463532 5.14 -3.0 5000005.43922
7.463532 4.56 -3.0 5000005.43922
7.463532 4.44 -3.0 5000005.43922
7.463532 4.2 -3.0 5000005.43922
7.463532 3.66 -3.0 5000005.43922
7.507607999999999 2.98 -3.0 5000005.51268
7.378806 5.02 -3.02 5000005.29801
7.420614 4.0 -3.02 5000005.36769
7.420614 3.66 -3.02 5000005.36769
7.507607999999999 2.3 -3.02 5000005.51268
7.507607999999999 2.28 -3.02 5000005.51268
7.378806 5.02 -3.04 5000005.29801
7.378806 5.0 -3.04 5000005.29801
7.463532 4.86 -3.04 5000005.43922
7.463532 4.84 -3.04 5000005.43922
7.338077999999999 4.74 -3.04 5000005.23013
7.420614 4.06 -3.04 5000005.36769
7.420614 4.0 -3.04 5000005.36769
7.507607999999999 2.28 -3.04 5000005.51268
7.378806 4.96 -3.06 5000005.29801
7.338077999999999 4.78 -3.06 5000005.23013
7.463532 4.6 -3.06 5000005.43922
7.420614 4.58 -3.06 5000005.36769
7.378806 4.54 -3.06 5000005.29801
7.420614 4.02 -3.06 5000005.36769
7.420614 4.0 -3.06 5000005.36769
7.378806 3.66 -3.06 5000005.29801
7.378806 3.38 -3.06 5000005.29801
7.378806 3.3 -3.06 5000005.29801
7.507607999999999 2.38 -3.06 5000005.51268
7.552889999999999 2.36 -3.06 5000005.58815
7.552889999999999 2.34 -3.06 5000005.58815
7.338077999999999 4.76 -3.08 5000005.23013
7.338077999999999 4.66 -3.08 5000005.23013
7.338077999999999 4.54 -3.08 5000005.23013
7.338077999999999 4.52 -3.08 5000005.23013
7.338077999999999 4.28 -3.08 5000005.23013
7.338077999999999 4.26 -3.08 5000005.23013
7.338077999999999 4.12 -3.08 5000005.23013
7.338077999999999 4.1 -3.08 5000005.23013
7.420614 4.0 -3.08 5000005.36769
7.420614 3.98 -3.08 5000005.36769
7.378806 3.66 -3.08 5000005.29801
7.338077999999999 3.64 -3.08 5000005.23013
7.338077999999999 3.62 -3.08 5000005.23013
7.378806 3.3 -3.08 5000005.29801
7.378806 3.28 -3.08 5000005.29801
7.463532 3.04 -3.08 5000005.43922
7.463532 2.86 -3.08 5000005.43922
7.338077999999999 4.52 -3.1 5000005.23013
7.338077999999999 4.5 -3.1 5000005.23013
7.338077999999999 4.26 -3.1 5000005.23013
7.338077999999999 4.12 -3.1 5000005.23013
7.338077999999999 4.1 -3.1 5000005.23013
7.338077999999999 4.08 -3.1 5000005.23013
7.298376 3.74 -3.1 5000005.16396
7.338077999999999 3.64 -3.1 5000005.23013
7.338077999999999 3.62 -3.1 5000005.23013
7.338077999999999 3.6 -3.1 5000005.23013
7.463532 2.84 -3.1 5000005.43922
7.507607999999999 2.32 -3.1 5000005.51268
7.338077999999999 4.52 -3.12 5000005.23013
7.338077999999999 4.12 -3.12 5000005.23013
7.338077999999999 4.1 -3.12 5000005.23013
7.338077999999999 4.08 -3.12 5000005.23013
7.338077999999999 4.06 -3.12 5000005.23013
7.338077999999999 3.8 -3.12 5000005.23013
7.420614 2.72 -3.12 5000005.36769
7.552889999999999 2.3 -3.12 5000005.58815
7.298376 3.94 -3.14 5000005.16396
7.298376 3.78 -3.14 5000005.16396
7.298376 3.42 -3.14 5000005.16396
7.420614 2.72 -3.14 5000005.36769
7.552889999999999 2.3 -3.14 5000005.58815
7.221906000000001 5.34 -3.16 5000005.03651
7.259664000000001 4.92 -3.16 5000005.09944
7.259664000000001 4.54 -3.16 5000005.09944
7.298376 4.22 -3.16 5000005.16396
7.298376 3.94 -3.16 5000005.16396
7.298376 3.92 -3.16 5000005.16396
7.298376 3.72 -3.16 5000005.16396
7.420614 2.72 -3.16 5000005.36769
7.507607999999999 2.3 -3.16 5000005.51268
7.259664000000001 4.52 -3.18 5000005.09944
7.221906000000001 5.16 -3.2 5000005.03651
7.185072 4.86 -3.2 5000004.97512
7.6472880000000005 4.78 -3.2 5000005.74548
7.221906000000001 4.66 -3.2 5000005.03651
7.221906000000001 4.64 -3.2 5000005.03651
7.149126 4.3 -3.2 5000004.91521
7.185072 4.86 -3.22 5000004.97512
7.185072 4.84 -3.22 5000004.97512
7.221906000000001 4.72 -3.22 5000005.03651
7.221906000000001 4.66 -3.22 5000005.03651
7.221906000000001 4.64 -3.22 5000005.03651
7.221906000000001 4.5 -3.22 5000005.03651
7.185072 4.84 -3.24 5000004.97512
7.185072 4.82 -3.24 5000004.97512
7.221906000000001 4.72 -3.24 5000005.03651
7.221906000000001 4.7 -3.24 5000005.03651
7.221906000000001 4.68 -3.24 5000005.03651
7.013598 4.38 -3.24 5000004.68933
7.507607999999999 2.3 -3.24 5000005.51268
7.114037999999999 4.54 -3.26 5000004.85673
7.114037999999999 4.52 -3.26 5000004.85673
7.259664000000001 3.14 -3.26 5000005.09944
7.259664000000001 3.12 -3.26 5000005.09944
7.507607999999999 2.28 -3.26 5000005.51268
7.149126 4.94 -3.28 5000004.91521
7.149126 4.92 -3.28 5000004.91521
7.185072 4.64 -3.28 5000004.97512
7.114037999999999 4.3 -3.28 5000004.85673
7.185072 4.06 -3.28 5000004.97512
7.259664000000001 3.12 -3.28 5000005.09944
7.259664000000001 3.1 -3.28 5000005.09944
7.149126 4.92 -3.3 5000004.91521
7.114037999999999 4.28 -3.3 5000004.85673
7.079772 4.2 -3.3 5000004.79962
7.114037999999999 4.36 -3.32 5000004.85673
7.079772 4.28 -3.32 5000004.79962
7.079772 4.26 -3.32 5000004.79962
7.046298 4.18 -3.32 5000004.74383
7.259664000000001 3.94 -3.32 5000005.09944
7.079772 3.88 -3.32 5000004.79962
7.149126 3.64 -3.32 5000004.91521
7.420614 4.68 -3.34 5000005.36769
7.079772 4.28 -3.34 5000004.79962
7.079772 4.26 -3.34 5000004.79962
7.079772 4.24 -3.34 5000004.79962
7.079772 3.86 -3.34 5000004.79962
7.079772 3.84 -3.34 5000004.79962
7.079772 3.72 -3.34 5000004.79962
7.079772 3.7 -3.34 5000004.79962
7.114037999999999 3.28 -3.34 5000004.85673
7.079772 4.6 -3.36 5000004.79962
7.079772 4.26 -3.36 5000004.79962
7.079772 4.24 -3.36 5000004.79962
7.046298 4.22 -3.36 5000004.74383
7.259664000000001 3.98 -3.36 5000005.09944
7.079772 3.7 -3.36 5000004.79962
7.114037999999999 3.68 -3.36 5000004.85673
7.149126 3.38 -3.36 5000004.91521
7.378806 -5.62 -3.36 5000005.29801
7.378806 -5.64 -3.36 5000005.29801
7.378806 -5.66 -3.36 5000005.29801
7.298376 -5.86 -3.36 5000005.16396
7.298376 -5.88 -3.36 5000005.16396
7.298376 -5.9 -3.36 5000005.16396
7.046298 4.88 -3.38 5000004.74383
7.079772 4.8 -3.38 5000004.79962
7.079772 4.78 -3.38 5000004.79962
7.079772 4.6 -3.38 5000004.79962
7.079772 4.58 -3.38 5000004.79962
7.013598 4.14 -3.38 5000004.68933
7.046298 3.9 -3.38 5000004.74383
7.079772 3.68 -3.38 5000004.79962
7.149126 3.36 -3.38 5000004.91521
7.378806 -5.64 -3.38 5000005.29801
7.378806 -5.66 -3.38 5000005.29801
7.338077999999999 -5.68 -3.38 5000005.23013
7.298376 -5.7 -3.38 5000005.16396
7.259664000000001 -5.72 -3.38 5000005.09944
7.259664000000001 -5.74 -3.38 5000005.09944
7.259664000000001 -5.76 -3.38 5000005.09944
7.259664000000001 -5.78 -3.38 5000005.09944
7.298376 -5.82 -3.38 5000005.16396
7.298376 -5.84 -3.38 5000005.16396
7.298376 -5.86 -3.38 5000005.16396
7.298376 -5.88 -3.38 5000005.16396
7.298376 -5.9 -3.38 5000005.16396
7.298376 -5.92 -3.38 5000005.16396
7.259664000000001 -5.94 -3.38 5000005.09944
7.259664000000001 -5.96 -3.38 5000005.09944
7.259664000000001 -5.98 -3.38 5000005.09944
7.046298 4.86 -3.4 5000004.74383
7.079772 4.8 -3.4 5000004.79962
7.079772 4.78 -3.4 5000004.79962
7.079772 4.6 -3.4 5000004.79962
7.079772 4.58 -3.4 5000004.79962
7.013598 4.14 -3.4 5000004.68933
7.259664000000001 -5.98 -3.4 5000005.09944
7.046298 5.66 -3.42 5000004.74383
7.046298 5.64 -3.42 5000004.74383
7.079772 4.8 -3.42 5000004.79962
7.079772 4.82 -3.44 5000004.79962
7.079772 4.8 -3.44 5000004.79962
6.981642 4.68 -3.46 5000004.63607
