VERSION .7
FIELDS x y z rgb
SIZE 4 4 4 4
TYPE F F F F
COUNT 1 1 1 1
WIDTH 818
HEIGHT 1
VIEWPOINT 0 0 0 1 0 0 0
POINTS 818
DATA ascii
11.232286666666667 3.1333333333333333 2.2333333333333334 5000036.9686
11.232286666666667 2.6333333333333333 2.2333333333333334 5000036.9686
10.798403333333333 1.5666666666666667 2.2333333333333334 5000023.9521
10.798403333333333 1.0 2.2333333333333334 5000023.9521
10.411776666666666 -16.633333333333333 2.2333333333333334 5000012.3533
10.411776666666666 -16.666666666666668 2.2333333333333334 5000012.3533
11.232286666666667 3.1333333333333333 2.2 5000036.9686
11.232286666666667 3.066666666666667 2.2 5000036.9686
10.4529 -5.133333333333334 2.2 5000013.587
10.56593 -13.8 2.2 5000016.9779
10.56593 -13.833333333333334 2.2 5000016.9779
10.54333 -14.333333333333334 2.2 5000016.2999
10.54333 -14.366666666666667 2.2 5000016.2999
10.39968 -17.1 2.2 5000011.9904
10.39968 -17.133333333333333 2.2 5000011.9904
10.39968 -17.166666666666668 2.2 5000011.9904
11.232286666666667 3.1333333333333333 2.1666666666666665 5000036.9686
11.232286666666667 3.066666666666667 2.1666666666666665 5000036.9686
10.54333 -14.333333333333334 2.1666666666666665 5000016.2999
10.54333 -14.366666666666667 2.1666666666666665 5000016.2999
10.39968 -17.1 2.1666666666666665 5000011.9904
10.39968 -17.133333333333333 2.1666666666666665 5000011.9904
11.232286666666667 3.066666666666667 2.1333333333333333 5000036.9686
10.798403333333333 0.8666666666666667 2.1333333333333333 5000023.9521
10.968993333333334 2.1 2.1 5000029.0698
10.798403333333333 1.5666666666666667 2.1 5000023.9521
10.798403333333333 1.5333333333333334 2.1 5000023.9521
10.798403333333333 0.8666666666666667 2.1 5000023.9521
10.904566666666666 -13.4 2.1 5000027.137
10.904566666666666 2.466666666666667 2.066666666666667 5000027.137
10.798403333333333 1.5333333333333334 2.066666666666667 5000023.9521
10.798403333333333 0.9333333333333333 2.066666666666667 5000023.9521
10.798403333333333 0.9 2.033333333333333 5000023.9521
10.522466666666666 -14.333333333333334 2.033333333333333 5000015.674
10.522466666666666 -14.366666666666667 2.033333333333333 5000015.674
10.522466666666666 -14.466666666666667 2.033333333333333 5000015.674
10.522466666666666 -14.5 2.033333333333333 5000015.674
10.798403333333333 0.8666666666666667 2.0 5000023.9521
10.798403333333333 0.8333333333333334 2.0 5000023.9521
10.848176666666667 0.3333333333333333 2.0 5000025.4453
10.522466666666666 -14.366666666666667 2.0 5000015.674
10.848176666666667 0.3 1.9666666666666666 5000025.4453
10.848176666666667 0.23333333333333334 1.9 5000025.4453
10.438306666666668 -15.7 1.9 5000013.1492
10.438306666666668 -15.733333333333333 1.9 5000013.1492
10.438306666666668 -15.766666666666667 1.9 5000013.1492
10.42463 -15.8 1.9 5000012.7389
10.438306666666668 -15.7 1.8666666666666667 5000013.1492
10.438306666666668 -15.733333333333333 1.8666666666666667 5000013.1492
10.438306666666668 -15.766666666666667 1.8666666666666667 5000013.1492
10.438306666666668 -15.666666666666666 1.8333333333333333 5000013.1492
10.438306666666668 -15.7 1.8333333333333333 5000013.1492
10.438306666666668 -15.733333333333333 1.8333333333333333 5000013.1492
10.42463 -15.933333333333334 1.8333333333333333 5000012.7389
10.754146666666667 2.6 1.8 5000022.6244
10.754146666666667 2.1 1.8 5000022.6244
10.438306666666668 -15.666666666666666 1.8 5000013.1492
10.438306666666668 -15.7 1.8 5000013.1492
10.438306666666668 -15.633333333333333 1.7666666666666666 5000013.1492
10.438306666666668 -15.666666666666666 1.7666666666666666 5000013.1492
10.438306666666668 -15.7 1.7666666666666666 5000013.1492
10.71454 3.0 1.7333333333333334 5000021.4362
10.71454 2.8333333333333335 1.7333333333333334 5000021.4362
10.438306666666668 -15.633333333333333 1.7333333333333334 5000013.1492
10.438306666666668 -15.666666666666666 1.7333333333333334 5000013.1492
10.522466666666666 -14.533333333333333 1.7 5000015.674
10.438306666666668 -15.666666666666666 1.7 5000013.1492
10.411776666666666 -16.566666666666666 1.7 5000012.3533
10.411776666666666 -16.6 1.7 5000012.3533
10.411776666666666 -16.633333333333333 1.7 5000012.3533
10.4529 -5.1 1.6666666666666667 5000013.587
10.4529 -5.133333333333334 1.6666666666666667 5000013.587
10.438306666666668 -15.633333333333333 1.6666666666666667 5000013.1492
10.357653333333333 -17.6 1.6666666666666667 5000010.7296
10.357653333333333 -17.633333333333333 1.6666666666666667 5000010.7296
10.348493333333334 -17.666666666666668 1.6666666666666667 5000010.4548
10.4529 -5.1 1.6333333333333333 5000013.587
10.4529 -5.133333333333334 1.6333333333333333 5000013.587
10.617283333333333 -13.566666666666666 1.6333333333333333 5000018.5185
10.438306666666668 -15.633333333333333 1.6333333333333333 5000013.1492
10.438306666666668 -15.666666666666666 1.6333333333333333 5000013.1492
10.438306666666668 -17.266666666666666 1.6333333333333333 5000013.1492
10.438306666666668 -17.3 1.6333333333333333 5000013.1492
10.42463 -17.333333333333332 1.6333333333333333 5000012.7389
10.39968 -17.366666666666667 1.6333333333333333 5000011.9904
10.39968 -17.4 1.6333333333333333 5000011.9904
10.388273333333334 -17.433333333333334 1.6333333333333333 5000011.6482
10.3775 -17.466666666666665 1.6333333333333333 5000011.325
10.36731 -17.5 1.6333333333333333 5000011.0193
10.36731 -17.533333333333335 1.6333333333333333 5000011.0193
10.357653333333333 -17.566666666666666 1.6333333333333333 5000010.7296
10.357653333333333 -17.6 1.6333333333333333 5000010.7296
10.4529 -5.133333333333334 1.6 5000013.587
10.438306666666668 -15.633333333333333 1.6 5000013.1492
10.39968 -15.766666666666667 1.6 5000011.9904
10.39968 -17.4 1.6 5000011.9904
10.388273333333334 -17.433333333333334 1.6 5000011.6482
10.3775 -17.466666666666665 1.6 5000011.325
10.36731 -17.5 1.6 5000011.0193
10.36731 -17.533333333333335 1.6 5000011.0193
10.36731 -17.566666666666666 1.6 5000011.0193
10.357653333333333 -17.6 1.6 5000010.7296
10.503143333333334 -14.533333333333333 1.5666666666666667 5000015.0943
10.503143333333334 -14.566666666666666 1.5666666666666667 5000015.0943
10.438306666666668 -15.633333333333333 1.5666666666666667 5000013.1492
10.39968 -15.766666666666667 1.5666666666666667 5000011.9904
10.36731 -17.5 1.5666666666666667 5000011.0193
10.36731 -17.533333333333335 1.5666666666666667 5000011.0193
10.36731 -17.566666666666666 1.5666666666666667 5000011.0193
10.503143333333334 -14.566666666666666 1.5333333333333334 5000015.0943
10.503143333333334 -14.6 1.5333333333333334 5000015.0943
10.438306666666668 -15.633333333333333 1.5333333333333334 5000013.1492
10.39968 -15.766666666666667 1.5333333333333334 5000011.9904
10.36731 -17.5 1.5333333333333334 5000011.0193
10.438306666666668 -15.633333333333333 1.5 5000013.1492
10.42463 -15.966666666666667 1.5 5000012.7389
10.42463 -16.0 1.5 5000012.7389
10.42463 -15.933333333333334 1.4666666666666666 5000012.7389
10.42463 -15.966666666666667 1.4666666666666666 5000012.7389
10.42463 -16.0 1.4666666666666666 5000012.7389
10.36731 -17.466666666666665 1.4666666666666666 5000011.0193
10.36731 -17.5 1.4666666666666666 5000011.0193
10.64662 2.933333333333333 1.4333333333333333 5000019.3986
10.4529 -5.133333333333334 1.4333333333333333 5000013.587
10.522466666666666 -14.366666666666667 1.4333333333333333 5000015.674
10.42463 -15.933333333333334 1.4333333333333333 5000012.7389
10.36731 -17.466666666666665 1.4333333333333333 5000011.0193
10.36731 -17.5 1.4333333333333333 5000011.0193
10.54333 -12.166666666666666 1.4 5000016.2999
10.522466666666666 -14.366666666666667 1.4 5000015.674
10.522466666666666 -14.4 1.4 5000015.674
10.503143333333334 -14.8 1.4 5000015.0943
10.388273333333334 -17.366666666666667 1.4 5000011.6482
10.36731 -17.433333333333334 1.4 5000011.0193
10.36731 -17.466666666666665 1.4 5000011.0193
10.36731 -17.5 1.4 5000011.0193
10.438306666666668 -17.133333333333333 1.3666666666666667 5000013.1492
10.42463 -17.2 1.3666666666666667 5000012.7389
10.42463 -17.233333333333334 1.3666666666666667 5000012.7389
10.411776666666666 -17.266666666666666 1.3666666666666667 5000012.3533
10.39968 -17.3 1.3666666666666667 5000011.9904
10.39968 -17.333333333333332 1.3666666666666667 5000011.9904
10.388273333333334 -17.366666666666667 1.3666666666666667 5000011.6482
10.3775 -17.4 1.3666666666666667 5000011.325
10.36731 -17.433333333333334 1.3666666666666667 5000011.0193
10.36731 -17.466666666666665 1.3666666666666667 5000011.0193
10.36731 -17.5 1.3666666666666667 5000011.0193
10.411776666666666 -16.0 1.3333333333333333 5000012.3533
10.411776666666666 -16.033333333333335 1.3333333333333333 5000012.3533
10.39968 -16.7 1.3333333333333333 5000011.9904
10.39968 -16.733333333333334 1.3333333333333333 5000011.9904
10.388273333333334 -16.766666666666666 1.3333333333333333 5000011.6482
10.388273333333334 -16.8 1.3333333333333333 5000011.6482
10.388273333333334 -16.833333333333332 1.3333333333333333 5000011.6482
10.3775 -16.866666666666667 1.3333333333333333 5000011.325
10.357653333333333 -17.766666666666666 1.3333333333333333 5000010.7296
10.503143333333334 -14.9 1.3 5000015.0943
10.503143333333334 -14.933333333333334 1.3 5000015.0943
10.503143333333334 -14.966666666666667 1.3 5000015.0943
10.411776666666666 -16.0 1.3 5000012.3533
10.411776666666666 -16.033333333333335 1.3 5000012.3533
10.357653333333333 -17.766666666666666 1.3 5000010.7296
10.357653333333333 -17.8 1.3 5000010.7296
10.503143333333334 -14.933333333333334 1.2666666666666666 5000015.0943
10.503143333333334 -14.966666666666667 1.2666666666666666 5000015.0943
10.4852 -15.033333333333333 1.2666666666666666 5000014.556
10.503143333333334 -15.066666666666666 1.2666666666666666 5000015.0943
10.42463 -16.0 1.2666666666666666 5000012.7389
10.411776666666666 -16.033333333333335 1.2666666666666666 5000012.3533
10.411776666666666 -16.066666666666666 1.2666666666666666 5000012.3533
10.438306666666668 -15.7 1.2333333333333334 5000013.1492
10.348493333333334 -17.9 1.2333333333333334 5000010.4548
10.522466666666666 -12.1 1.2 5000015.674
10.42463 -15.933333333333334 1.2 5000012.7389
10.42463 -17.533333333333335 1.2 5000012.7389
10.42463 -17.566666666666666 1.2 5000012.7389
10.357653333333333 -17.666666666666668 1.2 5000010.7296
10.36731 -17.7 1.2 5000011.0193
10.522466666666666 -12.133333333333333 1.1666666666666667 5000015.674
10.503143333333334 -12.166666666666666 1.1666666666666667 5000015.0943
10.503143333333334 -12.2 1.1666666666666667 5000015.0943
10.503143333333334 -12.233333333333333 1.1666666666666667 5000015.0943
10.4852 -12.266666666666667 1.1666666666666667 5000014.556
10.438306666666668 -15.733333333333333 1.1666666666666667 5000013.1492
10.36731 -17.7 1.1666666666666667 5000011.0193
10.357653333333333 -17.766666666666666 1.1666666666666667 5000010.7296
10.36731 -17.8 1.1666666666666667 5000011.0193
10.36731 -17.833333333333332 1.1666666666666667 5000011.0193
10.438306666666668 -15.933333333333334 1.1333333333333333 5000013.1492
10.438306666666668 -15.966666666666667 1.1333333333333333 5000013.1492
10.438306666666668 -16.0 1.1333333333333333 5000013.1492
10.36731 -17.8 1.1333333333333333 5000011.0193
10.36731 -17.833333333333332 1.1333333333333333 5000011.0193
10.357653333333333 -17.566666666666666 1.0666666666666667 5000010.7296
10.357653333333333 -17.566666666666666 1.0333333333333334 5000010.7296
10.357653333333333 -17.9 1.0333333333333334 5000010.7296
10.36731 -17.8 1.0 5000011.0193
10.36731 -17.833333333333332 1.0 5000011.0193
10.357653333333333 -17.866666666666667 1.0 5000010.7296
10.357653333333333 -17.9 1.0 5000010.7296
10.357653333333333 -17.866666666666667 0.9666666666666667 5000010.7296
10.357653333333333 -17.9 0.9666666666666667 5000010.7296
10.468493333333333 -0.6 0.9333333333333333 5000014.0548
10.468493333333333 -0.6333333333333333 0.9333333333333333 5000014.0548
10.468493333333333 -0.6666666666666666 0.9333333333333333 5000014.0548
10.468493333333333 -0.7 0.9333333333333333 5000014.0548
10.3775 -17.733333333333334 0.9333333333333333 5000011.325
10.4852 3.2333333333333334 0.9 5000014.556
10.4852 3.2 0.9 5000014.556
10.357653333333333 -17.9 0.8 5000010.7296
10.357653333333333 -17.733333333333334 0.7666666666666667 5000010.7296
10.357653333333333 -17.766666666666666 0.7666666666666667 5000010.7296
10.357653333333333 -17.8 0.7666666666666667 5000010.7296
10.36731 -17.533333333333335 0.7333333333333333 5000011.0193
10.36731 -17.566666666666666 0.7333333333333333 5000011.0193
10.357653333333333 -17.766666666666666 0.7333333333333333 5000010.7296
10.3775 -3.8666666666666667 0.7 5000011.325
10.3775 -3.9 0.6666666666666666 5000011.325
10.3775 -3.933333333333333 0.6666666666666666 5000011.325
10.3775 -3.966666666666667 0.6666666666666666 5000011.325
10.36731 -4.433333333333334 0.6666666666666666 5000011.0193
10.357653333333333 -17.566666666666666 0.6666666666666666 5000010.7296
10.357653333333333 -17.6 0.6666666666666666 5000010.7296
10.357653333333333 -17.8 0.6666666666666666 5000010.7296
10.357653333333333 -17.833333333333332 0.6666666666666666 5000010.7296
10.357653333333333 -17.633333333333333 0.6 5000010.7296
10.357653333333333 -17.666666666666668 0.6 5000010.7296
10.357653333333333 -16.866666666666667 0.5666666666666667 5000010.7296
10.357653333333333 -17.666666666666668 0.5666666666666667 5000010.7296
10.357653333333333 -17.7 0.5666666666666667 5000010.7296
10.348493333333334 -2.933333333333333 0.4666666666666667 5000010.4548
10.33979 -2.8 0.43333333333333335 5000010.1937
10.33979 -4.7 0.43333333333333335 5000010.1937
10.348493333333334 -16.533333333333335 0.43333333333333335 5000010.4548
10.323624666666667 -4.066666666666666 0.4 5000009.70874
10.33979 -16.6 0.4 5000010.1937
10.33979 -16.633333333333333 0.4 5000010.1937
10.33979 -16.666666666666668 0.4 5000010.1937
10.33979 -16.7 0.4 5000010.1937
10.323624666666667 -4.1 0.36666666666666664 5000009.70874
10.323624666666667 -4.433333333333334 0.3333333333333333 5000009.70874
10.316105666666667 -3.7333333333333334 0.3 5000009.48317
10.316105666666667 -3.7666666666666666 0.3 5000009.48317
10.308928 -3.3 0.26666666666666666 5000009.26784
10.316105666666667 -3.7666666666666666 0.26666666666666666 5000009.48317
10.316105666666667 -3.8 0.26666666666666666 5000009.48317
10.308928 -4.366666666666666 0.16666666666666666 5000009.26784
10.316105666666667 -4.9 0.1 5000009.48317
10.295508333333334 -3.1333333333333333 0.06666666666666667 5000008.86525
10.316105666666667 -4.933333333333334 0.06666666666666667 5000009.48317
10.295508333333334 -1.7666666666666666 0.03333333333333333 5000008.86525
10.295508333333334 -1.8 0.03333333333333333 5000008.86525
10.289226333333334 -3.1333333333333333 0.03333333333333333 5000008.67679
10.283206 -3.033333333333333 0.0 5000008.49618
10.289226333333334 -4.1 0.0 5000008.67679
10.283206 -3.033333333333333 -0.03333333333333333 5000008.49618
10.289226333333334 -3.066666666666667 -0.03333333333333333 5000008.67679
10.277431 -3.6666666666666665 -0.06666666666666667 5000008.32293
10.271887 -1.1333333333333333 -0.13333333333333333 5000008.15661
10.271887 -3.2666666666666666 -0.13333333333333333 5000008.15661
10.271887 -1.1333333333333333 -0.16666666666666666 5000008.15661
10.271887 -1.1333333333333333 -0.2 5000008.15661
10.26656 -0.7666666666666667 -0.23333333333333334 5000007.9968
10.261438 -1.2666666666666666 -0.26666666666666666 5000007.84314
10.26656 -3.7666666666666666 -0.26666666666666666 5000007.9968
10.261438 -0.8666666666666667 -0.3 5000007.84314
10.261438 -0.9 -0.3 5000007.84314
10.247188333333334 -1.3333333333333333 -0.4 5000007.41565
10.247188333333334 -2.533333333333333 -0.4 5000007.41565
10.247188333333334 -2.566666666666667 -0.4 5000007.41565
10.247188333333334 -2.566666666666667 -0.43333333333333335 5000007.41565
10.247188333333334 -2.6 -0.43333333333333335 5000007.41565
10.277431 -4.566666666666666 -0.43333333333333335 5000008.32293
10.242777333333333 -1.2333333333333334 -0.4666666666666667 5000007.28332
10.238521333333333 -1.5666666666666667 -0.4666666666666667 5000007.15564
10.238521333333333 -1.5666666666666667 -0.5 5000007.15564
10.238521333333333 -1.6 -0.5 5000007.15564
10.247188333333334 -2.8333333333333335 -0.5 5000007.41565
10.234411666666666 -0.6666666666666666 -0.5333333333333333 5000007.03235
10.238521333333333 -1.9333333333333333 -0.5333333333333333 5000007.15564
10.242777333333333 -2.6 -0.5333333333333333 5000007.28332
10.247188333333334 -2.8333333333333335 -0.5333333333333333 5000007.41565
10.234411666666666 -0.6666666666666666 -0.5666666666666667 5000007.03235
10.238521333333333 -1.4333333333333333 -0.5666666666666667 5000007.15564
10.238521333333333 -1.9333333333333333 -0.5666666666666667 5000007.15564
10.226603333333333 -2.3333333333333335 -0.5666666666666667 5000006.7981
10.238521333333333 -3.6 -0.5666666666666667 5000007.15564
10.234411666666666 -0.7 -0.6 5000007.03235
10.226603333333333 -2.3333333333333335 -0.6 5000006.7981
10.234411666666666 -2.7333333333333334 -0.6 5000007.03235
10.238521333333333 -3.1 -0.6 5000007.15564
10.238521333333333 -3.6333333333333333 -0.6 5000007.15564
10.238521333333333 -3.6666666666666665 -0.6 5000007.15564
10.238521333333333 -3.7 -0.6 5000007.15564
10.256509 -4.333333333333333 -0.6 5000007.69527
10.256509 -4.366666666666666 -0.6 5000007.69527
10.234411666666666 -1.6 -0.6333333333333333 5000007.03235
10.234411666666666 -2.1666666666666665 -0.6333333333333333 5000007.03235
10.234411666666666 -2.2333333333333334 -0.6333333333333333 5000007.03235
10.230441333333333 -2.5 -0.6333333333333333 5000006.91324
10.234411666666666 -2.6333333333333333 -0.6333333333333333 5000007.03235
10.234411666666666 -2.6666666666666665 -0.6333333333333333 5000007.03235
10.238521333333333 -3.7 -0.6333333333333333 5000007.15564
10.256509 -4.366666666666666 -0.6333333333333333 5000007.69527
10.230441333333333 -0.36666666666666664 -0.6666666666666666 5000006.91324
10.234411666666666 -1.5 -0.6666666666666666 5000007.03235
10.234411666666666 -2.6333333333333333 -0.6666666666666666 5000007.03235
10.234411666666666 -2.6666666666666665 -0.6666666666666666 5000007.03235
10.230441333333333 -0.26666666666666666 -0.7 5000006.91324
10.230441333333333 -0.36666666666666664 -0.7 5000006.91324
10.230441333333333 -0.4 -0.7 5000006.91324
10.234411666666666 -1.5333333333333334 -0.7 5000007.03235
10.226603333333333 -1.7333333333333334 -0.7 5000006.7981
10.226603333333333 -1.7666666666666666 -0.7 5000006.7981
10.251762333333334 -4.366666666666666 -0.7 5000007.55287
10.226603333333333 0.13333333333333333 -0.7333333333333333 5000006.7981
10.230441333333333 -0.26666666666666666 -0.7333333333333333 5000006.91324
10.230441333333333 -0.3 -0.7333333333333333 5000006.91324
10.226603333333333 -1.7666666666666666 -0.7333333333333333 5000006.7981
10.226603333333333 -1.8 -0.7333333333333333 5000006.7981
10.226603333333333 -2.3 -0.7333333333333333 5000006.7981
10.222891 -2.966666666666667 -0.7333333333333333 5000006.68673
10.247188333333334 -4.2 -0.7333333333333333 5000007.41565
10.256509 -4.4 -0.7333333333333333 5000007.69527
10.226603333333333 0.1 -0.7666666666666667 5000006.7981
10.226603333333333 -1.8 -0.7666666666666667 5000006.7981
10.226603333333333 -2.2 -0.7666666666666667 5000006.7981
10.247188333333334 -14.166666666666666 -0.7666666666666667 5000007.41565
10.242777333333333 -14.433333333333334 -0.7666666666666667 5000007.28332
10.242777333333333 -14.466666666666667 -0.7666666666666667 5000007.28332
10.222891 -0.16666666666666666 -0.8 5000006.68673
10.222891 -0.2 -0.8 5000006.68673
10.226603333333333 -2.2333333333333334 -0.8 5000006.7981
10.230441333333333 -3.3666666666666667 -0.8 5000006.91324
10.251762333333334 -14.1 -0.8 5000007.55287
10.247188333333334 -14.133333333333333 -0.8 5000007.41565
10.247188333333334 -14.166666666666666 -0.8 5000007.41565
10.247188333333334 -14.2 -0.8 5000007.41565
10.247188333333334 -14.233333333333333 -0.8 5000007.41565
10.247188333333334 -14.266666666666667 -0.8 5000007.41565
10.247188333333334 -14.3 -0.8 5000007.41565
10.247188333333334 -14.333333333333334 -0.8 5000007.41565
10.247188333333334 -14.366666666666667 -0.8 5000007.41565
10.242777333333333 -14.4 -0.8 5000007.28332
10.242777333333333 -14.433333333333334 -0.8 5000007.28332
10.242777333333333 -14.466666666666667 -0.8 5000007.28332
10.238521333333333 -14.5 -0.8 5000007.15564
10.222891 -0.8333333333333334 -0.8333333333333334 5000006.68673
10.219298333333333 -1.4333333333333333 -0.8333333333333334 5000006.57895
10.230441333333333 -3.4 -0.8333333333333334 5000006.91324
10.230441333333333 -3.433333333333333 -0.8333333333333334 5000006.91324
10.226603333333333 -3.466666666666667 -0.8333333333333334 5000006.7981
10.247188333333334 -4.2 -0.8333333333333334 5000007.41565
10.247188333333334 -14.166666666666666 -0.8333333333333334 5000007.41565
10.247188333333334 -14.2 -0.8333333333333334 5000007.41565
10.247188333333334 -14.233333333333333 -0.8333333333333334 5000007.41565
10.247188333333334 -14.266666666666667 -0.8333333333333334 5000007.41565
10.247188333333334 -14.3 -0.8333333333333334 5000007.41565
10.247188333333334 -14.333333333333334 -0.8333333333333334 5000007.41565
10.247188333333334 -14.366666666666667 -0.8333333333333334 5000007.41565
10.242777333333333 -14.433333333333334 -0.8333333333333334 5000007.28332
10.242777333333333 -14.466666666666667 -0.8333333333333334 5000007.28332
10.238521333333333 -14.5 -0.8333333333333334 5000007.15564
10.230441333333333 -14.533333333333333 -0.8333333333333334 5000006.91324
10.226603333333333 -14.566666666666666 -0.8333333333333334 5000006.7981
10.222891 -0.5666666666666667 -0.8666666666666667 5000006.68673
10.219298333333333 -1.0333333333333334 -0.8666666666666667 5000006.57895
10.219298333333333 -1.0666666666666667 -0.8666666666666667 5000006.57895
10.222891 -2.5 -0.8666666666666667 5000006.68673
10.222891 -2.533333333333333 -0.8666666666666667 5000006.68673
10.222891 -2.7333333333333334 -0.8666666666666667 5000006.68673
10.219298333333333 0.0 -0.9 5000006.57895
10.219298333333333 -2.3333333333333335 -0.9 5000006.57895
10.219298333333333 -2.8666666666666667 -0.9 5000006.57895
10.242777333333333 -4.1 -0.9 5000007.28332
10.242777333333333 -4.133333333333334 -0.9 5000007.28332
10.219298333333333 -2.8666666666666667 -0.9333333333333333 5000006.57895
10.219298333333333 -3.0 -0.9333333333333333 5000006.57895
10.242777333333333 -4.133333333333334 -0.9333333333333333 5000007.28332
10.242777333333333 -4.166666666666667 -0.9333333333333333 5000007.28332
10.206015666666667 0.7666666666666667 -0.9666666666666667 5000006.18047
10.209183 0.5666666666666667 -0.9666666666666667 5000006.27549
10.219298333333333 -3.0 -0.9666666666666667 5000006.57895
10.219298333333333 -3.033333333333333 -0.9666666666666667 5000006.57895
10.206015666666667 0.9 -1.0 5000006.18047
10.209183 0.8666666666666667 -1.0 5000006.27549
10.197063666666667 1.0 -1.0333333333333334 5000005.91191
10.206015666666667 0.9666666666666667 -1.0333333333333334 5000006.18047
10.206015666666667 0.9 -1.0333333333333334 5000006.18047
10.209183 0.8666666666666667 -1.0333333333333334 5000006.27549
10.212449666666666 -2.3 -1.0666666666666667 5000006.37349
10.212449666666666 -2.966666666666667 -1.0666666666666667 5000006.37349
10.206015666666667 -1.4 -1.1 5000006.18047
10.206015666666667 -1.4333333333333333 -1.1 5000006.18047
10.219298333333333 -3.1 -1.1 5000006.57895
10.206015666666667 -1.4 -1.1333333333333333 5000006.18047
10.206015666666667 -1.4333333333333333 -1.1333333333333333 5000006.18047
10.219298333333333 -3.1333333333333333 -1.1333333333333333 5000006.57895
10.202942666666667 -1.1333333333333333 -1.2 5000006.08828
10.209183 -2.8333333333333335 -1.2 5000006.27549
10.19996 -1.3666666666666667 -1.2333333333333334 5000005.9988
10.19996 -1.4333333333333333 -1.2333333333333334 5000005.9988
10.19996 -1.4666666666666666 -1.2333333333333334 5000005.9988
10.209183 -2.8666666666666667 -1.2333333333333334 5000006.27549
10.197063666666667 -0.06666666666666667 -1.2666666666666666 5000005.91191
10.19996 -1.4333333333333333 -1.2666666666666666 5000005.9988
10.19996 -1.4666666666666666 -1.2666666666666666 5000005.9988
10.209183 -2.966666666666667 -1.2666666666666666 5000006.27549
10.197063666666667 -0.06666666666666667 -1.3 5000005.91191
10.197063666666667 -0.1 -1.3 5000005.91191
10.194250333333333 -1.2666666666666666 -1.3 5000005.82751
10.194250333333333 -1.3 -1.3 5000005.82751
10.209183 -3.0 -1.3 5000006.27549
10.194250333333333 0.6333333333333333 -1.3333333333333333 5000005.82751
10.194250333333333 -1.0666666666666667 -1.3333333333333333 5000005.82751
10.194250333333333 -1.2666666666666666 -1.3333333333333333 5000005.82751
10.194250333333333 -1.3 -1.3333333333333333 5000005.82751
10.194250333333333 -1.3333333333333333 -1.3333333333333333 5000005.82751
10.194250333333333 -1.3666666666666667 -1.3333333333333333 5000005.82751
10.191516 -1.5666666666666667 -1.3333333333333333 5000005.74548
10.19996 -1.7666666666666666 -1.3333333333333333 5000005.9988
10.206015666666667 -2.8666666666666667 -1.3333333333333333 5000006.18047
10.191516 0.8 -1.3666666666666667 5000005.74548
10.191516 -0.5666666666666667 -1.3666666666666667 5000005.74548
10.194250333333333 -1.0666666666666667 -1.3666666666666667 5000005.82751
10.191516 0.7666666666666667 -1.4 5000005.74548
10.191516 0.7333333333333333 -1.4 5000005.74548
10.191516 0.7 -1.4 5000005.74548
10.194250333333333 -1.0666666666666667 -1.4 5000005.82751
10.194250333333333 -1.1 -1.4 5000005.82751
10.194250333333333 -1.4 -1.4 5000005.82751
10.191516 -1.4333333333333333 -1.4333333333333333 5000005.74548
10.188857333333333 -1.2333333333333334 -1.4666666666666666 5000005.66572
10.188857333333333 -1.2666666666666666 -1.4666666666666666 5000005.66572
10.188857333333333 -1.3 -1.4666666666666666 5000005.66572
10.191516 -1.8 -1.4666666666666666 5000005.74548
10.186271666666666 -0.3 -1.5 5000005.58815
10.188857333333333 -0.6333333333333333 -1.5 5000005.66572
10.188857333333333 -1.2666666666666666 -1.5 5000005.66572
10.191516 -1.7 -1.5333333333333334 5000005.74548
10.183756 -0.9 -1.5666666666666667 5000005.51268
10.194250333333333 -3.0 -1.5666666666666667 5000005.82751
10.183756 -0.9333333333333333 -1.6 5000005.51268
10.181307333333333 0.5 -1.6333333333333333 5000005.43922
10.181307333333333 -0.8 -1.6333333333333333 5000005.43922
10.181307333333333 -1.3333333333333333 -1.6333333333333333 5000005.43922
10.181307333333333 -1.3666666666666667 -1.6333333333333333 5000005.43922
10.186271666666666 -1.7 -1.6333333333333333 5000005.58815
10.181307333333333 -0.5333333333333333 -1.6666666666666667 5000005.43922
10.181307333333333 -0.8 -1.6666666666666667 5000005.43922
10.181307333333333 -0.8333333333333334 -1.6666666666666667 5000005.43922
10.181307333333333 -1.2666666666666666 -1.6666666666666667 5000005.43922
10.181307333333333 -1.5333333333333334 -1.6666666666666667 5000005.43922
10.174337666666666 2.466666666666667 -1.7 5000005.23013
10.183756 1.0333333333333334 -1.7 5000005.51268
10.183756 1.0 -1.7 5000005.51268
10.181307333333333 0.6 -1.7 5000005.43922
10.181307333333333 0.5666666666666667 -1.7 5000005.43922
10.181307333333333 -0.5 -1.7 5000005.43922
10.181307333333333 -0.5333333333333333 -1.7 5000005.43922
10.181307333333333 -1.2333333333333334 -1.7 5000005.43922
10.181307333333333 -1.2666666666666666 -1.7 5000005.43922
10.181307333333333 -1.3 -1.7 5000005.43922
10.181307333333333 -1.5333333333333334 -1.7 5000005.43922
10.181307333333333 -1.5666666666666667 -1.7 5000005.43922
10.186271666666666 -2.1333333333333333 -1.7 5000005.58815
10.174337666666666 2.6 -1.7333333333333334 5000005.23013
10.174337666666666 2.466666666666667 -1.7333333333333334 5000005.23013
10.174337666666666 2.433333333333333 -1.7333333333333334 5000005.23013
10.176600333333333 0.2 -1.7333333333333334 5000005.29801
10.181307333333333 -0.5333333333333333 -1.7333333333333334 5000005.43922
10.183756 -2.2666666666666666 -1.7333333333333334 5000005.51268
10.174337666666666 2.6 -1.7666666666666666 5000005.23013
10.174337666666666 2.566666666666667 -1.7666666666666666 5000005.23013
10.178923 0.9 -1.7666666666666666 5000005.36769
10.172132 -0.03333333333333333 -1.7666666666666666 5000005.16396
10.174337666666666 -0.23333333333333334 -1.7666666666666666 5000005.23013
10.178923 -0.5333333333333333 -1.7666666666666666 5000005.36769
10.174337666666666 -0.7666666666666667 -1.7666666666666666 5000005.23013
10.183756 -2.3 -1.7666666666666666 5000005.51268
10.174337666666666 2.566666666666667 -1.8 5000005.23013
10.172132 -0.23333333333333334 -1.8 5000005.16396
10.178923 -0.5333333333333333 -1.8 5000005.36769
10.176600333333333 -1.2333333333333334 -1.8 5000005.29801
10.176600333333333 -1.5 -1.8 5000005.29801
10.188857333333333 -17.8 -1.8 5000005.66572
10.188857333333333 -17.833333333333332 -1.8 5000005.66572
10.188857333333333 -17.866666666666667 -1.8 5000005.66572
10.169981333333334 -0.13333333333333333 -1.8333333333333333 5000005.09944
10.176600333333333 -1.2333333333333334 -1.8333333333333333 5000005.29801
10.174337666666666 1.1666666666666667 -1.8666666666666667 5000005.23013
10.174337666666666 1.1333333333333333 -1.8666666666666667 5000005.23013
10.174337666666666 0.9 -1.8666666666666667 5000005.23013
10.169981333333334 -0.16666666666666666 -1.8666666666666667 5000005.09944
10.176600333333333 -0.5333333333333333 -1.8666666666666667 5000005.29801
10.176600333333333 -0.5666666666666667 -1.8666666666666667 5000005.29801
10.176600333333333 -0.6 -1.8666666666666667 5000005.29801
10.174337666666666 -0.6333333333333333 -1.8666666666666667 5000005.23013
10.194250333333333 -4.7 -1.8666666666666667 5000005.82751
10.172132 1.4333333333333333 -1.9 5000005.16396
10.174337666666666 0.9 -1.9 5000005.23013
10.176600333333333 -0.5333333333333333 -1.9 5000005.29801
10.174337666666666 -0.5666666666666667 -1.9 5000005.23013
10.174337666666666 -0.6333333333333333 -1.9 5000005.23013
10.169981333333334 0.26666666666666666 -1.9333333333333333 5000005.09944
10.167883666666667 0.13333333333333333 -1.9333333333333333 5000005.03651
10.174337666666666 -1.8666666666666667 -1.9333333333333333 5000005.23013
10.194250333333333 -4.633333333333334 -1.9333333333333333 5000005.82751
10.194250333333333 -4.666666666666667 -1.9333333333333333 5000005.82751
10.172132 2.3 -1.9666666666666666 5000005.16396
10.172132 2.2666666666666666 -1.9666666666666666 5000005.16396
10.169981333333334 0.26666666666666666 -1.9666666666666666 5000005.09944
10.167883666666667 0.13333333333333333 -1.9666666666666666 5000005.03651
10.167883666666667 -0.3 -1.9666666666666666 5000005.03651
10.174337666666666 -0.5666666666666667 -1.9666666666666666 5000005.23013
10.191516 -4.233333333333333 -1.9666666666666666 5000005.74548
10.172132 2.3 -2.0 5000005.16396
10.172132 2.2666666666666666 -2.0 5000005.16396
10.174337666666666 -1.7666666666666666 -2.0 5000005.23013
10.174337666666666 -1.8 -2.0 5000005.23013
10.174337666666666 -1.8333333333333333 -2.0 5000005.23013
10.165837333333334 -0.06666666666666667 -2.033333333333333 5000004.97512
10.174337666666666 -1.7666666666666666 -2.033333333333333 5000005.23013
10.172132 -1.8 -2.033333333333333 5000005.16396
10.172132 -1.8333333333333333 -2.033333333333333 5000005.16396
10.174337666666666 -1.8666666666666667 -2.033333333333333 5000005.23013
10.161891 2.4 -2.066666666666667 5000004.85673
10.167883666666667 0.7666666666666667 -2.066666666666667 5000005.03651
10.165837333333334 0.5666666666666667 -2.066666666666667 5000004.97512
10.165837333333334 -0.06666666666666667 -2.066666666666667 5000004.97512
10.165837333333334 -0.1 -2.066666666666667 5000004.97512
10.169981333333334 -1.1333333333333333 -2.066666666666667 5000005.09944
10.174337666666666 -1.9333333333333333 -2.066666666666667 5000005.23013
10.165837333333334 0.5666666666666667 -2.1 5000004.97512
10.167883666666667 -1.5 -2.1 5000005.03651
10.167883666666667 -1.5666666666666667 -2.1 5000005.03651
10.163840333333333 0.5 -2.1333333333333333 5000004.91521
10.167883666666667 -1.5666666666666667 -2.1333333333333333 5000005.03651
10.167883666666667 -1.6 -2.1333333333333333 5000005.03651
10.181307333333333 -3.033333333333333 -2.1333333333333333 5000005.43922
10.161891 0.8333333333333334 -2.1666666666666665 5000004.85673
10.161891 0.5 -2.1666666666666665 5000004.85673
10.161891 0.4666666666666667 -2.1666666666666665 5000004.85673
10.163840333333333 -0.6333333333333333 -2.1666666666666665 5000004.91521
10.165837333333334 -0.6666666666666666 -2.1666666666666665 5000004.97512
10.165837333333334 -0.7 -2.1666666666666665 5000004.97512
10.165837333333334 -0.7333333333333333 -2.1666666666666665 5000004.97512
10.181307333333333 -2.7 -2.1666666666666665 5000005.43922
10.181307333333333 -3.033333333333333 -2.1666666666666665 5000005.43922
10.181307333333333 -3.066666666666667 -2.1666666666666665 5000005.43922
10.161891 0.8333333333333334 -2.2 5000004.85673
10.161891 0.4666666666666667 -2.2 5000004.85673
10.165837333333334 -0.5 -2.2 5000004.97512
10.165837333333334 -0.7 -2.2 5000004.97512
10.165837333333334 -0.7333333333333333 -2.2 5000004.97512
10.165837333333334 -0.7666666666666667 -2.2 5000004.97512
10.181307333333333 -2.7 -2.2 5000005.43922
10.178923 -2.9 -2.2 5000005.36769
10.178923 -2.933333333333333 -2.2 5000005.36769
10.156311 2.3 -2.2333333333333334 5000004.68933
10.161891 0.8333333333333334 -2.2333333333333334 5000004.85673
10.159987333333333 -0.13333333333333333 -2.2333333333333334 5000004.79962
10.159987333333333 -0.16666666666666666 -2.2333333333333334 5000004.79962
10.159987333333333 -0.2 -2.2333333333333334 5000004.79962
10.167883666666667 -0.4666666666666667 -2.2333333333333334 5000005.03651
10.165837333333334 -0.5 -2.2333333333333334 5000004.97512
10.163840333333333 -0.5333333333333333 -2.2333333333333334 5000004.91521
10.163840333333333 -0.5666666666666667 -2.2333333333333334 5000004.91521
10.167883666666667 -1.4666666666666666 -2.2333333333333334 5000005.03651
10.178923 -2.933333333333333 -2.2333333333333334 5000005.36769
10.178923 -2.966666666666667 -2.2333333333333334 5000005.36769
10.156311 2.3 -2.2666666666666666 5000004.68933
10.156311 2.2666666666666666 -2.2666666666666666 5000004.68933
10.159987333333333 -0.2 -2.2666666666666666 5000004.79962
10.163840333333333 -0.5333333333333333 -2.2666666666666666 5000004.91521
10.163840333333333 -0.5666666666666667 -2.2666666666666666 5000004.91521
10.163840333333333 -0.6 -2.2666666666666666 5000004.91521
10.165837333333334 -1.5333333333333334 -2.2666666666666666 5000004.97512
10.163840333333333 -1.6 -2.2666666666666666 5000004.91521
10.163840333333333 -1.6333333333333333 -2.2666666666666666 5000004.91521
10.163840333333333 -1.6666666666666667 -2.2666666666666666 5000004.91521
10.178923 -2.8 -2.2666666666666666 5000005.36769
10.178923 -2.8333333333333335 -2.2666666666666666 5000005.36769
10.178923 -2.966666666666667 -2.2666666666666666 5000005.36769
10.156311 2.2666666666666666 -2.3 5000004.68933
10.154535666666666 2.1666666666666665 -2.3 5000004.63607
10.159987333333333 0.8 -2.3 5000004.79962
10.158127666666667 0.03333333333333333 -2.3 5000004.74383
10.163840333333333 -0.5666666666666667 -2.3 5000004.91521
10.163840333333333 -0.6 -2.3 5000004.91521
10.163840333333333 -0.6333333333333333 -2.3 5000004.91521
10.165837333333334 -1.8 -2.3 5000004.97512
10.176600333333333 -2.8333333333333335 -2.3 5000005.29801
10.178923 -2.8666666666666667 -2.3 5000005.36769
10.178923 -2.9 -2.3 5000005.36769
10.174337666666666 -13.233333333333333 -2.3 5000005.23013
10.174337666666666 -13.266666666666667 -2.3 5000005.23013
10.154535666666666 2.2666666666666666 -2.3333333333333335 5000004.63607
10.156311 2.2333333333333334 -2.3333333333333335 5000004.68933
10.154535666666666 2.2 -2.3333333333333335 5000004.63607
10.154535666666666 2.1666666666666665 -2.3333333333333335 5000004.63607
10.159987333333333 0.8 -2.3333333333333335 5000004.79962
10.159987333333333 0.7666666666666667 -2.3333333333333335 5000004.79962
10.159987333333333 0.6333333333333333 -2.3333333333333335 5000004.79962
10.159987333333333 0.6 -2.3333333333333335 5000004.79962
10.159987333333333 0.16666666666666666 -2.3333333333333335 5000004.79962
10.158127666666667 0.03333333333333333 -2.3333333333333335 5000004.74383
10.158127666666667 0.0 -2.3333333333333335 5000004.74383
10.163840333333333 -0.6 -2.3333333333333335 5000004.91521
10.178923 -5.633333333333334 -2.3333333333333335 5000005.36769
10.154535666666666 2.2 -2.3666666666666667 5000004.63607
10.154535666666666 2.1666666666666665 -2.3666666666666667 5000004.63607
10.159987333333333 0.7666666666666667 -2.3666666666666667 5000004.79962
10.158127666666667 0.6333333333333333 -2.3666666666666667 5000004.74383
10.158127666666667 0.6 -2.3666666666666667 5000004.74383
10.158127666666667 0.0 -2.3666666666666667 5000004.74383
10.158127666666667 -0.03333333333333333 -2.3666666666666667 5000004.74383
10.178923 -5.633333333333334 -2.3666666666666667 5000005.36769
10.176600333333333 -5.666666666666667 -2.3666666666666667 5000005.29801
10.176600333333333 -5.7 -2.3666666666666667 5000005.29801
10.174337666666666 -5.733333333333333 -2.3666666666666667 5000005.23013
10.154535666666666 1.5333333333333334 -2.4 5000004.63607
10.158127666666667 0.6 -2.4 5000004.74383
10.158127666666667 0.5666666666666667 -2.4 5000004.74383
10.158127666666667 0.3 -2.4 5000004.74383
10.158127666666667 0.26666666666666666 -2.4 5000004.74383
10.161891 -0.9 -2.4 5000004.85673
10.156311 0.9666666666666667 -2.433333333333333 5000004.68933
10.156311 0.9333333333333333 -2.433333333333333 5000004.68933
10.158127666666667 0.7 -2.433333333333333 5000004.74383
10.158127666666667 0.6 -2.433333333333333 5000004.74383
10.158127666666667 0.5666666666666667 -2.433333333333333 5000004.74383
10.156311 0.5333333333333333 -2.433333333333333 5000004.68933
10.158127666666667 0.3 -2.433333333333333 5000004.74383
10.158127666666667 0.26666666666666666 -2.433333333333333 5000004.74383
10.158127666666667 0.23333333333333334 -2.433333333333333 5000004.74383
10.159987333333333 -1.2 -2.433333333333333 5000004.79962
10.1528 2.2333333333333334 -2.466666666666667 5000004.584
10.156311 0.9333333333333333 -2.466666666666667 5000004.68933
10.156311 0.9 -2.466666666666667 5000004.68933
10.156311 0.5 -2.466666666666667 5000004.68933
10.158127666666667 0.26666666666666666 -2.466666666666667 5000004.74383
10.158127666666667 0.23333333333333334 -2.466666666666667 5000004.74383
10.158127666666667 0.2 -2.466666666666667 5000004.74383
10.159987333333333 -1.2333333333333334 -2.466666666666667 5000004.79962
10.159987333333333 -1.2666666666666666 -2.466666666666667 5000004.79962
10.1528 2.7 -2.5 5000004.584
10.156311 0.9 -2.5 5000004.68933
10.156311 0.8666666666666667 -2.5 5000004.68933
10.156311 0.4666666666666667 -2.5 5000004.68933
10.158127666666667 -0.8 -2.5 5000004.74383
10.1528 2.7 -2.533333333333333 5000004.584
10.156311 0.8666666666666667 -2.533333333333333 5000004.68933
10.156311 0.8333333333333334 -2.533333333333333 5000004.68933
10.156311 0.8 -2.533333333333333 5000004.68933
10.156311 0.7666666666666667 -2.533333333333333 5000004.68933
10.154535666666666 0.4 -2.533333333333333 5000004.63607
10.154535666666666 0.13333333333333333 -2.533333333333333 5000004.63607
10.154535666666666 0.06666666666666667 -2.533333333333333 5000004.63607
10.161891 -2.066666666666667 -2.533333333333333 5000004.85673
10.1528 2.7 -2.566666666666667 5000004.584
10.151102999999999 2.466666666666667 -2.566666666666667 5000004.53309
10.151102999999999 2.433333333333333 -2.566666666666667 5000004.53309
10.151102999999999 1.5 -2.566666666666667 5000004.53309
10.156311 0.7666666666666667 -2.566666666666667 5000004.68933
10.156311 0.7333333333333333 -2.566666666666667 5000004.68933
10.1528 0.36666666666666664 -2.566666666666667 5000004.584
10.154535666666666 -0.4666666666666667 -2.566666666666667 5000004.63607
10.154535666666666 -0.5 -2.566666666666667 5000004.63607
10.1528 2.6666666666666665 -2.6 5000004.584
10.151102999999999 2.433333333333333 -2.6 5000004.53309
10.1528 1.9666666666666666 -2.6 5000004.584
10.147819666666667 0.9333333333333333 -2.6 5000004.43459
10.147819666666667 0.9 -2.6 5000004.43459
10.156311 0.7666666666666667 -2.6 5000004.68933
10.151102999999999 0.3 -2.6 5000004.53309
10.154535666666666 -0.5 -2.6 5000004.63607
10.154535666666666 -1.4666666666666666 -2.6 5000004.63607
10.156311 -1.5 -2.6 5000004.68933
10.156311 -1.5333333333333334 -2.6 5000004.68933
10.154535666666666 -1.5666666666666667 -2.6 5000004.63607
10.156311 -1.8333333333333333 -2.6 5000004.68933
10.156311 -1.8666666666666667 -2.6 5000004.68933
10.169981333333334 -6.033333333333333 -2.6 5000005.09944
10.169981333333334 -6.066666666666666 -2.6 5000005.09944
10.1528 1.9666666666666666 -2.6333333333333333 5000004.584
10.147819666666667 0.9333333333333333 -2.6333333333333333 5000004.43459
10.147819666666667 0.9 -2.6333333333333333 5000004.43459
10.151102999999999 0.26666666666666666 -2.6333333333333333 5000004.53309
10.156311 -1.8333333333333333 -2.6333333333333333 5000004.68933
10.156311 -1.8666666666666667 -2.6333333333333333 5000004.68933
10.156311 -1.9 -2.6333333333333333 5000004.68933
10.149443333333334 1.6 -2.6666666666666665 5000004.4833
10.147819666666667 0.9 -2.6666666666666665 5000004.43459
10.147819666666667 0.8666666666666667 -2.6666666666666665 5000004.43459
10.134653 0.6333333333333333 -2.6666666666666665 5000004.03959
10.147819666666667 0.4 -2.6666666666666665 5000004.43459
10.147819666666667 0.36666666666666664 -2.6666666666666665 5000004.43459
10.1528 -0.8333333333333334 -2.6666666666666665 5000004.584
10.156311 -1.8666666666666667 -2.6666666666666665 5000004.68933
10.156311 -1.9 -2.6666666666666665 5000004.68933
10.163840333333333 -13.933333333333334 -2.6666666666666665 5000004.91521
10.149443333333334 1.6 -2.7 5000004.4833
10.147819666666667 0.9 -2.7 5000004.43459
10.147819666666667 0.36666666666666664 -2.7 5000004.43459
10.1528 -0.8333333333333334 -2.7 5000004.584
10.1528 -0.8666666666666667 -2.7 5000004.584
10.154535666666666 -1.3666666666666667 -2.7 5000004.63607
10.1528 -1.6333333333333333 -2.7 5000004.584
10.154535666666666 -1.6666666666666667 -2.7 5000004.63607
10.154535666666666 -1.7 -2.7 5000004.63607
10.154535666666666 -1.7333333333333334 -2.7 5000004.63607
10.154535666666666 -1.7666666666666666 -2.7 5000004.63607
10.154535666666666 -1.8 -2.7 5000004.63607
10.149443333333334 1.6 -2.7333333333333334 5000004.4833
10.1528 1.0 -2.7333333333333334 5000004.584
10.147819666666667 0.9 -2.7333333333333334 5000004.43459
10.154535666666666 -1.0 -2.7333333333333334 5000004.63607
10.146231 2.6666666666666665 -2.7666666666666666 5000004.38693
10.149443333333334 1.6 -2.7666666666666666 5000004.4833
10.149443333333334 1.5666666666666667 -2.7666666666666666 5000004.4833
10.1528 1.0 -2.7666666666666666 5000004.584
10.147819666666667 0.9333333333333333 -2.7666666666666666 5000004.43459
10.146231 0.9 -2.7666666666666666 5000004.38693
10.146231 0.23333333333333334 -2.7666666666666666 5000004.38693
10.146231 0.2 -2.7666666666666666 5000004.38693
10.151102999999999 -0.3333333333333333 -2.7666666666666666 5000004.53309
10.1528 -0.7 -2.7666666666666666 5000004.584
10.156311 -1.8 -2.7666666666666666 5000004.68933
10.146231 2.7333333333333334 -2.8 5000004.38693
10.146231 2.6666666666666665 -2.8 5000004.38693
10.144676 2.2 -2.8 5000004.34028
10.144676 2.1666666666666665 -2.8 5000004.34028
10.144676 1.8333333333333333 -2.8 5000004.34028
10.144676 1.8 -2.8 5000004.34028
10.149443333333334 1.5666666666666667 -2.8 5000004.4833
10.146231 0.9333333333333333 -2.8 5000004.38693
10.146231 0.9 -2.8 5000004.38693
10.146231 0.8666666666666667 -2.8 5000004.38693
10.146231 0.36666666666666664 -2.8 5000004.38693
10.146231 0.23333333333333334 -2.8 5000004.38693
10.146231 0.2 -2.8 5000004.38693
10.146231 0.16666666666666666 -2.8 5000004.38693
10.1528 -0.7333333333333333 -2.8 5000004.584
10.156311 -1.8 -2.8 5000004.68933
10.156311 -1.8333333333333333 -2.8 5000004.68933
10.154535666666666 -14.2 -2.8 5000004.63607
10.143153666666667 3.1666666666666665 -2.8333333333333335 5000004.29461
10.144676 2.1666666666666665 -2.8333333333333335 5000004.34028
10.146231 1.8666666666666667 -2.8333333333333335 5000004.38693
10.144676 1.8333333333333333 -2.8333333333333335 5000004.34028
10.144676 1.8 -2.8333333333333335 5000004.34028
10.146231 1.1333333333333333 -2.8333333333333335 5000004.38693
10.146231 1.1 -2.8333333333333335 5000004.38693
10.146231 0.8666666666666667 -2.8333333333333335 5000004.38693
10.144676 0.8333333333333334 -2.8333333333333335 5000004.34028
10.141663 0.8 -2.8333333333333335 5000004.24989
10.146231 0.36666666666666664 -2.8333333333333335 5000004.38693
10.146231 0.2 -2.8333333333333335 5000004.38693
10.146231 0.16666666666666666 -2.8333333333333335 5000004.38693
10.156311 -1.8333333333333333 -2.8333333333333335 5000004.68933
10.161891 -4.333333333333333 -2.8333333333333335 5000004.85673
10.161891 -4.366666666666666 -2.8333333333333335 5000004.85673
10.144676 2.1666666666666665 -2.8666666666666667 5000004.34028
10.146231 1.8666666666666667 -2.8666666666666667 5000004.38693
10.144676 1.8333333333333333 -2.8666666666666667 5000004.34028
10.144676 1.8 -2.8666666666666667 5000004.34028
10.144676 1.7666666666666666 -2.8666666666666667 5000004.34028
10.144676 1.1666666666666667 -2.8666666666666667 5000004.34028
10.146231 1.1333333333333333 -2.8666666666666667 5000004.38693
10.146231 0.9666666666666667 -2.8666666666666667 5000004.38693
10.141663 0.8 -2.8666666666666667 5000004.24989
10.147819666666667 -0.13333333333333333 -2.8666666666666667 5000004.43459
10.151102999999999 -1.0 -2.8666666666666667 5000004.53309
10.156311 -1.8333333333333333 -2.8666666666666667 5000004.68933
10.144676 1.7666666666666666 -2.9 5000004.34028
10.144676 1.7333333333333334 -2.9 5000004.34028
10.144676 1.2333333333333334 -2.9 5000004.34028
10.151102999999999 -0.9666666666666667 -2.9 5000004.53309
10.151102999999999 -1.0 -2.9 5000004.53309
10.156311 -1.8333333333333333 -2.9 5000004.68933
10.143153666666667 1.5666666666666667 -2.933333333333333 5000004.29461
10.143153666666667 1.5333333333333334 -2.933333333333333 5000004.29461
10.143153666666667 0.4 -2.933333333333333 5000004.29461
10.151102999999999 -0.9666666666666667 -2.933333333333333 5000004.53309
10.156311 -1.8666666666666667 -2.933333333333333 5000004.68933
10.143153666666667 1.5333333333333334 -2.966666666666667 5000004.29461
10.143153666666667 1.5 -2.966666666666667 5000004.29461
10.144676 1.0666666666666667 -2.966666666666667 5000004.34028
10.144676 0.8666666666666667 -2.966666666666667 5000004.34028
10.141663 0.6333333333333333 -2.966666666666667 5000004.24989
10.141663 0.5 -2.966666666666667 5000004.24989
10.143153666666667 0.36666666666666664 -2.966666666666667 5000004.29461
10.143153666666667 1.5333333333333334 -3.0 5000004.29461
10.143153666666667 1.5 -3.0 5000004.29461
10.144676 1.0666666666666667 -3.0 5000004.34028
10.141663 0.5333333333333333 -3.0 5000004.24989
10.143153666666667 0.3333333333333333 -3.0 5000004.29461
10.144676 0.9 -3.033333333333333 5000004.34028
10.147819666666667 -1.5 -3.033333333333333 5000004.43459
10.154535666666666 -1.8333333333333333 -3.033333333333333 5000004.63607
10.156311 -6.2 -3.033333333333333 5000004.68933
10.143153666666667 -0.6333333333333333 -3.066666666666667 5000004.29461
10.154535666666666 -1.8333333333333333 -3.066666666666667 5000004.63607
10.154535666666666 -1.8666666666666667 -3.066666666666667 5000004.63607
10.156311 -9.0 -3.066666666666667 5000004.68933
10.138773333333333 3.0 -3.1 5000004.1632
10.143153666666667 -0.4 -3.1 5000004.29461
10.154535666666666 -1.8666666666666667 -3.1 5000004.63607
10.137372 3.1 -3.1333333333333333 5000004.12116
10.140203333333334 3.033333333333333 -3.1333333333333333 5000004.2061
10.138773333333333 3.0 -3.1333333333333333 5000004.1632
10.137372 0.7 -3.1333333333333333 5000004.12116
10.140203333333334 0.5333333333333333 -3.1333333333333333 5000004.2061
10.138773333333333 3.1333333333333333 -3.1666666666666665 5000004.1632
10.137372 3.1 -3.1666666666666665 5000004.12116
10.140203333333334 3.033333333333333 -3.1666666666666665 5000004.2061
10.135999 1.7333333333333334 -3.1666666666666665 5000004.07997
