VERSION .7
FIELDS x y z rgb
SIZE 4 4 4 4
TYPE F F F F
COUNT 1 1 1 1
WIDTH 998
HEIGHT 1
VIEWPOINT 0 0 0 1 0 0 0
POINTS 998
DATA ascii
6.832158 4.4 -3.58 5000004.38693
7.013598 3.24 -3.58 5000004.68933
6.860754 4.48 -3.6 5000004.43459
7.013598 3.26 -3.6 5000004.68933
7.013598 3.24 -3.6 5000004.68933
7.013598 3.22 -3.6 5000004.68933
7.185072 -0.88 -3.6 5000004.97512
6.860754 4.72 -3.62 5000004.43459
6.860754 4.7 -3.62 5000004.43459
6.9504 3.72 -3.62 5000004.584
7.013598 3.22 -3.62 5000004.68933
7.013598 3.2 -3.62 5000004.68933
6.860754 4.72 -3.64 5000004.43459
6.860754 4.7 -3.64 5000004.43459
6.919854 3.78 -3.64 5000004.53309
6.981642 3.38 -3.64 5000004.63607
6.832158 4.7 -3.66 5000004.38693
6.860754 4.54 -3.66 5000004.43459
6.88998 4.3 -3.66 5000004.4833
6.919854 3.78 -3.66 5000004.53309
6.9504 3.76 -3.66 5000004.584
7.185072 1.36 -3.66 5000004.97512
6.832158 4.7 -3.68 5000004.38693
6.860754 4.56 -3.68 5000004.43459
6.860754 4.54 -3.68 5000004.43459
6.860754 4.52 -3.68 5000004.43459
6.88998 4.14 -3.68 5000004.4833
6.981642 3.32 -3.68 5000004.63607
7.185072 1.34 -3.68 5000004.97512
6.804168 5.06 -3.7 5000004.34028
6.804168 4.68 -3.7 5000004.34028
6.88998 3.6 -3.7 5000004.4833
6.88998 3.52 -3.7 5000004.4833
6.804168 5.0 -3.72 5000004.34028
6.72366 4.8 -3.72 5000004.2061
6.88998 3.5 -3.72 5000004.4833
6.88998 3.5 -3.74 5000004.4833
6.776765999999999 4.32 -3.78 5000004.29461
6.776765999999999 4.3 -3.78 5000004.29461
6.860754 3.42 -3.78 5000004.43459
6.860754 3.4 -3.78 5000004.43459
7.079772 2.38 -3.78 5000004.79962
6.919854 4.84 -3.8 5000004.53309
6.72366 4.78 -3.8 5000004.2061
6.72366 4.76 -3.8 5000004.2061
6.860754 3.86 -3.8 5000004.43459
6.860754 3.84 -3.8 5000004.43459
6.860754 3.44 -3.8 5000004.43459
6.860754 3.42 -3.8 5000004.43459
7.079772 2.38 -3.8 5000004.79962
7.079772 2.36 -3.8 5000004.79962
6.72366 4.78 -3.82 5000004.2061
6.72366 4.76 -3.82 5000004.2061
7.079772 2.36 -3.82 5000004.79962
6.72366 4.76 -3.84 5000004.2061
6.804168 3.54 -3.84 5000004.34028
6.672695999999999 4.98 -3.86 5000004.12116
6.672695999999999 4.96 -3.86 5000004.12116
6.672695999999999 4.94 -3.86 5000004.12116
6.672695999999999 4.92 -3.86 5000004.12116
6.672695999999999 4.9 -3.86 5000004.12116
6.72366 4.76 -3.86 5000004.2061
6.7499340000000005 4.66 -3.86 5000004.24989
6.832158 3.6 -3.86 5000004.38693
6.832158 3.52 -3.86 5000004.38693
6.672695999999999 5.12 -3.88 5000004.12116
6.672695999999999 5.1 -3.88 5000004.12116
6.672695999999999 4.96 -3.88 5000004.12116
6.672695999999999 4.94 -3.88 5000004.12116
6.672695999999999 4.92 -3.88 5000004.12116
6.672695999999999 4.9 -3.88 5000004.12116
6.672695999999999 4.88 -3.88 5000004.12116
6.672695999999999 4.86 -3.88 5000004.12116
6.69792 4.74 -3.88 5000004.1632
6.832158 3.58 -3.88 5000004.38693
6.672695999999999 4.94 -3.9 5000004.12116
6.672695999999999 4.92 -3.9 5000004.12116
6.672695999999999 4.9 -3.9 5000004.12116
6.672695999999999 4.88 -3.9 5000004.12116
6.672695999999999 4.86 -3.9 5000004.12116
6.623754 4.84 -3.9 5000004.03959
6.69792 4.52 -3.9 5000004.1632
6.832158 3.58 -3.9 5000004.38693
6.623754 5.18 -3.94 5000004.03959
6.623754 5.16 -3.94 5000004.03959
6.623754 5.18 -3.96 5000004.03959
6.623754 5.16 -3.96 5000004.03959
6.623754 4.94 -3.96 5000004.03959
6.623754 4.7 -3.96 5000004.03959
6.623754 4.68 -3.96 5000004.03959
6.69792 4.4 -3.96 5000004.1632
6.623754 5.16 -3.98 5000004.03959
6.623754 5.14 -3.98 5000004.03959
6.623754 4.68 -3.98 5000004.03959
6.623754 4.66 -3.98 5000004.03959
6.69792 3.88 -3.98 5000004.1632
6.88998 -2.52 -3.98 5000004.4833
6.832158 -6.7 -3.98 5000004.38693
6.832158 -6.72 -3.98 5000004.38693
6.623754 4.92 -4.0 5000004.03959
6.623754 4.9 -4.0 5000004.03959
6.69792 3.88 -4.0 5000004.1632
6.72366 3.64 -4.0 5000004.2061
6.832158 -6.74 -4.0 5000004.38693
6.623754 5.02 -4.02 5000004.03959
6.623754 4.9 -4.02 5000004.03959
6.647982 4.46 -4.02 5000004.07997
6.72366 3.68 -4.02 5000004.2061
6.623754 5.04 -4.04 5000004.03959
6.623754 4.58 -4.04 5000004.03959
6.623754 4.56 -4.04 5000004.03959
6.623754 4.46 -4.04 5000004.03959
6.623754 5.04 -4.06 5000004.03959
6.623754 5.0 -4.06 5000004.03959
6.623754 4.98 -4.06 5000004.03959
6.623754 4.56 -4.06 5000004.03959
6.623754 4.46 -4.06 5000004.03959
6.623754 4.66 -4.08 5000004.03959
6.623754 4.46 -4.08 5000004.03959
6.623754 4.44 -4.08 5000004.03959
6.69792 3.42 -4.08 5000004.1632
6.623754 3.8 -4.1 5000004.03959
6.623754 3.78 -4.1 5000004.03959
6.623754 3.76 -4.1 5000004.03959
6.647982 3.5 -4.1 5000004.07997
6.832158 2.48 -4.1 5000004.38693
6.832158 2.46 -4.1 5000004.38693
6.832158 2.22 -4.1 5000004.38693
6.647982 3.48 -4.12 5000004.07997
6.672695999999999 3.46 -4.12 5000004.12116
6.804168 2.44 -4.12 5000004.34028
6.804168 2.42 -4.12 5000004.34028
6.832158 2.18 -4.12 5000004.38693
6.804168 -1.8 -4.12 5000004.34028
6.804168 -1.82 -4.12 5000004.34028
6.804168 2.4 -4.14 5000004.34028
6.804168 2.38 -4.14 5000004.34028
6.776765999999999 -2.14 -4.14 5000004.29461
6.776765999999999 -2.16 -4.14 5000004.29461
6.804168 2.38 -4.16 5000004.34028
6.804168 2.36 -4.16 5000004.34028
6.776765999999999 -2.14 -4.16 5000004.29461
6.776765999999999 -2.16 -4.16 5000004.29461
6.776765999999999 -2.18 -4.16 5000004.29461
6.7499340000000005 -4.66 -4.16 5000004.24989
6.7499340000000005 -4.68 -4.16 5000004.24989
6.7499340000000005 -4.7 -4.16 5000004.24989
6.672695999999999 4.74 -4.18 5000004.12116
6.804168 2.34 -4.18 5000004.34028
6.7499340000000005 2.32 -4.18 5000004.24989
6.672695999999999 4.74 -4.2 5000004.12116
6.7499340000000005 2.2 -4.2 5000004.24989
6.7499340000000005 2.18 -4.2 5000004.24989
6.69792 3.38 -4.22 5000004.1632
6.672695999999999 2.12 -4.22 5000004.12116
6.72366 2.06 -4.22 5000004.2061
6.69792 3.38 -4.24 5000004.1632
6.69792 3.36 -4.24 5000004.1632
6.776765999999999 1.42 -4.24 5000004.29461
6.69792 -2.18 -4.24 5000004.1632
6.69792 -2.2 -4.24 5000004.1632
6.69792 -2.22 -4.24 5000004.1632
6.69792 3.36 -4.26 5000004.1632
6.776765999999999 1.4 -4.26 5000004.29461
6.672695999999999 2.08 -4.36 5000004.12116
6.672695999999999 2.06 -4.36 5000004.12116
6.647982 2.1 -4.38 5000004.07997
6.647982 2.06 -4.38 5000004.07997
6.647982 2.04 -4.38 5000004.07997
6.647982 2.12 -4.4 5000004.07997
6.623754 2.42 -4.42 5000004.03959
6.647982 2.12 -4.42 5000004.07997
6.647982 2.1 -4.42 5000004.07997
6.647982 2.08 -4.42 5000004.07997
6.623754 2.06 -4.42 5000004.03959
6.647982 2.08 -4.44 5000004.07997
6.623754 0.52 -4.44 5000004.03959
6.623754 2.48 -4.46 5000004.03959
6.623754 2.46 -4.46 5000004.03959
6.623754 0.34 -4.46 5000004.03959
6.623754 3.46 -4.48 5000004.03959
6.623754 2.46 -4.48 5000004.03959
6.623754 2.44 -4.48 5000004.03959
6.623754 -0.8 -4.48 5000004.03959
6.623754 3.34 -4.5 5000004.03959
6.623754 3.34 -4.52 5000004.03959
6.623754 3.32 -4.52 5000004.03959
6.776765999999999 3.68 -4.64 5000004.29461
6.623754 3.78 -4.76 5000004.03959
6.623754 3.88 -4.78 5000004.03959
6.623754 3.8 -4.78 5000004.03959
6.623754 3.78 -4.78 5000004.03959
6.623754 3.72 -4.78 5000004.03959
6.623754 3.68 -4.78 5000004.03959
6.623754 3.88 -4.8 5000004.03959
6.623754 3.86 -4.8 5000004.03959
6.623754 3.8 -4.8 5000004.03959
6.623754 3.82 -4.82 5000004.03959
6.623754 3.8 -4.82 5000004.03959
6.623754 3.82 -4.84 5000004.03959
6.623754 3.86 -4.86 5000004.03959
6.623754 3.84 -4.86 5000004.03959
2158 3.6 -3.86 5000004.38693
11.632158 3.52 -3.86 5000004.38693
11.472696000000001 5.12 -3.88 5000004.12116
11.472696000000001 5.1 -3.88 5000004.12116
11.472696000000001 4.96 -3.88 5000004.12116
11.472696000000001 4.94 -3.88 5000004.12116
11.472696000000001 4.92 -3.88 5000004.12116
11.472696000000001 4.9 -3.88 5000004.12116
11.472696000000001 4.88 -3.88 5000004.12116
11.472696000000001 4.86 -3.88 5000004.12116
11.49792 4.74 -3.88 5000004.1632
11.632158 3.58 -3.88 5000004.38693
11.472696000000001 4.94 -3.9 5000004.12116
11.472696000000001 4.92 -3.9 5000004.12116
11.472696000000001 4.9 -3.9 5000004.12116
11.472696000000001 4.88 -3.9 5000004.12116
11.472696000000001 4.86 -3.9 5000004.12116
11.423754 4.84 -3.9 5000004.03959
11.49792 4.52 -3.9 5000004.1632
11.632158 3.58 -3.9 5000004.38693
11.423754 5.18 -3.94 5000004.03959
11.423754 5.16 -3.94 5000004.03959
11.423754 5.18 -3.96 5000004.03959
11.423754 5.16 -3.96 5000004.03959
11.423754 4.94 -3.96 5000004.03959
11.423754 4.7 -3.96 5000004.03959
11.423754 4.68 -3.96 5000004.03959
11.49792 4.4 -3.96 5000004.1632
11.423754 5.16 -3.98 5000004.03959
11.423754 5.14 -3.98 5000004.03959
11.423754 4.68 -3.98 5000004.03959
11.423754 4.66 -3.98 5000004.03959
11.49792 3.88 -3.98 5000004.1632
11.68998 -2.52 -3.98 5000004.4833
11.632158 -6.7 -3.98 5000004.38693
11.632158 -6.72 -3.98 5000004.38693
11.423754 4.92 -4.0 5000004.03959
11.423754 4.9 -4.0 5000004.03959
11.49792 3.88 -4.0 5000004.1632
11.52366 3.64 -4.0 5000004.2061
11.632158 -6.74 -4.0 5000004.38693
11.423754 5.02 -4.02 5000004.03959
11.423754 4.9 -4.02 5000004.03959
11.447982 4.46 -4.02 5000004.07997
11.52366 3.68 -4.02 5000004.2061
11.423754 5.04 -4.04 5000004.03959
11.423754 4.58 -4.04 5000004.03959
11.423754 4.56 -4.04 5000004.03959
11.423754 4.46 -4.04 5000004.03959
11.423754 5.04 -4.06 5000004.03959
11.423754 5.0 -4.06 5000004.03959
11.423754 4.98 -4.06 5000004.03959
11.423754 4.56 -4.06 5000004.03959
11.423754 4.46 -4.06 5000004.03959
11.423754 4.66 -4.08 5000004.03959
11.423754 4.46 -4.08 5000004.03959
11.423754 4.44 -4.08 5000004.03959
11.49792 3.42 -4.08 5000004.1632
11.423754 3.8 -4.1 5000004.03959
11.423754 3.78 -4.1 5000004.03959
11.423754 3.76 -4.1 5000004.03959
11.447982 3.5 -4.1 5000004.07997
11.632158 2.48 -4.1 5000004.38693
11.632158 2.46 -4.1 5000004.38693
11.632158 2.22 -4.1 5000004.38693
11.447982 3.48 -4.12 5000004.07997
11.472696000000001 3.46 -4.12 5000004.12116
11.604168 2.44 -4.12 5000004.34028
11.604168 2.42 -4.12 5000004.34028
11.632158 2.18 -4.12 5000004.38693
11.604168 -1.8 -4.12 5000004.34028
11.604168 -1.82 -4.12 5000004.34028
11.604168 2.4 -4.14 5000004.34028
11.604168 2.38 -4.14 5000004.34028
11.576766 -2.14 -4.14 5000004.29461
11.576766 -2.16 -4.14 5000004.29461
11.604168 2.38 -4.16 5000004.34028
11.604168 2.36 -4.16 5000004.34028
11.576766 -2.14 -4.16 5000004.29461
11.576766 -2.16 -4.16 5000004.29461
11.576766 -2.18 -4.16 5000004.29461
11.549934 -4.66 -4.16 5000004.24989
11.549934 -4.68 -4.16 5000004.24989
11.549934 -4.7 -4.16 5000004.24989
11.472696000000001 4.74 -4.18 5000004.12116
11.604168 2.34 -4.18 5000004.34028
11.549934 2.32 -4.18 5000004.24989
11.472696000000001 4.74 -4.2 5000004.12116
11.549934 2.2 -4.2 5000004.24989
11.549934 2.18 -4.2 5000004.24989
11.49792 3.38 -4.22 5000004.1632
11.472696000000001 2.12 -4.22 5000004.12116
11.52366 2.06 -4.22 5000004.2061
11.49792 3.38 -4.24 5000004.1632
11.49792 3.36 -4.24 5000004.1632
11.576766 1.42 -4.24 5000004.29461
11.49792 -2.18 -4.24 5000004.1632
11.49792 -2.2 -4.24 5000004.1632
11.49792 -2.22 -4.24 5000004.1632
11.49792 3.36 -4.26 5000004.1632
11.576766 1.4 -4.26 5000004.29461
11.472696000000001 2.08 -4.36 5000004.12116
11.472696000000001 2.06 -4.36 5000004.12116
11.447982 2.1 -4.38 5000004.07997
11.447982 2.06 -4.38 5000004.07997
11.447982 2.04 -4.38 5000004.07997
11.447982 2.12 -4.4 5000004.07997
11.423754 2.42 -4.42 5000004.03959
11.447982 2.12 -4.42 5000004.07997
11.447982 2.1 -4.42 5000004.07997
11.447982 2.08 -4.42 5000004.07997
11.423754 2.06 -4.42 5000004.03959
11.447982 2.08 -4.44 5000004.07997
11.423754 0.52 -4.44 5000004.03959
11.423754 2.48 -4.46 5000004.03959
11.423754 2.46 -4.46 5000004.03959
11.423754 0.34 -4.46 5000004.03959
11.423754 3.46 -4.48 5000004.03959
11.423754 2.46 -4.48 5000004.03959
11.423754 2.44 -4.48 5000004.03959
11.423754 -0.8 -4.48 5000004.03959
11.423754 3.34 -4.5 5000004.03959
11.423754 3.34 -4.52 5000004.03959
11.423754 3.32 -4.52 5000004.03959
11.576766 3.68 -4.64 5000004.29461
11.423754 3.78 -4.76 5000004.03959
11.423754 3.88 -4.78 5000004.03959
11.423754 3.8 -4.78 5000004.03959
11.423754 3.78 -4.78 5000004.03959
11.423754 3.72 -4.78 5000004.03959
11.423754 3.68 -4.78 5000004.03959
11.423754 3.88 -4.8 5000004.03959
11.423754 3.86 -4.8 5000004.03959
11.423754 3.8 -4.8 5000004.03959
11.423754 3.82 -4.82 5000004.03959
11.423754 3.8 -4.82 5000004.03959
11.423754 3.82 -4.84 5000004.03959
11.423754 3.86 -4.86 5000004.03959
11.423754 3.84 -4.86 5000004.03959
.615836 5.02 -4.02 5000004.03959
7.615836 4.9 -4.02 5000004.03959
7.631988 4.46 -4.02 5000004.07997
7.68244 3.68 -4.02 5000004.2061
7.615836 5.04 -4.04 5000004.03959
7.615836 4.58 -4.04 5000004.03959
7.615836 4.56 -4.04 5000004.03959
7.615836 4.46 -4.04 5000004.03959
7.615836 5.04 -4.06 5000004.03959
7.615836 5.0 -4.06 5000004.03959
7.615836 4.98 -4.06 5000004.03959
7.615836 4.56 -4.06 5000004.03959
7.615836 4.46 -4.06 5000004.03959
7.615836 4.66 -4.08 5000004.03959
7.615836 4.46 -4.08 5000004.03959
7.615836 4.44 -4.08 5000004.03959
7.66528 3.42 -4.08 5000004.1632
7.615836 3.8 -4.1 5000004.03959
7.615836 3.78 -4.1 5000004.03959
7.615836 3.76 -4.1 5000004.03959
7.631988 3.5 -4.1 5000004.07997
7.754772 2.48 -4.1 5000004.38693
7.754772 2.46 -4.1 5000004.38693
7.754772 2.22 -4.1 5000004.38693
7.631988 3.48 -4.12 5000004.07997
7.648464000000001 3.46 -4.12 5000004.12116
7.736111999999999 2.44 -4.12 5000004.34028
7.736111999999999 2.42 -4.12 5000004.34028
7.754772 2.18 -4.12 5000004.38693
7.736111999999999 -1.8 -4.12 5000004.34028
7.736111999999999 -1.82 -4.12 5000004.34028
7.736111999999999 2.4 -4.14 5000004.34028
7.736111999999999 2.38 -4.14 5000004.34028
7.7178439999999995 -2.14 -4.14 5000004.29461
7.7178439999999995 -2.16 -4.14 5000004.29461
7.736111999999999 2.38 -4.16 5000004.34028
7.736111999999999 2.36 -4.16 5000004.34028
7.7178439999999995 -2.14 -4.16 5000004.29461
7.7178439999999995 -2.16 -4.16 5000004.29461
7.7178439999999995 -2.18 -4.16 5000004.29461
7.699956 -4.66 -4.16 5000004.24989
7.699956 -4.68 -4.16 5000004.24989
7.699956 -4.7 -4.16 5000004.24989
7.648464000000001 4.74 -4.18 5000004.12116
7.736111999999999 2.34 -4.18 5000004.34028
7.699956 2.32 -4.18 5000004.24989
7.648464000000001 4.74 -4.2 5000004.12116
7.699956 2.2 -4.2 5000004.24989
7.699956 2.18 -4.2 5000004.24989
7.66528 3.38 -4.22 5000004.1632
7.648464000000001 2.12 -4.22 5000004.12116
7.68244 2.06 -4.22 5000004.2061
7.66528 3.38 -4.24 5000004.1632
7.66528 3.36 -4.24 5000004.1632
7.7178439999999995 1.42 -4.24 5000004.29461
7.66528 -2.18 -4.24 5000004.1632
7.66528 -2.2 -4.24 5000004.1632
7.66528 -2.22 -4.24 5000004.1632
7.66528 3.36 -4.26 5000004.1632
7.7178439999999995 1.4 -4.26 5000004.29461
7.648464000000001 2.08 -4.36 5000004.12116
7.648464000000001 2.06 -4.36 5000004.12116
7.631988 2.1 -4.38 5000004.07997
7.631988 2.06 -4.38 5000004.07997
7.631988 2.04 -4.38 5000004.07997
7.631988 2.12 -4.4 5000004.07997
7.615836 2.42 -4.42 5000004.03959
7.631988 2.12 -4.42 5000004.07997
7.631988 2.1 -4.42 5000004.07997
7.631988 2.08 -4.42 5000004.07997
7.615836 2.06 -4.42 5000004.03959
7.631988 2.08 -4.44 5000004.07997
7.615836 0.52 -4.44 5000004.03959
7.615836 2.48 -4.46 5000004.03959
7.615836 2.46 -4.46 5000004.03959
7.615836 0.34 -4.46 5000004.03959
7.615836 3.46 -4.48 5000004.03959
7.615836 2.46 -4.48 5000004.03959
7.615836 2.44 -4.48 5000004.03959
7.615836 -0.8 -4.48 5000004.03959
7.615836 3.34 -4.5 5000004.03959
7.615836 3.34 -4.52 5000004.03959
7.615836 3.32 -4.52 5000004.03959
7.7178439999999995 3.68 -4.64 5000004.29461
7.615836 3.78 -4.76 5000004.03959
7.615836 3.88 -4.78 5000004.03959
7.615836 3.8 -4.78 5000004.03959
7.615836 3.78 -4.78 5000004.03959
7.615836 3.72 -4.78 5000004.03959
7.615836 3.68 -4.78 5000004.03959
7.615836 3.88 -4.8 5000004.03959
7.615836 3.86 -4.8 5000004.03959
7.615836 3.8 -4.8 5000004.03959
7.615836 3.82 -4.82 5000004.03959
7.615836 3.8 -4.82 5000004.03959
7.615836 3.82 -4.84 5000004.03959
7.615836 3.86 -4.86 5000004.03959
7.615836 3.84 -4.86 5000004.03959
6667 3.6 5000022.6244
10.848176666666667 1.2 3.6 5000025.4453
10.848176666666667 1.1666666666666667 3.6 5000025.4453
10.848176666666667 0.9666666666666667 3.6 5000025.4453
11.50489 -2.1333333333333333 3.6 5000045.1467
13.367 -3.3666666666666667 3.6 5000101.01
10.388273333333334 -4.6 3.6 5000011.6482
10.388273333333334 -4.633333333333334 3.6 5000011.6482
11.692046666666666 2.6666666666666665 3.566666666666667 5000050.7614
11.692046666666666 2.6333333333333333 3.566666666666667 5000050.7614
11.692046666666666 2.6 3.566666666666667 5000050.7614
10.754146666666667 2.3666666666666667 3.566666666666667 5000022.6244
10.848176666666667 1.2 3.566666666666667 5000025.4453
10.848176666666667 1.1666666666666667 3.566666666666667 5000025.4453
10.848176666666667 0.9666666666666667 3.566666666666667 5000025.4453
11.355013333333334 -0.8333333333333334 3.566666666666667 5000040.6504
11.50489 -2.1333333333333333 3.566666666666667 5000045.1467
10.388273333333334 -4.6 3.566666666666667 5000011.6482
11.692046666666666 2.6 3.533333333333333 5000050.7614
11.932366666666667 2.566666666666667 3.533333333333333 5000057.971
10.848176666666667 1.2 3.533333333333333 5000025.4453
10.848176666666667 1.1666666666666667 3.533333333333333 5000025.4453
10.848176666666667 0.9666666666666667 3.533333333333333 5000025.4453
11.50489 -2.1333333333333333 3.533333333333333 5000045.1467
11.932366666666667 -13.233333333333333 3.533333333333333 5000057.971
11.932366666666667 -13.266666666666667 3.533333333333333 5000057.971
11.932366666666667 -13.3 3.533333333333333 5000057.971
11.692046666666666 -13.333333333333334 3.533333333333333 5000050.7614
10.848176666666667 1.2 3.5 5000025.4453
10.848176666666667 1.1666666666666667 3.5 5000025.4453
10.848176666666667 0.9666666666666667 3.5 5000025.4453
11.50489 -2.1333333333333333 3.5 5000045.1467
13.367 -3.3666666666666667 3.5 5000101.01
10.388273333333334 -4.633333333333334 3.5 5000011.6482
11.692046666666666 -13.033333333333333 3.5 5000050.7614
11.692046666666666 -13.066666666666666 3.5 5000050.7614
11.692046666666666 -13.1 3.5 5000050.7614
11.932366666666667 -13.233333333333333 3.5 5000057.971
11.932366666666667 -13.266666666666667 3.5 5000057.971
11.932366666666667 -13.3 3.5 5000057.971
11.692046666666666 -13.333333333333334 3.5 5000050.7614
10.754146666666667 2.3666666666666667 3.466666666666667 5000022.6244
10.754146666666667 2.3333333333333335 3.466666666666667 5000022.6244
10.754146666666667 2.033333333333333 3.466666666666667 5000022.6244
10.848176666666667 1.2 3.466666666666667 5000025.4453
10.848176666666667 1.1666666666666667 3.466666666666667 5000025.4453
10.848176666666667 0.9666666666666667 3.466666666666667 5000025.4453
12.252253333333334 -0.26666666666666666 3.466666666666667 5000067.5676
12.252253333333334 -0.3 3.466666666666667 5000067.5676
11.50489 -2.1333333333333333 3.466666666666667 5000045.1467
13.367 -3.3666666666666667 3.466666666666667 5000101.01
11.692046666666666 -3.6666666666666665 3.466666666666667 5000050.7614
10.388273333333334 -4.6 3.466666666666667 5000011.6482
10.388273333333334 -4.633333333333334 3.466666666666667 5000011.6482
11.692046666666666 -13.033333333333333 3.466666666666667 5000050.7614
11.692046666666666 -13.066666666666666 3.466666666666667 5000050.7614
11.692046666666666 -13.1 3.466666666666667 5000050.7614
11.50489 -13.133333333333333 3.466666666666667 5000045.1467
11.932366666666667 -13.233333333333333 3.466666666666667 5000057.971
11.932366666666667 -13.266666666666667 3.466666666666667 5000057.971
11.932366666666667 -13.3 3.466666666666667 5000057.971
11.50489 -13.366666666666667 3.466666666666667 5000045.1467
10.848176666666667 -13.4 3.466666666666667 5000025.4453
10.848176666666667 -13.433333333333334 3.466666666666667 5000025.4453
10.754146666666667 -13.466666666666667 3.466666666666667 5000022.6244
10.754146666666667 2.3333333333333335 3.433333333333333 5000022.6244
10.848176666666667 1.2 3.433333333333333 5000025.4453
10.848176666666667 1.1666666666666667 3.433333333333333 5000025.4453
10.848176666666667 0.9666666666666667 3.433333333333333 5000025.4453
11.50489 -2.1333333333333333 3.433333333333333 5000045.1467
11.50489 -3.8 3.433333333333333 5000045.1467
10.388273333333334 -4.633333333333334 3.433333333333333 5000011.6482
16.666666666666668 -12.933333333333334 3.433333333333333 5000200.0
11.932366666666667 -13.0 3.433333333333333 5000057.971
11.692046666666666 -13.033333333333333 3.433333333333333 5000050.7614
11.692046666666666 -13.066666666666666 3.433333333333333 5000050.7614
11.692046666666666 -13.1 3.433333333333333 5000050.7614
11.50489 -13.133333333333333 3.433333333333333 5000045.1467
11.932366666666667 -13.233333333333333 3.433333333333333 5000057.971
11.932366666666667 -13.266666666666667 3.433333333333333 5000057.971
11.932366666666667 -13.3 3.433333333333333 5000057.971
11.50489 -13.366666666666667 3.433333333333333 5000045.1467
11.232286666666667 -17.666666666666668 3.433333333333333 5000036.9686
10.754146666666667 2.3333333333333335 3.4 5000022.6244
10.754146666666667 1.8 3.4 5000022.6244
10.754146666666667 1.7666666666666666 3.4 5000022.6244
10.848176666666667 1.2 3.4 5000025.4453
10.848176666666667 1.1666666666666667 3.4 5000025.4453
10.848176666666667 0.9666666666666667 3.4 5000025.4453
11.932366666666667 -0.1 3.4 5000057.971
11.50489 -2.1333333333333333 3.4 5000045.1467
11.50489 -2.1666666666666665 3.4 5000045.1467
11.50489 -3.8 3.4 5000045.1467
10.388273333333334 -4.633333333333334 3.4 5000011.6482
11.692046666666666 -13.033333333333333 3.4 5000050.7614
11.692046666666666 -13.066666666666666 3.4 5000050.7614
11.692046666666666 -13.1 3.4 5000050.7614
11.932366666666667 -13.233333333333333 3.4 5000057.971
11.932366666666667 -13.266666666666667 3.4 5000057.971
10.754146666666667 2.3333333333333335 3.3666666666666667 5000022.6244
10.848176666666667 1.1666666666666667 3.3666666666666667 5000025.4453
10.848176666666667 0.9666666666666667 3.3666666666666667 5000025.4453
11.932366666666667 -0.1 3.3666666666666667 5000057.971
11.50489 -2.1333333333333333 3.3666666666666667 5000045.1467
11.50489 -2.1666666666666665 3.3666666666666667 5000045.1467
10.388273333333334 -4.633333333333334 3.3666666666666667 5000011.6482
10.754146666666667 2.3333333333333335 3.3333333333333335 5000022.6244
10.848176666666667 1.1666666666666667 3.3333333333333335 5000025.4453
10.848176666666667 1.0 3.3333333333333335 5000025.4453
10.848176666666667 0.9666666666666667 3.3333333333333335 5000025.4453
11.50489 -2.1333333333333333 3.3333333333333335 5000045.1467
11.50489 -17.066666666666666 3.3333333333333335 5000045.1467
10.754146666666667 2.3 3.3 5000022.6244
10.848176666666667 1.1666666666666667 3.3 5000025.4453
10.848176666666667 1.0 3.3 5000025.4453
10.848176666666667 0.9666666666666667 3.3 5000025.4453
11.50489 -2.1333333333333333 3.3 5000045.1467
12.252253333333334 -6.9 3.3 5000067.5676
10.754146666666667 2.3 3.2666666666666666 5000022.6244
10.754146666666667 1.7666666666666666 3.2666666666666666 5000022.6244
10.848176666666667 1.1666666666666667 3.2666666666666666 5000025.4453
10.848176666666667 1.0 3.2666666666666666 5000025.4453
10.848176666666667 0.9666666666666667 3.2666666666666666 5000025.4453
13.367 -5.933333333333334 3.2666666666666666 5000101.01
10.754146666666667 2.3 3.2333333333333334 5000022.6244
10.754146666666667 1.8 3.2333333333333334 5000022.6244
10.754146666666667 1.7666666666666666 3.2333333333333334 5000022.6244
10.848176666666667 1.1666666666666667 3.2333333333333334 5000025.4453
10.848176666666667 1.0 3.2333333333333334 5000025.4453
10.848176666666667 0.9666666666666667 3.2333333333333334 5000025.4453
11.692046666666666 -2.1333333333333333 3.2333333333333334 5000050.7614
10.388273333333334 -4.4 3.2333333333333334 5000011.6482
10.754146666666667 1.8 3.2 5000022.6244
10.848176666666667 1.1666666666666667 3.2 5000025.4453
10.848176666666667 0.9666666666666667 3.2 5000025.4453
11.692046666666666 -2.1333333333333333 3.2 5000050.7614
10.388273333333334 -4.4 3.2 5000011.6482
10.754146666666667 1.8 3.1666666666666665 5000022.6244
10.848176666666667 1.1666666666666667 3.1666666666666665 5000025.4453
10.848176666666667 0.9666666666666667 3.1666666666666665 5000025.4453
11.129943333333333 -1.8 3.1666666666666665 5000033.8983
11.692046666666666 -2.1333333333333333 3.1666666666666665 5000050.7614
10.388273333333334 -4.4 3.1666666666666665 5000011.6482
10.754146666666667 2.3 3.1333333333333333 5000022.6244
10.848176666666667 1.1666666666666667 3.1333333333333333 5000025.4453
11.232286666666667 -0.7666666666666667 3.1333333333333333 5000036.9686
11.129943333333333 -1.8 3.1333333333333333 5000033.8983
13.367 -5.933333333333334 3.1333333333333333 5000101.01
10.411776666666666 -16.266666666666666 3.1333333333333333 5000012.3533
10.754146666666667 2.3333333333333335 3.1 5000022.6244
10.754146666666667 2.3 3.1 5000022.6244
10.848176666666667 1.1666666666666667 3.1 5000025.4453
11.232286666666667 -0.7666666666666667 3.1 5000036.9686
11.355013333333334 -1.2333333333333334 3.1 5000040.6504
11.50489 -1.3666666666666667 3.1 5000045.1467
11.129943333333333 -1.8 3.1 5000033.8983
10.388273333333334 -4.4 3.1 5000011.6482
13.367 -5.933333333333334 3.1 5000101.01
10.42463 -16.166666666666668 3.1 5000012.7389
10.411776666666666 -16.2 3.1 5000012.3533
10.848176666666667 1.1666666666666667 3.066666666666667 5000025.4453
11.232286666666667 -0.7666666666666667 3.066666666666667 5000036.9686
11.355013333333334 -1.2333333333333334 3.066666666666667 5000040.6504
11.129943333333333 -1.8 3.066666666666667 5000033.8983
10.388273333333334 -4.4 3.066666666666667 5000011.6482
13.367 -5.933333333333334 3.066666666666667 5000101.01
13.367 -5.966666666666667 3.066666666666667 5000101.01
12.699056666666667 -6.233333333333333 3.066666666666667 5000080.9717
10.848176666666667 1.2 3.033333333333333 5000025.4453
10.848176666666667 1.1666666666666667 3.033333333333333 5000025.4453
11.129943333333333 -1.7666666666666666 3.033333333333333 5000033.8983
11.129943333333333 -1.8 3.033333333333333 5000033.8983
10.848176666666667 1.2 3.0 5000025.4453
10.848176666666667 1.1666666666666667 3.0 5000025.4453
10.848176666666667 1.0 3.0 5000025.4453
11.232286666666667 -0.8 3.0 5000036.9686
11.129943333333333 -1.8 3.0 5000033.8983
10.3775 -17.7 3.0 5000011.325
10.36731 -17.733333333333334 3.0 5000011.0193
10.754146666666667 1.8 2.966666666666667 5000022.6244
10.754146666666667 1.7666666666666666 2.966666666666667 5000022.6244
10.848176666666667 1.1666666666666667 2.966666666666667 5000025.4453
10.848176666666667 1.0 2.966666666666667 5000025.4453
11.129943333333333 -1.8 2.966666666666667 5000033.8983
10.388273333333334 -17.633333333333333 2.966666666666667 5000011.6482
10.36731 -17.733333333333334 2.966666666666667 5000011.0193
10.36731 -17.766666666666666 2.966666666666667 5000011.0193
10.36731 -17.8 2.966666666666667 5000011.0193
10.36731 -17.833333333333332 2.966666666666667 5000011.0193
10.754146666666667 1.7666666666666666 2.933333333333333 5000022.6244
10.848176666666667 1.0 2.933333333333333 5000025.4453
11.129943333333333 -1.8 2.933333333333333 5000033.8983
10.3775 -17.7 2.933333333333333 5000011.325
10.36731 -17.733333333333334 2.933333333333333 5000011.0193
10.36731 -17.766666666666666 2.933333333333333 5000011.0193
10.36731 -17.8 2.933333333333333 5000011.0193
10.36731 -17.833333333333332 2.933333333333333 5000011.0193
10.848176666666667 1.1666666666666667 2.9 5000025.4453
11.232286666666667 -1.8 2.9 5000036.9686
10.388273333333334 -4.633333333333334 2.9 5000011.6482
10.36731 -17.8 2.9 5000011.0193
10.36731 -17.833333333333332 2.9 5000011.0193
10.848176666666667 1.1666666666666667 2.8666666666666667 5000025.4453
10.848176666666667 1.0 2.8666666666666667 5000025.4453
11.355013333333334 -1.4666666666666666 2.8666666666666667 5000040.6504
11.232286666666667 -1.8 2.8666666666666667 5000036.9686
11.692046666666666 -3.6333333333333333 2.8666666666666667 5000050.7614
10.388273333333334 -4.6 2.8666666666666667 5000011.6482
10.388273333333334 -4.633333333333334 2.8666666666666667 5000011.6482
10.36731 -17.466666666666665 2.8666666666666667 5000011.0193
10.357653333333333 -17.6 2.8666666666666667 5000010.7296
10.36731 -17.633333333333333 2.8666666666666667 5000011.0193
10.754146666666667 1.8333333333333333 2.8333333333333335 5000022.6244
10.848176666666667 1.1666666666666667 2.8333333333333335 5000025.4453
10.848176666666667 1.0 2.8333333333333335 5000025.4453
11.232286666666667 -1.8 2.8333333333333335 5000036.9686
13.367 -3.3666666666666667 2.8333333333333335 5000101.01
10.36731 -17.466666666666665 2.8333333333333335 5000011.0193
10.36731 -17.5 2.8333333333333335 5000011.0193
10.357653333333333 -17.633333333333333 2.8333333333333335 5000010.7296
10.754146666666667 1.8333333333333333 2.8 5000022.6244
10.848176666666667 1.0 2.8 5000025.4453
11.355013333333334 -0.8333333333333334 2.8 5000040.6504
11.232286666666667 -1.8 2.8 5000036.9686
13.367 -3.3666666666666667 2.8 5000101.01
10.388273333333334 -4.6 2.8 5000011.6482
10.388273333333334 -4.633333333333334 2.8 5000011.6482
10.36731 -17.466666666666665 2.8 5000011.0193
10.357653333333333 -17.6 2.8 5000010.7296
10.357653333333333 -17.633333333333333 2.8 5000010.7296
10.36731 -17.766666666666666 2.8 5000011.0193
10.36731 -17.8 2.8 5000011.0193
10.754146666666667 2.466666666666667 2.7666666666666666 5000022.6244
10.754146666666667 1.8666666666666667 2.7666666666666666 5000022.6244
10.754146666666667 1.8333333333333333 2.7666666666666666 5000022.6244
11.355013333333334 -3.8 2.7666666666666666 5000040.6504
10.388273333333334 -4.6 2.7666666666666666 5000011.6482
10.388273333333334 -4.633333333333334 2.7666666666666666 5000011.6482
10.36731 -17.466666666666665 2.7666666666666666 5000011.0193
10.357653333333333 -17.6 2.7666666666666666 5000010.7296
10.357653333333333 -17.633333333333333 2.7666666666666666 5000010.7296
10.36731 -17.766666666666666 2.7666666666666666 5000011.0193
10.36731 -17.8 2.7666666666666666 5000011.0193
10.36731 -17.833333333333332 2.7666666666666666 5000011.0193
10.754146666666667 2.466666666666667 2.7333333333333334 5000022.6244
10.754146666666667 1.8666666666666667 2.7333333333333334 5000022.6244
10.754146666666667 1.8333333333333333 2.7333333333333334 5000022.6244
11.355013333333334 -1.1 2.7333333333333334 5000040.6504
13.367 -3.3666666666666667 2.7333333333333334 5000101.01
11.355013333333334 -3.8 2.7333333333333334 5000040.6504
10.388273333333334 -4.633333333333334 2.7333333333333334 5000011.6482
13.367 -10.633333333333333 2.7333333333333334 5000101.01
13.367 -10.666666666666666 2.7333333333333334 5000101.01
10.36731 -17.466666666666665 2.7333333333333334 5000011.0193
10.357653333333333 -17.6 2.7333333333333334 5000010.7296
10.357653333333333 -17.633333333333333 2.7333333333333334 5000010.7296
10.754146666666667 2.433333333333333 2.7 5000022.6244
10.754146666666667 1.8666666666666667 2.7 5000022.6244
10.754146666666667 1.8333333333333333 2.7 5000022.6244
11.232286666666667 -0.6333333333333333 2.7 5000036.9686
11.232286666666667 -1.8333333333333333 2.7 5000036.9686
11.355013333333334 -3.8 2.7 5000040.6504
11.692046666666666 -7.7 2.7 5000050.7614
11.50489 -7.766666666666667 2.7 5000045.1467
10.36731 -17.466666666666665 2.7 5000011.0193
10.357653333333333 -17.633333333333333 2.7 5000010.7296
11.232286666666667 3.1666666666666665 2.6666666666666665 5000036.9686
11.232286666666667 3.1333333333333333 2.6666666666666665 5000036.9686
10.71454 2.433333333333333 2.6666666666666665 5000021.4362
10.754146666666667 1.8666666666666667 2.6666666666666665 5000022.6244
10.754146666666667 1.8333333333333333 2.6666666666666665 5000022.6244
11.232286666666667 -1.8333333333333333 2.6666666666666665 5000036.9686
12.252253333333334 -7.6 2.6666666666666665 5000067.5676
12.252253333333334 -7.633333333333334 2.6666666666666665 5000067.5676
11.932366666666667 -7.666666666666667 2.6666666666666665 5000057.971
11.692046666666666 -7.7 2.6666666666666665 5000050.7614
11.50489 -7.733333333333333 2.6666666666666665 5000045.1467
11.50489 -7.766666666666667 2.6666666666666665 5000045.1467
12.699056666666667 -9.5 2.6666666666666665 5000080.9717
12.252253333333334 -9.8 2.6666666666666665 5000067.5676
12.252253333333334 -9.833333333333334 2.6666666666666665 5000067.5676
13.367 -10.366666666666667 2.6666666666666665 5000101.01
10.411776666666666 -16.233333333333334 2.6666666666666665 5000012.3533
10.357653333333333 -17.833333333333332 2.6666666666666665 5000010.7296
10.357653333333333 -17.866666666666667 2.6666666666666665 5000010.7296
10.754146666666667 1.8666666666666667 2.6333333333333333 5000022.6244
10.754146666666667 1.8333333333333333 2.6333333333333333 5000022.6244
11.692046666666666 0.13333333333333333 2.6333333333333333 5000050.7614
11.50489 -1.5 2.6333333333333333 5000045.1467
11.355013333333334 -3.8 2.6333333333333333 5000040.6504
12.252253333333334 -7.633333333333334 2.6333333333333333 5000067.5676
12.699056666666667 -9.5 2.6333333333333333 5000080.9717
12.699056666666667 -9.566666666666666 2.6333333333333333 5000080.9717
12.252253333333334 -9.8 2.6333333333333333 5000067.5676
12.252253333333334 -9.833333333333334 2.6333333333333333 5000067.5676
12.252253333333334 -9.866666666666667 2.6333333333333333 5000067.5676
13.367 -10.333333333333334 2.6333333333333333 5000101.01
10.411776666666666 -16.233333333333334 2.6333333333333333 5000012.3533
10.36731 -17.466666666666665 2.6333333333333333 5000011.0193
10.357653333333333 -17.833333333333332 2.6333333333333333 5000010.7296
10.357653333333333 -17.866666666666667 2.6333333333333333 5000010.7296
10.357653333333333 -17.9 2.6333333333333333 5000010.7296
11.232286666666667 3.2333333333333334 2.6 5000036.9686
10.754146666666667 1.8666666666666667 2.6 5000022.6244
10.754146666666667 1.8333333333333333 2.6 5000022.6244
11.692046666666666 0.13333333333333333 2.6 5000050.7614
11.50489 -3.8 2.6 5000045.1467
10.438306666666668 -15.7 2.6 5000013.1492
10.357653333333333 -17.433333333333334 2.6 5000010.7296
10.357653333333333 -17.833333333333332 2.6 5000010.7296
10.357653333333333 -17.866666666666667 2.6 5000010.7296
10.357653333333333 -17.9 2.6 5000010.7296
11.232286666666667 3.2333333333333334 2.566666666666667 5000036.9686
10.754146666666667 1.8666666666666667 2.566666666666667 5000022.6244
10.754146666666667 1.8333333333333333 2.566666666666667 5000022.6244
11.692046666666666 0.13333333333333333 2.566666666666667 5000050.7614
10.411776666666666 -16.2 2.566666666666667 5000012.3533
10.357653333333333 -17.466666666666665 2.566666666666667 5000010.7296
10.357653333333333 -17.633333333333333 2.566666666666667 5000010.7296
10.754146666666667 2.433333333333333 2.533333333333333 5000022.6244
10.754146666666667 1.8666666666666667 2.533333333333333 5000022.6244
11.692046666666666 0.13333333333333333 2.533333333333333 5000050.7614
10.411776666666666 -16.166666666666668 2.533333333333333 5000012.3533
10.411776666666666 -16.2 2.533333333333333 5000012.3533
10.3775 -16.333333333333332 2.533333333333333 5000011.325
10.36731 -17.433333333333334 2.533333333333333 5000011.0193
10.36731 -17.466666666666665 2.533333333333333 5000011.0193
10.357653333333333 -17.9 2.533333333333333 5000010.7296
10.754146666666667 1.8666666666666667 2.5 5000022.6244
11.692046666666666 0.13333333333333333 2.5 5000050.7614
11.355013333333334 -1.5 2.5 5000040.6504
11.50489 -3.8 2.5 5000045.1467
12.699056666666667 -7.966666666666667 2.5 5000080.9717
12.252253333333334 -8.0 2.5 5000067.5676
11.932366666666667 -8.033333333333333 2.5 5000057.971
11.932366666666667 -8.066666666666666 2.5 5000057.971
11.50489 -8.1 2.5 5000045.1467
11.50489 -8.133333333333333 2.5 5000045.1467
10.617283333333333 -8.4 2.5 5000018.5185
10.617283333333333 -8.433333333333334 2.5 5000018.5185
10.522466666666666 -8.533333333333333 2.5 5000015.674
10.411776666666666 -16.2 2.5 5000012.3533
10.36731 -17.433333333333334 2.5 5000011.0193
10.36731 -17.466666666666665 2.5 5000011.0193
10.388273333333334 -17.766666666666666 2.5 5000011.6482
10.357653333333333 -17.866666666666667 2.5 5000010.7296
10.357653333333333 -17.9 2.5 5000010.7296
10.754146666666667 1.8666666666666667 2.466666666666667 5000022.6244
11.50489 1.3666666666666667 2.466666666666667 5000045.1467
11.692046666666666 0.13333333333333333 2.466666666666667 5000050.7614
12.699056666666667 -7.966666666666667 2.466666666666667 5000080.9717
11.932366666666667 -8.066666666666666 2.466666666666667 5000057.971
11.50489 -8.1 2.466666666666667 5000045.1467
11.50489 -8.133333333333333 2.466666666666667 5000045.1467
10.617283333333333 -8.4 2.466666666666667 5000018.5185
10.617283333333333 -8.433333333333334 2.466666666666667 5000018.5185
10.590493333333333 -8.466666666666667 2.466666666666667 5000017.7148
10.522466666666666 -8.5 2.466666666666667 5000015.674
10.522466666666666 -8.533333333333333 2.466666666666667 5000015.674
10.522466666666666 -8.566666666666666 2.466666666666667 5000015.674
10.438306666666668 -15.333333333333334 2.466666666666667 5000013.1492
10.438306666666668 -15.366666666666667 2.466666666666667 5000013.1492
10.36731 -17.433333333333334 2.466666666666667 5000011.0193
10.357653333333333 -17.633333333333333 2.466666666666667 5000010.7296
10.357653333333333 -17.866666666666667 2.466666666666667 5000010.7296
10.357653333333333 -17.9 2.466666666666667 5000010.7296
11.232286666666667 3.066666666666667 2.433333333333333 5000036.9686
10.71454 2.466666666666667 2.433333333333333 5000021.4362
10.754146666666667 1.8666666666666667 2.433333333333333 5000022.6244
11.50489 1.3666666666666667 2.433333333333333 5000045.1467
11.692046666666666 0.13333333333333333 2.433333333333333 5000050.7614
11.50489 -3.8 2.433333333333333 5000045.1467
10.438306666666668 -15.333333333333334 2.433333333333333 5000013.1492
10.4529 -15.566666666666666 2.433333333333333 5000013.587
10.3775 -16.3 2.433333333333333 5000011.325
10.36731 -17.4 2.433333333333333 5000011.0193
10.36731 -17.433333333333334 2.433333333333333 5000011.0193
10.357653333333333 -17.633333333333333 2.433333333333333 5000010.7296
10.357653333333333 -17.866666666666667 2.433333333333333 5000010.7296
10.357653333333333 -17.9 2.433333333333333 5000010.7296
10.71454 2.466666666666667 2.4 5000021.4362
10.754146666666667 1.8666666666666667 2.4 5000022.6244
10.754146666666667 1.8333333333333333 2.4 5000022.6244
11.50489 1.3666666666666667 2.4 5000045.1467
11.692046666666666 0.13333333333333333 2.4 5000050.7614
10.4529 -15.5 2.4 5000013.587
10.4529 -15.533333333333333 2.4 5000013.587
10.4529 -15.566666666666666 2.4 5000013.587
10.36731 -17.4 2.4 5000011.0193
10.36731 -17.433333333333334 2.4 5000011.0193
10.357653333333333 -17.9 2.4 5000010.7296
10.754146666666667 1.8666666666666667 2.3666666666666667 5000022.6244
11.50489 1.3666666666666667 2.3666666666666667 5000045.1467
11.692046666666666 0.13333333333333333 2.3666666666666667 5000050.7614
10.4529 -15.533333333333333 2.3666666666666667 5000013.587
10.4529 -15.566666666666666 2.3666666666666667 5000013.587
10.438306666666668 -15.7 2.3666666666666667 5000013.1492
10.357653333333333 -17.633333333333333 2.3666666666666667 5000010.7296
10.357653333333333 -17.9 2.3666666666666667 5000010.7296
11.232286666666667 3.066666666666667 2.3333333333333335 5000036.9686
10.754146666666667 1.8666666666666667 2.3333333333333335 5000022.6244
11.50489 1.3666666666666667 2.3333333333333335 5000045.1467
11.692046666666666 0.13333333333333333 2.3333333333333335 5000050.7614
11.129943333333333 -1.8666666666666667 2.3333333333333335 5000033.8983
10.468493333333333 -15.233333333333333 2.3333333333333335 5000014.0548
10.468493333333333 -15.266666666666667 2.3333333333333335 5000014.0548
10.411776666666666 -15.366666666666667 2.3333333333333335 5000012.3533
10.411776666666666 -15.4 2.3333333333333335 5000012.3533
10.357653333333333 -17.633333333333333 2.3333333333333335 5000010.7296
10.357653333333333 -17.766666666666666 2.3333333333333335 5000010.7296
10.754146666666667 2.4 2.3 5000022.6244
10.754146666666667 1.8666666666666667 2.3 5000022.6244
11.50489 1.3666666666666667 2.3 5000045.1467
11.129943333333333 -1.8666666666666667 2.3 5000033.8983
10.468493333333333 -15.2 2.3 5000014.0548
10.468493333333333 -15.233333333333333 2.3 5000014.0548
10.411776666666666 -15.366666666666667 2.3 5000012.3533
10.357653333333333 -17.633333333333333 2.3 5000010.7296
10.754146666666667 2.4 2.2666666666666666 5000022.6244
10.754146666666667 1.8666666666666667 2.2666666666666666 5000022.6244
11.50489 1.3666666666666667 2.2666666666666666 5000045.1467
11.129943333333333 -2.1333333333333333 2.2666666666666666 5000033.8983
11.129943333333333 -2.1666666666666665 2.2666666666666666 5000033.8983
10.468493333333333 -15.166666666666666 2.2666666666666666 5000014.0548
10.357653333333333 -17.633333333333333 2.2666666666666666 5000010.7296
10.357653333333333 -17.666666666666668 2.2666666666666666 5000010.7296
10.754146666666667 2.4 2.2333333333333334 5000022.6244
10.754146666666667 1.8666666666666667 2.2333333333333334 5000022.6244
10.468493333333333 -15.1 2.2333333333333334 5000014.0548
10.468493333333333 -15.133333333333333 2.2333333333333334 5000014.0548
10.357653333333333 -17.633333333333333 2.2333333333333334 5000010.7296
10.357653333333333 -17.666666666666668 2.2333333333333334 5000010.7296
10.754146666666667 1.8666666666666667 2.2 5000022.6244
10.754146666666667 1.8333333333333333 2.2 5000022.6244
10.4852 -15.066666666666666 2.2 5000014.556
10.468493333333333 -15.1 2.2 5000014.0548
10.357653333333333 -17.633333333333333 2.2 5000010.7296
10.754146666666667 1.8333333333333333 2.1666666666666665 5000022.6244
10.754146666666667 1.8 2.1666666666666665 5000022.6244
10.357653333333333 -17.633333333333333 2.1666666666666665 5000010.7296
10.357653333333333 -17.666666666666668 2.1666666666666665 5000010.7296
10.617283333333333 -14.1 2.1333333333333333 5000018.5185
10.357653333333333 -17.633333333333333 2.1333333333333333 5000010.7296
10.357653333333333 -17.666666666666668 2.1333333333333333 5000010.7296
10.357653333333333 -17.7 2.1333333333333333 5000010.7296
10.357653333333333 -17.733333333333334 2.1333333333333333 5000010.7296
10.3775 -16.733333333333334 2.1 5000011.325
10.357653333333333 -17.666666666666668 2.1 5000010.7296
10.357653333333333 -17.7 2.1 5000010.7296
10.357653333333333 -17.733333333333334 2.1 5000010.7296
10.754146666666667 1.6666666666666667 2.033333333333333 5000022.6244
10.4852 -15.0 2.033333333333333 5000014.556
10.904566666666666 2.8666666666666667 2.0 5000027.137
10.71454 2.433333333333333 2.0 5000021.4362
10.71454 2.4 2.0 5000021.4362
10.754146666666667 1.6666666666666667 2.0 5000022.6244
10.754146666666667 1.6333333333333333 2.0 5000022.6244
10.71454 2.4 1.9666666666666666 5000021.4362
10.71454 1.7333333333333334 1.9666666666666666 5000021.4362
10.71454 1.7333333333333334 1.9333333333333333 5000021.4362
10.754146666666667 1.7 1.9333333333333333 5000022.6244
10.754146666666667 2.0 1.9 5000022.6244
10.754146666666667 1.9333333333333333 1.9 5000022.6244
10.754146666666667 1.6666666666666667 1.9 5000022.6244
10.754146666666667 1.6333333333333333 1.9 5000022.6244
10.798403333333333 1.0333333333333334 1.9 5000023.9521
10.468493333333333 -15.033333333333333 1.9 5000014.0548
10.468493333333333 -15.066666666666666 1.9 5000014.0548
10.468493333333333 -15.033333333333333 1.8666666666666667 5000014.0548
10.4529 -15.2 1.8666666666666667 5000013.587
10.348493333333334 -17.866666666666667 1.8666666666666667 5000010.4548
10.468493333333333 -15.0 1.8333333333333333 5000014.0548
10.468493333333333 -15.033333333333333 1.8333333333333333 5000014.0548
10.798403333333333 0.9333333333333333 1.8 5000023.9521
10.468493333333333 -15.033333333333333 1.8 5000014.0548
10.798403333333333 0.9333333333333333 1.7666666666666666 5000023.9521
10.4529 -15.266666666666667 1.7666666666666666 5000013.587
10.468493333333333 -15.0 1.7333333333333334 5000014.0548
10.36731 -16.833333333333332 1.7 5000011.0193
10.36731 -16.866666666666667 1.7 5000011.0193
10.678886666666667 3.1 1.6666666666666667 5000020.3666
10.678886666666667 3.066666666666667 1.6666666666666667 5000020.3666
10.590493333333333 -13.966666666666667 1.6666666666666667 5000017.7148
10.590493333333333 -14.0 1.6666666666666667 5000017.7148
10.4529 -15.3 1.6666666666666667 5000013.587
10.388273333333334 -16.733333333333334 1.6666666666666667 5000011.6482
10.3775 -16.766666666666666 1.6666666666666667 5000011.325
10.3775 -16.8 1.6666666666666667 5000011.325
10.3775 -16.833333333333332 1.6666666666666667 5000011.325
10.36731 -16.866666666666667 1.6666666666666667 5000011.0193
10.4529 -15.3 1.6333333333333333 5000013.587
10.4529 -15.333333333333334 1.6333333333333333 5000013.587
10.388273333333334 -16.7 1.6333333333333333 5000011.6482
10.388273333333334 -16.733333333333334 1.6333333333333333 5000011.6482
10.3775 -16.766666666666666 1.6333333333333333 5000011.325
10.3775 -16.8 1.6333333333333333 5000011.325
10.36731 -16.833333333333332 1.6333333333333333 5000011.0193
10.36731 -17.033333333333335 1.6333333333333333 5000011.0193
10.468493333333333 -15.0 1.6 5000014.0548
10.4529 -15.2 1.6 5000013.587
10.388273333333334 -16.733333333333334 1.6 5000011.6482
10.3775 -16.766666666666666 1.6 5000011.325
10.36731 -17.066666666666666 1.6 5000011.0193
10.468493333333333 -15.0 1.5666666666666667 5000014.0548
10.388273333333334 -16.666666666666668 1.5666666666666667 5000011.6482
10.388273333333334 -16.7 1.5666666666666667 5000011.6482
10.388273333333334 -16.733333333333334 1.5666666666666667 5000011.6482
10.3775 -16.766666666666666 1.5666666666666667 5000011.325
10.36731 -17.1 1.5666666666666667 5000011.0193
10.357653333333333 -17.566666666666666 1.5666666666666667 5000010.7296
10.357653333333333 -17.6 1.5666666666666667 5000010.7296
10.348493333333334 -17.866666666666667 1.5666666666666667 5000010.4548
10.388273333333334 -16.7 1.5333333333333334 5000011.6482
10.39968 -4.6 1.5 5000011.9904
10.4529 -15.266666666666667 1.5 5000013.587
10.388273333333334 -16.666666666666668 1.5 5000011.6482
10.388273333333334 -16.7 1.5 5000011.6482
10.388273333333334 -16.733333333333334 1.5 5000011.6482
10.39968 -4.6 1.4666666666666666 5000011.9904
10.39968 -4.633333333333334 1.4666666666666666 5000011.9904
10.617283333333333 -4.733333333333333 1.4666666666666666 5000018.5185
10.56593 -13.933333333333334 1.4666666666666666 5000016.9779
10.56593 -14.033333333333333 1.4666666666666666 5000016.9779
10.56593 -14.066666666666666 1.4666666666666666 5000016.9779
10.4529 -15.233333333333333 1.4666666666666666 5000013.587
10.4529 -15.266666666666667 1.4666666666666666 5000013.587
10.411776666666666 -15.4 1.4666666666666666 5000012.3533
10.388273333333334 -16.666666666666668 1.4666666666666666 5000011.6482
10.388273333333334 -16.7 1.4666666666666666 5000011.6482
10.36731 -17.6 1.4666666666666666 5000011.0193
10.36731 -17.633333333333333 1.4666666666666666 5000011.0193
10.357653333333333 -17.833333333333332 1.4666666666666666 5000010.7296
10.357653333333333 -17.866666666666667 1.4666666666666666 5000010.7296
10.357653333333333 -17.9 1.4666666666666666 5000010.7296
10.388273333333334 -16.666666666666668 1.4333333333333333 5000011.6482
10.388273333333334 -16.7 1.4333333333333333 5000011.6482
10.357653333333333 -17.866666666666667 1.4333333333333333 5000010.7296
10.357653333333333 -17.9 1.4333333333333333 5000010.7296
10.388273333333334 -16.633333333333333 1.4 5000011.6482
10.388273333333334 -16.666666666666668 1.4 5000011.6482
10.388273333333334 -16.7 1.4 5000011.6482
10.3775 -17.0 1.4 5000011.325
10.388273333333334 -16.633333333333333 1.3666666666666667 5000011.6482
10.388273333333334 -16.666666666666668 1.3666666666666667 5000011.6482
10.388273333333334 -16.7 1.3666666666666667 5000011.6482
10.3775 -17.0 1.3666666666666667 5000011.325
10.36731 -17.2 1.3666666666666667 5000011.0193
10.54333 -12.5 1.3333333333333333 5000016.2999
10.468493333333333 -15.0 1.3333333333333333 5000014.0548
10.4529 -15.266666666666667 1.3333333333333333 5000013.587
10.4529 -15.3 1.3333333333333333 5000013.587
10.4529 -15.333333333333334 1.3333333333333333 5000013.587
10.388273333333334 -16.666666666666668 1.3333333333333333 5000011.6482
10.3775 -17.0 1.3333333333333333 5000011.325
10.54333 -12.5 1.3 5000016.2999
10.54333 -12.533333333333333 1.3 5000016.2999
10.4529 -15.3 1.3 5000013.587
10.388273333333334 -16.666666666666668 1.3 5000011.6482
10.3775 -16.8 1.3 5000011.325
