VERSION .7
FIELDS x y z rgb
SIZE 4 4 4 4
TYPE F F F F
COUNT 1 1 1 1
WIDTH 1606
HEIGHT 1
VIEWPOINT 0 0 0 1 0 0 0
POINTS 1606
DATA ascii
17.06172 5.6 1.22 21.4362
17.06172 5.56 1.22 21.4362
17.77464 5.06 1.22 22.6244
17.77464 4.92 1.22 22.6244
17.77464 4.9 1.22 22.6244
10.316220000000001 1.76 1.22 10.1937
10.316220000000001 1.62 1.22 10.1937
17.06172 5.94 1.2 21.4362
16.419959999999996 5.62 1.2 20.3666
17.77464 5.06 1.2 22.6244
17.77464 4.92 1.2 22.6244
18.57126 4.82 1.2 23.9521
10.316220000000001 1.76 1.2 10.1937
10.316220000000001 1.62 1.2 10.1937
15.83916 -5.26 1.2 19.3986
17.06172 5.94 1.18 21.4362
17.06172 5.62 1.18 21.4362
17.77464 5.06 1.18 22.6244
17.77464 4.92 1.18 22.6244
18.57126 4.82 1.18 23.9521
10.316220000000001 1.62 1.18 10.1937
17.06172 5.94 1.16 21.4362
17.06172 5.62 1.16 21.4362
17.77464 5.06 1.16 22.6244
17.77464 4.92 1.16 22.6244
18.57126 4.82 1.16 23.9521
10.316220000000001 1.62 1.16 10.1937
17.06172 5.94 1.14 21.4362
17.06172 5.64 1.14 21.4362
18.57126 5.42 1.14 23.9521
17.77464 5.06 1.14 22.6244
17.77464 4.92 1.14 22.6244
18.57126 4.82 1.14 23.9521
28.590239999999998 2.9 1.14 40.6504
10.316220000000001 1.62 1.14 10.1937
17.06172 5.64 1.12 21.4362
18.57126 5.42 1.12 23.9521
17.77464 5.06 1.12 22.6244
17.77464 4.92 1.12 22.6244
18.57126 4.82 1.12 23.9521
10.316220000000001 1.78 1.12 10.1937
10.316220000000001 1.62 1.12 10.1937
16.419959999999996 5.94 1.1 20.3666
17.06172 5.66 1.1 21.4362
17.06172 5.64 1.1 21.4362
17.77464 5.06 1.1 22.6244
17.77464 4.92 1.1 22.6244
18.57126 4.82 1.1 23.9521
10.316220000000001 1.78 1.1 10.1937
10.316220000000001 1.62 1.1 10.1937
16.419959999999996 5.94 1.08 20.3666
17.06172 5.66 1.08 21.4362
17.06172 5.64 1.08 21.4362
18.57126 5.52 1.08 23.9521
17.77464 5.06 1.08 22.6244
17.77464 4.92 1.08 22.6244
18.57126 4.82 1.08 23.9521
10.316220000000001 1.78 1.08 10.1937
10.316220000000001 1.62 1.08 10.1937
16.419959999999996 5.94 1.06 20.3666
16.419959999999996 5.66 1.06 20.3666
16.419959999999996 5.64 1.06 20.3666
18.57126 5.46 1.06 23.9521
17.77464 5.06 1.06 22.6244
17.77464 4.92 1.06 22.6244
18.57126 4.84 1.06 23.9521
18.57126 4.82 1.06 23.9521
10.472879999999998 1.78 1.06 10.4548
10.316220000000001 1.62 1.06 10.1937
17.06172 5.94 1.04 21.4362
16.419959999999996 5.66 1.04 20.3666
17.77464 4.92 1.04 22.6244
18.57126 4.84 1.04 23.9521
18.57126 4.82 1.04 23.9521
31.28802 2.9 1.04 45.1467
10.472879999999998 1.78 1.04 10.4548
10.316220000000001 1.62 1.04 10.1937
52.78302 0.78 1.04 80.9717
17.06172 5.94 1.02 21.4362
16.419959999999996 5.66 1.02 20.3666
18.57126 5.46 1.02 23.9521
17.77464 5.06 1.02 22.6244
17.77464 4.92 1.02 22.6244
18.57126 4.84 1.02 23.9521
18.57126 4.82 1.02 23.9521
10.472879999999998 1.78 1.02 10.4548
10.316220000000001 1.62 1.02 10.1937
16.419959999999996 5.66 1.0 20.3666
17.77464 5.06 1.0 22.6244
17.77464 4.92 1.0 22.6244
17.77464 4.84 1.0 22.6244
17.77464 4.82 1.0 22.6244
10.316220000000001 1.78 1.0 10.1937
16.419959999999996 5.64 0.98 20.3666
17.77464 5.06 0.98 22.6244
17.77464 4.92 0.98 22.6244
17.77464 4.84 0.98 22.6244
17.77464 4.82 0.98 22.6244
10.316220000000001 1.78 0.98 10.1937
10.316220000000001 1.62 0.98 10.1937
17.06172 5.66 0.96 21.4362
17.06172 5.64 0.96 21.4362
17.77464 5.06 0.96 22.6244
17.77464 4.92 0.96 22.6244
17.77464 4.84 0.96 22.6244
28.590239999999998 4.5 0.96 40.6504
10.316220000000001 1.78 0.96 10.1937
10.316220000000001 1.62 0.96 10.1937
18.57126 5.44 0.94 23.9521
17.77464 5.06 0.94 22.6244
17.77464 4.92 0.94 22.6244
17.77464 4.84 0.94 22.6244
10.316220000000001 1.78 0.94 10.1937
10.316220000000001 1.62 0.94 10.1937
17.77464 4.92 0.92 22.6244
17.77464 4.84 0.92 22.6244
17.77464 4.82 0.92 22.6244
10.316220000000001 1.78 0.92 10.1937
18.57126 5.52 0.9 23.9521
17.77464 4.92 0.9 22.6244
18.57126 4.84 0.9 23.9521
18.57126 4.82 0.9 23.9521
10.316220000000001 1.62 0.9 10.1937
18.57126 5.52 0.88 23.9521
17.77464 5.06 0.88 22.6244
17.77464 4.92 0.88 22.6244
18.57126 4.84 0.88 23.9521
18.57126 4.82 0.88 23.9521
22.97934 3.04 0.88 31.2989
31.28802 2.9 0.88 45.1467
10.316220000000001 1.78 0.88 10.1937
10.316220000000001 1.62 0.88 10.1937
17.77464 5.18 0.86 22.6244
17.77464 5.06 0.86 22.6244
17.77464 4.92 0.86 22.6244
18.57126 4.84 0.86 23.9521
31.28802 2.9 0.86 45.1467
10.316220000000001 1.62 0.86 10.1937
17.77464 5.18 0.84 22.6244
17.77464 5.06 0.84 22.6244
17.77464 4.94 0.84 22.6244
17.77464 4.92 0.84 22.6244
18.57126 4.84 0.84 23.9521
31.28802 2.9 0.84 45.1467
10.316220000000001 1.62 0.84 10.1937
16.419959999999996 5.66 0.82 20.3666
16.419959999999996 5.64 0.82 20.3666
16.419959999999996 5.62 0.82 20.3666
18.57126 5.54 0.82 23.9521
18.57126 5.52 0.82 23.9521
17.77464 5.06 0.82 22.6244
17.77464 4.94 0.82 22.6244
18.57126 4.84 0.82 23.9521
31.28802 2.9 0.82 45.1467
10.316220000000001 1.62 0.82 10.1937
17.06172 5.94 0.8 21.4362
16.419959999999996 5.64 0.8 20.3666
18.57126 5.54 0.8 23.9521
18.57126 5.52 0.8 23.9521
18.57126 5.44 0.8 23.9521
17.77464 4.94 0.8 22.6244
17.77464 4.92 0.8 22.6244
18.57126 4.84 0.8 23.9521
10.316220000000001 1.62 0.8 10.1937
20.4822 -6.48 0.8 27.137
17.06172 5.94 0.78 21.4362
18.57126 5.54 0.78 23.9521
18.57126 5.44 0.78 23.9521
17.77464 4.94 0.78 22.6244
18.57126 4.84 0.78 23.9521
10.316220000000001 1.62 0.78 10.1937
15.83916 -5.28 0.78 19.3986
17.06172 5.94 0.76 21.4362
18.57126 5.44 0.76 23.9521
17.77464 4.94 0.76 22.6244
18.57126 4.84 0.76 23.9521
31.28802 2.9 0.76 45.1467
10.316220000000001 1.62 0.76 10.1937
17.06172 5.94 0.74 21.4362
18.57126 5.44 0.74 23.9521
18.57126 5.06 0.74 23.9521
18.57126 4.84 0.74 23.9521
31.28802 2.92 0.74 45.1467
31.28802 2.9 0.74 45.1467
52.78302 0.9 0.74 80.9717
17.06172 5.54 0.72 21.4362
17.77464 4.94 0.72 22.6244
17.77464 4.92 0.72 22.6244
18.57126 4.84 0.72 23.9521
10.316220000000001 1.62 0.72 10.1937
52.78302 0.9 0.72 80.9717
17.06172 5.54 0.7 21.4362
17.77464 4.94 0.7 22.6244
17.77464 4.92 0.7 22.6244
18.57126 4.84 0.7 23.9521
10.316220000000001 1.78 0.7 10.1937
52.78302 0.9 0.7 80.9717
84.7368 -0.52 0.7 134.228
16.419959999999996 5.94 0.68 20.3666
17.06172 5.54 0.68 21.4362
17.77464 5.18 0.68 22.6244
18.57126 5.08 0.68 23.9521
17.77464 5.06 0.68 22.6244
18.57126 5.02 0.68 23.9521
17.77464 4.94 0.68 22.6244
18.57126 4.84 0.68 23.9521
10.316220000000001 1.78 0.68 10.1937
52.78302 0.9 0.68 80.9717
17.77464 5.54 0.66 22.6244
17.77464 5.18 0.66 22.6244
18.57126 5.08 0.66 23.9521
17.77464 5.06 0.66 22.6244
18.57126 5.02 0.66 23.9521
17.77464 4.94 0.66 22.6244
18.57126 4.84 0.66 23.9521
10.316220000000001 1.62 0.66 10.1937
52.78302 0.9 0.66 80.9717
17.77464 5.54 0.64 22.6244
17.77464 5.18 0.64 22.6244
17.77464 4.94 0.64 22.6244
18.57126 4.84 0.64 23.9521
10.316220000000001 1.62 0.64 10.1937
64.806 0.34 0.64 101.01
15.83916 -5.28 0.64 19.3986
17.77464 5.54 0.62 22.6244
18.57126 5.44 0.62 23.9521
17.77464 4.94 0.62 22.6244
18.57126 4.84 0.62 23.9521
10.316220000000001 1.64 0.62 10.1937
52.78302 1.08 0.62 80.9717
52.78302 0.9 0.62 80.9717
15.83916 -5.28 0.62 19.3986
17.77464 5.54 0.6 22.6244
18.57126 5.44 0.6 23.9521
17.77464 5.08 0.6 22.6244
17.77464 4.94 0.6 22.6244
18.57126 4.84 0.6 23.9521
52.78302 0.9 0.6 80.9717
64.806 0.34 0.6 101.01
17.77464 5.54 0.58 22.6244
18.57126 5.44 0.58 23.9521
17.77464 5.08 0.58 22.6244
17.77464 4.94 0.58 22.6244
18.57126 4.84 0.58 23.9521
10.16718 1.6 0.58 9.9453
52.78302 1.08 0.58 80.9717
52.78302 0.9 0.58 80.9717
64.806 0.34 0.58 101.01
18.57126 5.56 0.56 23.9521
18.57126 5.54 0.56 23.9521
18.57126 5.44 0.56 23.9521
17.77464 5.08 0.56 22.6244
17.77464 4.94 0.56 22.6244
18.57126 4.84 0.56 23.9521
22.97934 3.32 0.56 31.2989
44.74056 2.96 0.56 67.5676
10.16718 1.6 0.56 9.9453
64.806 0.34 0.56 101.01
16.419959999999996 5.94 0.54 20.3666
18.57126 5.54 0.54 23.9521
17.77464 4.94 0.54 22.6244
18.57126 4.84 0.54 23.9521
22.97934 3.32 0.54 31.2989
44.74056 2.96 0.54 67.5676
31.28802 1.86 0.54 45.1467
10.16718 1.6 0.54 9.9453
64.806 0.34 0.54 101.01
21.64188 -6.28 0.54 29.0698
20.4822 -6.3 0.54 27.137
20.4822 -6.32 0.54 27.137
16.419959999999996 5.94 0.52 20.3666
18.57126 5.54 0.52 23.9521
17.77464 5.18 0.52 22.6244
17.77464 4.94 0.52 22.6244
18.57126 4.84 0.52 23.9521
22.97934 3.32 0.52 31.2989
44.74056 2.96 0.52 67.5676
31.28802 1.86 0.52 45.1467
10.16718 1.62 0.52 9.9453
10.16718 1.6 0.52 9.9453
64.806 0.34 0.52 101.01
16.419959999999996 -5.26 0.52 20.3666
16.419959999999996 -5.28 0.52 20.3666
22.97934 -6.24 0.52 31.2989
22.97934 -6.26 0.52 31.2989
21.64188 -6.28 0.52 29.0698
20.4822 -6.32 0.52 27.137
19.467180000000003 -6.34 0.52 25.4453
18.57126 -6.38 0.52 23.9521
17.06172 -6.4 0.52 21.4362
17.06172 -6.42 0.52 21.4362
17.77464 5.18 0.5 22.6244
17.77464 5.08 0.5 22.6244
17.77464 5.06 0.5 22.6244
18.57126 4.84 0.5 23.9521
31.28802 1.86 0.5 45.1467
10.16718 1.62 0.5 9.9453
10.16718 1.6 0.5 9.9453
124.19999999999999 -6.04 0.5 200.0
24.53898 -6.22 0.5 33.8983
22.97934 -6.24 0.5 31.2989
22.97934 -6.26 0.5 31.2989
20.4822 -6.3 0.5 27.137
20.4822 -6.32 0.5 27.137
19.467180000000003 -6.34 0.5 25.4453
19.467180000000003 -6.36 0.5 25.4453
18.57126 -6.38 0.5 23.9521
17.06172 5.62 0.48 21.4362
17.77464 5.18 0.48 22.6244
17.77464 5.06 0.48 22.6244
31.28802 2.92 0.48 45.1467
31.28802 1.92 0.48 45.1467
31.28802 1.88 0.48 45.1467
31.28802 1.86 0.48 45.1467
10.316220000000001 1.62 0.48 10.1937
10.316220000000001 1.6 0.48 10.1937
20.4822 -6.32 0.48 27.137
19.467180000000003 -6.34 0.48 25.4453
17.77464 5.2 0.46 22.6244
17.77464 5.18 0.46 22.6244
18.57126 5.06 0.46 23.9521
31.28802 2.92 0.46 45.1467
31.28802 1.88 0.46 45.1467
31.28802 1.86 0.46 45.1467
10.316220000000001 1.62 0.46 10.1937
10.316220000000001 1.6 0.46 10.1937
17.77464 5.2 0.44 22.6244
17.77464 5.18 0.44 22.6244
18.57126 5.06 0.44 23.9521
31.28802 2.92 0.44 45.1467
38.9826 2.44 0.44 57.971
31.28802 1.88 0.44 45.1467
10.316220000000001 1.62 0.44 10.1937
10.316220000000001 1.6 0.44 10.1937
17.77464 5.2 0.42 22.6244
17.77464 5.18 0.42 22.6244
18.57126 5.06 0.42 23.9521
22.97934 3.34 0.42 31.2989
31.28802 2.92 0.42 45.1467
31.28802 1.88 0.42 45.1467
10.316220000000001 1.62 0.42 10.1937
10.316220000000001 1.6 0.42 10.1937
19.467180000000003 -6.32 0.42 25.4453
17.77464 5.62 0.4 22.6244
17.77464 5.2 0.4 22.6244
17.77464 5.18 0.4 22.6244
18.57126 5.06 0.4 23.9521
22.97934 3.34 0.4 31.2989
31.28802 2.92 0.4 45.1467
26.38116 2.6 0.4 36.9686
31.28802 1.88 0.4 45.1467
31.28802 1.86 0.4 45.1467
10.316220000000001 1.62 0.4 10.1937
10.316220000000001 1.6 0.4 10.1937
34.65684 -4.28 0.4 50.7614
31.28802 -4.3 0.4 45.1467
28.590239999999998 -4.32 0.4 40.6504
26.38116 -4.34 0.4 36.9686
26.38116 -4.36 0.4 36.9686
24.53898 -4.38 0.4 33.8983
22.97934 -4.4 0.4 31.2989
22.97934 -4.42 0.4 31.2989
21.64188 -4.44 0.4 29.0698
22.97934 -6.24 0.4 31.2989
22.97934 -6.26 0.4 31.2989
21.64188 -6.28 0.4 29.0698
20.4822 -6.3 0.4 27.137
19.467180000000003 -6.32 0.4 25.4453
19.467180000000003 -6.34 0.4 25.4453
18.57126 -6.36 0.4 23.9521
17.77464 -6.38 0.4 22.6244
17.77464 5.2 0.38 22.6244
17.77464 5.18 0.38 22.6244
18.57126 5.06 0.38 23.9521
22.97934 4.58 0.38 31.2989
31.28802 2.92 0.38 45.1467
31.28802 1.88 0.38 45.1467
10.316220000000001 1.62 0.38 10.1937
10.316220000000001 1.6 0.38 10.1937
28.590239999999998 -4.34 0.38 40.6504
26.38116 -4.36 0.38 36.9686
22.97934 -4.42 0.38 31.2989
84.7368 -6.02 0.38 134.228
84.7368 -6.04 0.38 134.228
64.806 -6.06 0.38 101.01
64.806 -6.08 0.38 101.01
44.74056 -6.1 0.38 67.5676
22.97934 -6.24 0.38 31.2989
21.64188 -6.28 0.38 29.0698
20.4822 -6.3 0.38 27.137
19.467180000000003 -6.32 0.38 25.4453
19.467180000000003 -6.34 0.38 25.4453
18.57126 -6.36 0.38 23.9521
17.77464 5.2 0.36 22.6244
17.77464 5.18 0.36 22.6244
18.57126 5.06 0.36 23.9521
22.97934 4.58 0.36 31.2989
22.97934 4.56 0.36 31.2989
24.53898 3.18 0.36 33.8983
64.806 2.98 0.36 101.01
31.28802 2.92 0.36 45.1467
52.78302 2.7 0.36 80.9717
26.38116 2.62 0.36 36.9686
26.38116 2.6 0.36 36.9686
26.38116 2.54 0.36 36.9686
31.28802 1.88 0.36 45.1467
10.316220000000001 1.62 0.36 10.1937
10.316220000000001 1.6 0.36 10.1937
64.806 0.84 0.36 101.01
22.97934 -4.42 0.36 31.2989
17.77464 5.2 0.34 22.6244
17.77464 5.18 0.34 22.6244
18.57126 5.06 0.34 23.9521
31.28802 2.92 0.34 45.1467
26.38116 2.62 0.34 36.9686
26.38116 2.6 0.34 36.9686
26.38116 2.54 0.34 36.9686
31.28802 1.88 0.34 45.1467
10.316220000000001 1.62 0.34 10.1937
10.316220000000001 1.6 0.34 10.1937
31.28802 -4.32 0.34 45.1467
22.97934 -4.42 0.34 31.2989
22.97934 -4.44 0.34 31.2989
17.77464 5.2 0.32 22.6244
17.77464 5.18 0.32 22.6244
18.57126 5.06 0.32 23.9521
31.28802 2.92 0.32 45.1467
31.28802 1.88 0.32 45.1467
64.806 0.84 0.32 101.01
52.78302 0.44 0.32 80.9717
34.65684 -4.32 0.32 50.7614
17.77464 5.2 0.3 22.6244
17.77464 5.18 0.3 22.6244
18.57126 5.06 0.3 23.9521
31.28802 2.92 0.3 45.1467
34.65684 2.82 0.3 50.7614
64.806 2.1 0.3 101.01
31.28802 1.88 0.3 45.1467
31.28802 1.86 0.3 45.1467
64.806 0.84 0.3 101.01
52.78302 0.44 0.3 80.9717
20.4822 -6.24 0.3 27.137
20.4822 -6.36 0.3 27.137
17.77464 5.2 0.28 22.6244
17.77464 5.18 0.28 22.6244
18.57126 5.06 0.28 23.9521
22.97934 3.18 0.28 31.2989
31.28802 2.92 0.28 45.1467
52.78302 0.44 0.28 80.9717
20.4822 -4.42 0.28 27.137
20.4822 -4.44 0.28 27.137
20.4822 -6.36 0.28 27.137
17.77464 5.2 0.26 22.6244
17.77464 5.18 0.26 22.6244
18.57126 5.06 0.26 23.9521
31.28802 2.92 0.26 45.1467
26.38116 2.6 0.26 36.9686
10.637759999999998 1.8 0.26 10.7296
52.78302 0.44 0.26 80.9717
52.78302 0.24 0.26 80.9717
124.19999999999999 -4.22 0.26 200.0
31.28802 -4.3 0.26 45.1467
28.590239999999998 -4.32 0.26 40.6504
28.590239999999998 -4.34 0.26 40.6504
22.97934 -4.38 0.26 31.2989
20.4822 -4.4 0.26 27.137
20.4822 -4.42 0.26 27.137
20.4822 -4.44 0.26 27.137
20.4822 -6.24 0.26 27.137
20.4822 -6.36 0.26 27.137
17.77464 5.2 0.24 22.6244
17.77464 5.18 0.24 22.6244
18.57126 5.06 0.24 23.9521
31.28802 2.92 0.24 45.1467
26.38116 2.6 0.24 36.9686
10.637759999999998 1.8 0.24 10.7296
64.806 0.84 0.24 101.01
52.78302 0.24 0.24 80.9717
124.19999999999999 -4.22 0.24 200.0
28.590239999999998 -4.32 0.24 40.6504
28.590239999999998 -4.34 0.24 40.6504
20.4822 -4.42 0.24 27.137
20.4822 -6.24 0.24 27.137
20.4822 -6.36 0.24 27.137
17.77464 5.2 0.22 22.6244
17.77464 5.18 0.22 22.6244
18.57126 5.08 0.22 23.9521
18.57126 5.06 0.22 23.9521
31.28802 2.92 0.22 45.1467
26.38116 2.6 0.22 36.9686
52.78302 0.44 0.22 80.9717
26.38116 -4.34 0.22 36.9686
26.38116 -4.36 0.22 36.9686
21.64188 -4.4 0.22 29.0698
21.64188 -4.42 0.22 29.0698
17.77464 5.2 0.2 22.6244
17.77464 5.18 0.2 22.6244
18.57126 5.08 0.2 23.9521
18.57126 5.06 0.2 23.9521
31.28802 2.92 0.2 45.1467
28.590239999999998 1.84 0.2 40.6504
52.78302 0.44 0.2 80.9717
26.38116 -4.34 0.2 36.9686
24.53898 -4.36 0.2 33.8983
24.53898 -4.38 0.2 33.8983
22.97934 -4.4 0.2 31.2989
20.4822 -6.2 0.2 27.137
20.4822 -6.4 0.2 27.137
26.38116 -6.6 0.2 36.9686
18.57126 5.2 0.18 23.9521
18.57126 5.18 0.18 23.9521
18.57126 5.08 0.18 23.9521
18.57126 5.06 0.18 23.9521
31.28802 2.92 0.18 45.1467
26.38116 2.6 0.18 36.9686
52.78302 0.44 0.18 80.9717
26.38116 -4.34 0.18 36.9686
24.53898 -4.38 0.18 33.8983
22.97934 -4.4 0.18 31.2989
17.77464 5.2 0.16 22.6244
17.77464 5.18 0.16 22.6244
18.57126 5.08 0.16 23.9521
18.57126 5.06 0.16 23.9521
26.38116 4.28 0.16 36.9686
31.28802 2.92 0.16 45.1467
64.806 1.78 0.16 101.01
24.53898 -4.38 0.16 33.8983
17.77464 5.2 0.14 22.6244
17.77464 5.18 0.14 22.6244
18.57126 5.08 0.14 23.9521
18.57126 5.06 0.14 23.9521
26.38116 3.76 0.14 36.9686
31.28802 2.92 0.14 45.1467
10.16718 1.78 0.14 9.9453
17.77464 5.2 0.12 22.6244
18.57126 5.08 0.12 23.9521
18.57126 5.06 0.12 23.9521
31.28802 2.92 0.12 45.1467
31.28802 2.82 0.12 45.1467
17.77464 5.2 0.1 22.6244
18.57126 5.08 0.1 23.9521
18.57126 5.06 0.1 23.9521
22.97934 3.32 0.1 31.2989
31.28802 2.92 0.1 45.1467
31.28802 2.82 0.1 45.1467
26.38116 2.5 0.1 36.9686
10.16718 1.78 0.1 9.9453
38.9826 -3.96 0.1 57.971
38.9826 -3.98 0.1 57.971
38.9826 -4.0 0.1 57.971
17.06172 5.64 0.08 21.4362
17.77464 5.2 0.08 22.6244
18.57126 5.08 0.08 23.9521
18.57126 5.06 0.08 23.9521
22.97934 3.32 0.08 31.2989
31.28802 2.92 0.08 45.1467
26.38116 2.6 0.08 36.9686
31.28802 1.88 0.08 45.1467
10.16718 1.78 0.08 9.9453
10.16718 1.64 0.08 9.9453
34.65684 -3.86 0.08 50.7614
34.65684 -3.88 0.08 50.7614
34.65684 -3.9 0.08 50.7614
38.9826 -3.96 0.08 57.971
38.9826 -3.98 0.08 57.971
38.9826 -4.0 0.08 57.971
34.65684 -4.02 0.08 50.7614
16.419959999999996 5.64 0.06 20.3666
17.77464 5.2 0.06 22.6244
18.57126 5.08 0.06 23.9521
18.57126 5.06 0.06 23.9521
22.97934 3.32 0.06 31.2989
31.28802 2.92 0.06 45.1467
31.28802 2.82 0.06 45.1467
26.38116 2.6 0.06 36.9686
31.28802 1.9 0.06 45.1467
31.28802 1.88 0.06 45.1467
10.16718 1.64 0.06 9.9453
84.7368 -1.62 0.06 134.228
34.65684 -3.86 0.06 50.7614
34.65684 -3.88 0.06 50.7614
34.65684 -3.9 0.06 50.7614
34.65684 -3.92 0.06 50.7614
38.9826 -3.96 0.06 57.971
38.9826 -3.98 0.06 57.971
34.65684 -4.0 0.06 50.7614
34.65684 -4.02 0.06 50.7614
31.28802 -4.04 0.06 45.1467
20.4822 -4.06 0.06 27.137
16.419959999999996 5.64 0.04 20.3666
16.419959999999996 5.62 0.04 20.3666
17.77464 5.2 0.04 22.6244
18.57126 5.08 0.04 23.9521
18.57126 5.06 0.04 23.9521
38.9826 4.9 0.04 57.971
31.28802 2.92 0.04 45.1467
124.19999999999999 -3.8 0.04 200.0
34.65684 -3.86 0.04 50.7614
34.65684 -3.88 0.04 50.7614
34.65684 -3.9 0.04 50.7614
34.65684 -3.92 0.04 50.7614
38.9826 -3.96 0.04 57.971
38.9826 -3.98 0.04 57.971
34.65684 -4.0 0.04 50.7614
31.28802 -4.04 0.04 45.1467
26.38116 -6.68 0.04 36.9686
16.419959999999996 5.62 0.02 20.3666
17.77464 5.2 0.02 22.6244
17.77464 5.08 0.02 22.6244
17.77464 5.06 0.02 22.6244
31.28802 2.92 0.02 45.1467
31.28802 1.9 0.02 45.1467
84.7368 -1.78 0.02 134.228
34.65684 -3.86 0.02 50.7614
34.65684 -3.88 0.02 50.7614
34.65684 -3.9 0.02 50.7614
34.65684 -3.92 0.02 50.7614
38.9826 -3.96 0.02 57.971
38.9826 -3.98 0.02 57.971
34.65684 -4.0 0.02 50.7614
34.65684 -4.02 0.02 50.7614
21.64188 -4.04 0.02 29.0698
17.06172 5.62 0.0 21.4362
17.06172 5.6 0.0 21.4362
17.77464 5.2 0.0 22.6244
17.77464 5.08 0.0 22.6244
17.77464 5.06 0.0 22.6244
31.28802 2.92 0.0 45.1467
31.28802 1.9 0.0 45.1467
38.9826 -3.98 0.0 57.971
17.06172 5.62 -0.02 21.4362
17.06172 5.6 -0.02 21.4362
17.77464 5.08 -0.02 22.6244
31.28802 2.92 -0.02 45.1467
31.28802 2.82 -0.02 45.1467
31.28802 1.9 -0.02 45.1467
52.78302 0.52 -0.02 80.9717
17.06172 5.62 -0.04 21.4362
18.57126 5.18 -0.04 23.9521
17.77464 5.08 -0.04 22.6244
31.28802 2.92 -0.04 45.1467
31.28802 1.9 -0.04 45.1467
52.78302 0.52 -0.04 80.9717
16.419959999999996 5.9 -0.06 20.3666
17.06172 5.64 -0.06 21.4362
17.06172 5.62 -0.06 21.4362
17.77464 5.08 -0.06 22.6244
31.28802 1.9 -0.06 45.1467
52.78302 0.52 -0.06 80.9717
17.06172 5.66 -0.08 21.4362
17.77464 5.08 -0.08 22.6244
52.78302 0.52 -0.08 80.9717
17.77464 5.08 -0.1 22.6244
26.38116 4.92 -0.1 36.9686
26.38116 3.82 -0.1 36.9686
24.53898 3.2 -0.1 33.8983
31.28802 2.92 -0.1 45.1467
64.806 1.28 -0.1 101.01
64.806 1.26 -0.1 101.01
52.78302 0.52 -0.1 80.9717
17.77464 5.08 -0.12 22.6244
17.77464 5.06 -0.12 22.6244
26.38116 4.94 -0.12 36.9686
26.38116 3.82 -0.12 36.9686
26.38116 3.72 -0.12 36.9686
24.53898 3.2 -0.12 33.8983
24.53898 3.18 -0.12 33.8983
31.28802 2.92 -0.12 45.1467
52.78302 0.52 -0.12 80.9717
17.77464 5.08 -0.14 22.6244
26.38116 4.94 -0.14 36.9686
26.38116 3.82 -0.14 36.9686
26.38116 3.72 -0.14 36.9686
28.590239999999998 3.52 -0.14 40.6504
28.590239999999998 3.44 -0.14 40.6504
24.53898 3.2 -0.14 33.8983
31.28802 2.92 -0.14 45.1467
52.78302 0.52 -0.14 80.9717
17.77464 5.2 -0.16 22.6244
17.77464 5.08 -0.16 22.6244
26.38116 4.94 -0.16 36.9686
26.38116 3.82 -0.16 36.9686
28.590239999999998 3.52 -0.16 40.6504
28.590239999999998 3.5 -0.16 40.6504
28.590239999999998 3.44 -0.16 40.6504
24.53898 3.2 -0.16 33.8983
31.28802 2.92 -0.16 45.1467
64.806 0.92 -0.16 101.01
52.78302 0.52 -0.16 80.9717
17.77464 5.2 -0.18 22.6244
17.77464 5.08 -0.18 22.6244
26.38116 4.94 -0.18 36.9686
26.38116 4.92 -0.18 36.9686
26.38116 3.8 -0.18 36.9686
28.590239999999998 3.5 -0.18 40.6504
28.590239999999998 3.44 -0.18 40.6504
24.53898 3.2 -0.18 33.8983
31.28802 2.92 -0.18 45.1467
64.806 1.28 -0.18 101.01
52.78302 0.52 -0.18 80.9717
16.419959999999996 5.9 -0.2 20.3666
16.419959999999996 5.64 -0.2 20.3666
17.77464 5.2 -0.2 22.6244
17.77464 5.08 -0.2 22.6244
26.38116 4.92 -0.2 36.9686
26.38116 3.8 -0.2 36.9686
22.97934 3.2 -0.2 31.2989
31.28802 2.92 -0.2 45.1467
28.590239999999998 1.9 -0.2 40.6504
64.806 1.26 -0.2 101.01
16.419959999999996 5.66 -0.22 20.3666
16.419959999999996 5.64 -0.22 20.3666
17.77464 5.2 -0.22 22.6244
17.77464 5.08 -0.22 22.6244
26.38116 3.8 -0.22 36.9686
28.590239999999998 3.4 -0.22 40.6504
22.97934 3.2 -0.22 31.2989
16.419959999999996 5.82 -0.24 20.3666
17.77464 5.08 -0.24 22.6244
22.97934 3.2 -0.24 31.2989
44.74056 1.76 -0.24 67.5676
16.419959999999996 -5.26 -0.24 20.3666
16.419959999999996 -5.28 -0.24 20.3666
10.316220000000001 -6.34 -0.24 10.1937
21.64188 5.3 -0.26 29.0698
21.64188 5.28 -0.26 29.0698
17.77464 5.08 -0.26 22.6244
26.38116 4.92 -0.26 36.9686
24.53898 4.6 -0.26 33.8983
22.97934 3.2 -0.26 31.2989
22.97934 3.18 -0.26 31.2989
44.74056 1.76 -0.26 67.5676
10.316220000000001 1.64 -0.26 10.1937
52.78302 -0.04 -0.26 80.9717
10.316220000000001 -6.3 -0.26 10.1937
16.419959999999996 5.86 -0.28 20.3666
17.06172 5.62 -0.28 21.4362
17.77464 5.2 -0.28 22.6244
17.77464 5.08 -0.28 22.6244
26.38116 4.92 -0.28 36.9686
24.53898 3.18 -0.28 33.8983
31.28802 1.9 -0.28 45.1467
10.316220000000001 1.64 -0.28 10.1937
17.06172 5.66 -0.3 21.4362
17.06172 5.64 -0.3 21.4362
17.77464 5.2 -0.3 22.6244
17.77464 5.08 -0.3 22.6244
31.28802 1.9 -0.3 45.1467
10.316220000000001 1.64 -0.3 10.1937
10.637759999999998 -6.52 -0.3 10.7296
17.06172 5.66 -0.32 21.4362
17.77464 5.08 -0.32 22.6244
28.590239999999998 3.16 -0.32 40.6504
31.28802 1.9 -0.32 45.1467
10.16718 1.64 -0.32 9.9453
17.06172 5.68 -0.34 21.4362
17.06172 5.66 -0.34 21.4362
17.77464 5.08 -0.34 22.6244
28.590239999999998 3.78 -0.34 40.6504
28.590239999999998 3.16 -0.34 40.6504
31.28802 1.9 -0.34 45.1467
10.16718 1.64 -0.34 9.9453
11.61198 -1.02 -0.34 12.3533
16.419959999999996 5.68 -0.36 20.3666
16.419959999999996 5.66 -0.36 20.3666
26.38116 4.92 -0.36 36.9686
31.28802 2.94 -0.36 45.1467
31.28802 1.9 -0.36 45.1467
10.16718 1.64 -0.36 9.9453
16.419959999999996 5.68 -0.38 20.3666
26.38116 4.92 -0.38 36.9686
28.590239999999998 3.9 -0.38 40.6504
28.590239999999998 3.62 -0.38 40.6504
31.28802 2.94 -0.38 45.1467
31.28802 1.9 -0.38 45.1467
10.16718 1.64 -0.38 9.9453
64.806 -2.32 -0.38 101.01
16.419959999999996 5.68 -0.4 20.3666
24.53898 5.04 -0.4 33.8983
26.38116 4.92 -0.4 36.9686
28.590239999999998 3.9 -0.4 40.6504
31.28802 2.94 -0.4 45.1467
31.28802 1.9 -0.4 45.1467
10.16718 1.64 -0.4 9.9453
31.28802 -0.48 -0.4 45.1467
64.806 -2.32 -0.4 101.01
64.806 -2.34 -0.4 101.01
10.472879999999998 -6.48 -0.4 10.4548
16.419959999999996 5.7 -0.42 20.3666
16.419959999999996 5.68 -0.42 20.3666
26.38116 4.92 -0.42 36.9686
24.53898 3.16 -0.42 33.8983
31.28802 2.94 -0.42 45.1467
10.16718 1.64 -0.42 9.9453
38.9826 -0.38 -0.42 57.971
31.28802 -0.46 -0.42 45.1467
52.78302 -1.6 -0.42 80.9717
52.78302 -1.62 -0.42 80.9717
52.78302 -1.64 -0.42 80.9717
10.472879999999998 -6.46 -0.42 10.4548
10.472879999999998 -6.48 -0.42 10.4548
16.419959999999996 5.7 -0.44 20.3666
16.419959999999996 5.68 -0.44 20.3666
26.38116 4.92 -0.44 36.9686
34.65684 4.34 -0.44 50.7614
24.53898 3.16 -0.44 33.8983
31.28802 2.94 -0.44 45.1467
31.28802 1.88 -0.44 45.1467
10.16718 1.64 -0.44 9.9453
52.78302 -0.36 -0.44 80.9717
38.9826 -0.38 -0.44 57.971
38.9826 -0.4 -0.44 57.971
31.28802 -0.42 -0.44 45.1467
31.28802 -0.44 -0.44 45.1467
31.28802 -0.46 -0.44 45.1467
52.78302 -1.6 -0.44 80.9717
52.78302 -1.64 -0.44 80.9717
44.74056 -1.78 -0.44 67.5676
44.74056 -1.8 -0.44 67.5676
38.9826 -1.82 -0.44 57.971
38.9826 -1.84 -0.44 57.971
17.77464 -1.86 -0.44 22.6244
16.419959999999996 5.86 -0.46 20.3666
16.419959999999996 5.68 -0.46 20.3666
26.38116 4.94 -0.46 36.9686
26.38116 4.92 -0.46 36.9686
34.65684 4.34 -0.46 50.7614
31.28802 2.94 -0.46 45.1467
31.28802 1.88 -0.46 45.1467
10.316220000000001 1.64 -0.46 10.1937
64.806 -1.58 -0.46 101.01
52.78302 -1.6 -0.46 80.9717
52.78302 -1.62 -0.46 80.9717
52.78302 -1.64 -0.46 80.9717
10.472879999999998 -6.46 -0.46 10.4548
16.419959999999996 5.86 -0.48 20.3666
16.419959999999996 5.68 -0.48 20.3666
26.38116 5.04 -0.48 36.9686
26.38116 4.92 -0.48 36.9686
34.65684 4.34 -0.48 50.7614
26.38116 3.8 -0.48 36.9686
31.28802 2.94 -0.48 45.1467
10.316220000000001 1.64 -0.48 10.1937
16.419959999999996 5.68 -0.5 20.3666
26.38116 5.04 -0.5 36.9686
26.38116 4.92 -0.5 36.9686
31.28802 4.62 -0.5 45.1467
34.65684 4.34 -0.5 50.7614
31.28802 2.94 -0.5 45.1467
31.28802 1.88 -0.5 45.1467
10.16718 1.64 -0.5 9.9453
17.06172 5.7 -0.52 21.4362
17.06172 5.68 -0.52 21.4362
26.38116 4.92 -0.52 36.9686
31.28802 4.72 -0.52 45.1467
31.28802 4.5 -0.52 45.1467
34.65684 4.34 -0.52 50.7614
31.28802 2.94 -0.52 45.1467
31.28802 1.88 -0.52 45.1467
10.16718 1.64 -0.52 9.9453
31.28802 -0.96 -0.52 45.1467
12.63288 -6.24 -0.52 14.0548
12.63288 -6.26 -0.52 14.0548
17.06172 5.7 -0.54 21.4362
17.06172 5.68 -0.54 21.4362
26.38116 4.92 -0.54 36.9686
34.65684 4.34 -0.54 50.7614
31.28802 2.94 -0.54 45.1467
31.28802 1.88 -0.54 45.1467
10.16718 1.64 -0.54 9.9453
64.806 -0.56 -0.54 101.01
44.74056 -0.58 -0.54 67.5676
44.74056 -0.6 -0.54 67.5676
34.65684 -0.62 -0.54 50.7614
31.28802 -0.64 -0.54 45.1467
28.590239999999998 -0.66 -0.54 40.6504
28.590239999999998 -0.68 -0.54 40.6504
28.590239999999998 -0.7 -0.54 40.6504
84.7368 -0.82 -0.54 134.228
52.78302 -0.84 -0.54 80.9717
38.9826 -0.88 -0.54 57.971
38.9826 -0.9 -0.54 57.971
34.65684 -0.92 -0.54 50.7614
31.28802 -0.94 -0.54 45.1467
31.28802 -0.96 -0.54 45.1467
11.394240000000002 -5.84 -0.54 11.9904
11.394240000000002 -5.86 -0.54 11.9904
17.06172 5.7 -0.56 21.4362
17.06172 5.68 -0.56 21.4362
26.38116 4.92 -0.56 36.9686
34.65684 4.34 -0.56 50.7614
64.806 2.48 -0.56 101.01
31.28802 1.88 -0.56 45.1467
10.16718 1.64 -0.56 9.9453
64.806 -0.56 -0.56 101.01
34.65684 -0.62 -0.56 50.7614
31.28802 -0.64 -0.56 45.1467
84.7368 -0.82 -0.56 134.228
52.78302 -0.84 -0.56 80.9717
17.06172 5.68 -0.58 21.4362
26.38116 4.92 -0.58 36.9686
34.65684 4.34 -0.58 50.7614
31.28802 1.88 -0.58 45.1467
10.16718 1.64 -0.58 9.9453
10.995 -6.0 -0.58 11.325
17.06172 5.68 -0.6 21.4362
26.38116 4.92 -0.6 36.9686
34.65684 4.34 -0.6 50.7614
10.16718 1.64 -0.6 9.9453
10.995 -5.76 -0.6 11.325
10.995 -5.78 -0.6 11.325
17.06172 5.68 -0.62 21.4362
26.38116 4.92 -0.62 36.9686
34.65684 4.34 -0.62 50.7614
26.38116 4.0 -0.62 36.9686
10.995 -5.76 -0.62 11.325
10.995 -5.78 -0.62 11.325
10.995 -5.8 -0.62 11.325
10.811580000000001 -5.82 -0.62 11.0193
11.18892 -5.92 -0.62 11.6482
16.419959999999996 5.84 -0.64 20.3666
17.06172 5.7 -0.64 21.4362
17.06172 5.68 -0.64 21.4362
26.38116 4.92 -0.64 36.9686
34.65684 4.34 -0.64 50.7614
10.995 -5.8 -0.64 11.325
10.811580000000001 -5.82 -0.64 11.0193
10.995 -5.92 -0.64 11.325
10.995 -5.94 -0.64 11.325
11.18892 -6.18 -0.64 11.6482
11.18892 -6.2 -0.64 11.6482
11.18892 -6.22 -0.64 11.6482
17.06172 5.68 -0.66 21.4362
26.38116 5.04 -0.66 36.9686
26.38116 4.92 -0.66 36.9686
24.53898 3.28 -0.66 33.8983
22.97934 3.16 -0.66 31.2989
10.025244 1.8 -0.66 9.70874
10.995 -5.9 -0.66 11.325
10.995 -5.92 -0.66 11.325
10.995 -5.94 -0.66 11.325
11.18892 -6.02 -0.66 11.6482
11.18892 -6.04 -0.66 11.6482
17.06172 5.7 -0.68 21.4362
17.06172 5.68 -0.68 21.4362
26.38116 4.92 -0.68 36.9686
24.53898 2.98 -0.68 33.8983
24.53898 2.96 -0.68 33.8983
10.025244 1.8 -0.68 9.70874
11.394240000000002 -5.68 -0.68 11.9904
11.394240000000002 -5.7 -0.68 11.9904
10.811580000000001 -5.76 -0.68 11.0193
10.811580000000001 -5.78 -0.68 11.0193
10.995 -5.92 -0.68 11.325
11.18892 -6.02 -0.68 11.6482
11.18892 -6.04 -0.68 11.6482
17.06172 5.7 -0.7 21.4362
17.06172 5.68 -0.7 21.4362
16.419959999999996 5.5 -0.7 20.3666
24.53898 2.96 -0.7 33.8983
10.025244 1.8 -0.7 9.70874
11.394240000000002 -5.68 -0.7 11.9904
16.419959999999996 5.68 -0.72 20.3666
16.419959999999996 5.5 -0.72 20.3666
11.394240000000002 -5.64 -0.72 11.9904
16.419959999999996 5.68 -0.74 20.3666
16.419959999999996 5.66 -0.74 20.3666
11.61198 -5.6 -0.74 12.3533
11.394240000000002 -5.62 -0.74 11.9904
16.419959999999996 5.9 -0.76 20.3666
16.419959999999996 5.66 -0.76 20.3666
16.419959999999996 5.64 -0.76 20.3666
24.53898 2.74 -0.76 33.8983
11.61198 -5.58 -0.76 12.3533
11.61198 -5.6 -0.76 12.3533
16.419959999999996 5.64 -0.78 20.3666
20.4822 5.42 -0.78 27.137
10.16718 1.64 -0.78 9.9453
14.386740000000001 -4.76 -0.78 16.9779
11.61198 -5.54 -0.78 12.3533
11.61198 -5.56 -0.78 12.3533
10.16718 1.64 -0.8 9.9453
10.16718 1.62 -0.8 9.9453
14.386740000000001 -4.74 -0.8 16.9779
14.386740000000001 -4.76 -0.8 16.9779
11.61198 -5.54 -0.8 12.3533
16.419959999999996 5.72 -0.82 20.3666
16.419959999999996 5.56 -0.82 20.3666
14.386740000000001 -4.74 -0.82 16.9779
11.61198 -5.52 -0.82 12.3533
16.419959999999996 5.56 -0.84 20.3666
16.419959999999996 5.54 -0.84 20.3666
12.3522 -4.9 -0.84 13.587
11.61198 -5.52 -0.84 12.3533
10.637759999999998 -6.28 -0.84 10.7296
16.419959999999996 5.56 -0.86 20.3666
16.419959999999996 5.54 -0.86 20.3666
12.933599999999998 -4.82 -0.86 14.556
10.637759999999998 -6.28 -0.86 10.7296
10.637759999999998 -6.3 -0.86 10.7296
16.419959999999996 5.62 -0.88 20.3666
16.419959999999996 5.54 -0.88 20.3666
16.419959999999996 5.86 -0.9 20.3666
16.419959999999996 5.6 -0.9 20.3666
16.419959999999996 5.8 -0.92 20.3666
16.419959999999996 5.74 -0.92 20.3666
16.419959999999996 5.58 -0.92 20.3666
16.419959999999996 5.56 -0.92 20.3666
17.77464 5.12 -0.92 22.6244
16.419959999999996 5.8 -0.94 20.3666
16.419959999999996 5.78 -0.94 20.3666
16.419959999999996 5.54 -0.94 20.3666
17.77464 5.1 -0.94 22.6244
17.77464 5.08 -0.96 22.6244
17.77464 5.06 -0.96 22.6244
17.77464 5.06 -0.98 22.6244
11.61198 -5.52 -0.98 12.3533
11.61198 -5.54 -0.98 12.3533
11.61198 -5.56 -0.98 12.3533
17.77464 5.06 -1.0 22.6244
11.61198 -5.5 -1.0 12.3533
11.61198 -5.52 -1.0 12.3533
11.61198 -5.54 -1.0 12.3533
11.394240000000002 -5.64 -1.0 11.9904
15.83916 5.94 -1.02 19.3986
11.61198 -5.5 -1.02 12.3533
11.61198 -5.52 -1.02 12.3533
11.394240000000002 -5.66 -1.02 11.9904
11.61198 -5.5 -1.04 12.3533
11.61198 -5.52 -1.04 12.3533
11.61198 -5.5 -1.06 12.3533
11.61198 -5.48 -1.08 12.3533
11.61198 -5.5 -1.08 12.3533
11.61198 -5.48 -1.1 12.3533
11.61198 -5.5 -1.1 12.3533
11.394240000000002 -5.7 -1.1 11.9904
11.394240000000002 -5.72 -1.1 11.9904
13.979940000000001 -4.68 -1.12 16.2999
13.979940000000001 -4.7 -1.12 16.2999
11.843340000000001 -5.5 -1.12 12.7389
11.18892 -5.56 -1.12 11.6482
11.18892 -5.56 -1.14 11.6482
11.843340000000001 -5.48 -1.16 12.7389
11.394240000000002 -5.66 -1.16 11.9904
11.394240000000002 -5.72 -1.16 11.9904
11.394240000000002 -5.74 -1.16 11.9904
14.386740000000001 -3.74 -1.18 16.9779
11.843340000000001 -5.48 -1.18 12.7389
11.394240000000002 -5.66 -1.18 11.9904
11.843340000000001 -5.48 -1.2 12.7389
11.843340000000001 -5.5 -1.2 12.7389
11.61198 -5.54 -1.2 12.3533
11.394240000000002 -5.64 -1.2 11.9904
14.386740000000001 1.56 -1.22 16.9779
14.386740000000001 1.54 -1.22 16.9779
14.386740000000001 1.52 -1.22 16.9779
13.6044 -4.68 -1.24 15.674
14.386740000000001 4.62 -1.26 16.9779
14.82888 3.92 -1.26 17.7148
14.386740000000001 2.7 -1.26 16.9779
14.386740000000001 2.68 -1.26 16.9779
14.386740000000001 2.66 -1.26 16.9779
13.6044 -4.74 -1.26 15.674
13.6044 -4.76 -1.26 15.674
11.394240000000002 -5.7 -1.26 11.9904
11.394240000000002 -5.72 -1.26 11.9904
10.811580000000001 -5.78 -1.26 11.0193
11.394240000000002 -5.66 -1.28 11.9904
11.394240000000002 -5.68 -1.28 11.9904
10.811580000000001 -5.78 -1.28 11.0193
13.25658 -4.82 -1.3 15.0943
11.394240000000002 -5.68 -1.3 11.9904
11.61198 -5.56 -1.34 12.3533
11.61198 -5.5 -1.36 12.3533
11.61198 -5.58 -1.36 12.3533
11.394240000000002 -5.72 -1.36 11.9904
11.61198 -5.5 -1.38 12.3533
11.394240000000002 -5.7 -1.38 11.9904
11.394240000000002 -5.72 -1.38 11.9904
11.394240000000002 -5.72 -1.4 11.9904
11.61198 -5.5 -1.42 12.3533
11.61198 -5.52 -1.42 12.3533
11.61198 -5.64 -1.42 12.3533
11.61198 -5.66 -1.42 12.3533
11.394240000000002 -5.64 -1.44 11.9904
11.394240000000002 -5.66 -1.44 11.9904
11.61198 -5.54 -1.46 12.3533
12.63288 5.84 -1.48 14.0548
11.61198 -5.52 -1.48 12.3533
11.61198 -5.54 -1.48 12.3533
11.61198 -5.56 -1.48 12.3533
11.394240000000002 -5.66 -1.48 11.9904
10.16718 1.64 -1.52 9.9453
11.61198 -5.44 -1.54 12.3533
11.61198 -5.46 -1.54 12.3533
10.16718 1.82 -1.56 9.9453
11.61198 -5.2 -1.56 12.3533
11.61198 -5.22 -1.56 12.3533
11.61198 -5.44 -1.56 12.3533
11.61198 -5.46 -1.56 12.3533
10.995 -6.04 -1.6 11.325
11.18892 -6.06 -1.6 11.6482
11.18892 -6.08 -1.6 11.6482
10.811580000000001 1.12 -1.62 11.0193
10.995 -6.1 -1.62 11.325
10.995 -6.12 -1.62 11.325
11.18892 -6.14 -1.62 11.6482
10.995 -6.16 -1.62 11.325
11.18892 -3.92 -1.7 11.6482
10.995 -3.96 -1.7 11.325
10.995 -3.98 -1.7 11.325
10.811580000000001 -4.0 -1.7 11.0193
10.811580000000001 -4.02 -1.7 11.0193
10.472879999999998 -4.04 -1.7 10.4548
10.472879999999998 -4.04 -1.72 10.4548
10.472879999999998 -4.06 -1.72 10.4548
10.637759999999998 0.96 -1.76 10.7296
10.637759999999998 0.94 -1.76 10.7296
10.472879999999998 -5.64 -1.76 10.4548
10.472879999999998 -5.66 -1.76 10.4548
10.16718 1.82 -1.78 9.9453
10.16718 1.8 -1.78 9.9453
10.637759999999998 0.94 -1.78 10.7296
10.472879999999998 -6.26 -1.78 10.4548
10.472879999999998 -6.28 -1.78 10.4548
10.472879999999998 -6.3 -1.78 10.4548
10.472879999999998 5.2 -1.88 10.4548
10.472879999999998 5.18 -1.88 10.4548
10.472879999999998 5.16 -1.88 10.4548
10.472879999999998 5.14 -1.88 10.4548
10.637759999999998 5.12 -1.88 10.7296
10.637759999999998 5.1 -1.88 10.7296
9.760704 2.08 -1.88 9.26784
10.025244 1.32 -1.88 9.70874
10.16718 1.02 -1.9 9.9453
10.16718 1.0 -1.9 9.9453
9.889902000000001 -6.2 -1.9 9.48317
10.16718 0.78 -1.92 9.9453
9.637241999999999 1.84 -1.94 9.06207
10.025244 0.76 -1.94 9.70874
10.16718 0.82 -1.96 9.9453
10.025244 0.8 -1.96 9.70874
9.51915 2.22 -1.98 8.86525
9.51915 1.56 -1.98 8.86525
10.025244 0.8 -1.98 9.70874
9.51915 2.22 -2.0 8.86525
9.193757999999999 2.34 -2.06 8.32293
9.297708 1.78 -2.06 8.49618
9.297708 2.54 -2.08 8.49618
9.093966 2.26 -2.08 8.15661
9.093966 2.24 -2.08 8.15661
9.760704 1.2 -2.08 9.26784
9.093966 2.24 -2.1 8.15661
9.093966 2.32 -2.12 8.15661
9.297708 1.48 -2.12 8.49618
9.297708 1.46 -2.14 8.49618
8.99808 2.46 -2.16 7.9968
8.99808 2.44 -2.16 7.9968
9.093966 2.26 -2.16 8.15661
9.093966 2.22 -2.16 8.15661
9.193757999999999 1.8 -2.16 8.32293
9.193757999999999 1.78 -2.16 8.32293
9.193757999999999 1.76 -2.16 8.32293
9.193757999999999 1.4 -2.16 8.32293
8.99808 2.44 -2.18 7.9968
9.193757999999999 1.74 -2.18 8.32293
8.905884 2.78 -2.2 7.84314
8.99808 2.76 -2.2 7.9968
8.99808 2.74 -2.2 7.9968
9.193757999999999 1.46 -2.2 8.32293
8.905884 3.28 -2.22 7.84314
8.905884 3.16 -2.22 7.84314
8.905884 2.74 -2.22 7.84314
8.905884 2.9 -2.24 7.84314
8.905884 2.88 -2.24 7.84314
8.905884 2.86 -2.24 7.84314
8.905884 2.84 -2.24 7.84314
8.817162000000001 2.82 -2.24 7.69527
8.905884 2.42 -2.24 7.84314
8.905884 2.4 -2.24 7.84314
8.817162000000001 2.2 -2.24 7.69527
9.193757999999999 1.38 -2.24 8.32293
8.905884 2.84 -2.26 7.84314
8.731722000000001 2.82 -2.26 7.55287
8.731722000000001 2.8 -2.26 7.55287
8.731722000000001 2.78 -2.26 7.55287
8.817162000000001 2.56 -2.26 7.69527
8.905884 2.42 -2.26 7.84314
8.817162000000001 2.28 -2.26 7.69527
8.905884 2.42 -2.28 7.84314
8.817162000000001 2.28 -2.28 7.69527
8.817162000000001 2.26 -2.28 7.69527
8.817162000000001 2.26 -2.3 7.69527
8.731722000000001 2.22 -2.3 7.55287
8.64939 2.84 -2.32 7.41565
8.64939 2.62 -2.32 7.41565
8.64939 2.84 -2.34 7.41565
8.64939 2.82 -2.34 7.41565
8.64939 2.62 -2.34 7.41565
8.817162000000001 1.86 -2.34 7.69527
8.817162000000001 1.66 -2.34 7.69527
8.817162000000001 1.64 -2.34 7.69527
8.64939 3.14 -2.36 7.41565
8.99808 1.46 -2.36 7.9968
8.569992 3.48 -2.4 7.28332
8.493384 3.24 -2.4 7.15564
8.64939 1.68 -2.4 7.41565
8.493384 3.24 -2.42 7.15564
8.493384 2.2 -2.42 7.15564
8.493384 2.18 -2.42 7.15564
8.493384 2.16 -2.42 7.15564
8.419410000000001 2.14 -2.42 7.03235
8.493384 3.2 -2.44 7.15564
8.419410000000001 2.86 -2.46 7.03235
8.419410000000001 2.84 -2.46 7.03235
8.347944 2.3 -2.46 6.91324
8.212038 3.48 -2.48 6.68673
8.27886 3.38 -2.48 6.7981
8.347944 2.1 -2.48 6.91324
8.212038 3.48 -2.5 6.68673
8.347944 2.1 -2.5 6.91324
8.347944 2.08 -2.5 6.91324
8.347944 3.9 -2.52 6.91324
8.347944 3.88 -2.52 6.91324
8.212038 3.48 -2.52 6.68673
8.212038 3.46 -2.52 6.68673
8.347944 3.88 -2.54 6.91324
8.212038 3.46 -2.54 6.68673
8.27886 3.06 -2.54 6.7981
8.212038 2.22 -2.54 6.68673
8.347944 4.0 -2.56 6.91324
8.212038 3.44 -2.56 6.68673
8.27886 3.06 -2.56 6.7981
8.419410000000001 -4.86 -2.56 7.03235
8.419410000000001 -4.88 -2.56 7.03235
8.347944 -4.9 -2.56 6.91324
8.347944 -4.92 -2.56 6.91324
8.27886 -4.94 -2.56 6.7981
8.212038 -5.04 -2.56 6.68673
8.212038 -5.06 -2.56 6.68673
8.212038 -5.08 -2.56 6.68673
8.147369999999999 3.44 -2.58 6.57895
8.147369999999999 2.86 -2.58 6.57895
8.212038 2.7 -2.58 6.68673
8.147369999999999 2.3 -2.58 6.57895
8.147369999999999 2.28 -2.58 6.57895
8.27886 1.98 -2.58 6.7981
8.147369999999999 2.84 -2.6 6.57895
8.147369999999999 2.82 -2.6 6.57895
8.147369999999999 2.26 -2.6 6.57895
8.147369999999999 2.24 -2.6 6.57895
8.147369999999999 2.82 -2.62 6.57895
8.147369999999999 2.8 -2.62 6.57895
8.212038 4.18 -2.64 6.68673
8.024094 3.32 -2.64 6.37349
8.493384 1.74 -2.64 7.15564
7.965294 3.0 -2.66 6.27549
7.965294 2.98 -2.66 6.27549
7.965294 2.86 -2.66 6.27549
8.493384 1.72 -2.66 7.15564
7.965294 2.98 -2.68 6.27549
8.024094 2.6 -2.68 6.37349
8.024094 2.54 -2.68 6.37349
7.908282 2.92 -2.7 6.18047
7.908282 2.9 -2.7 6.18047
7.965294 2.6 -2.7 6.27549
8.147369999999999 2.06 -2.7 6.57895
7.908282 3.24 -2.72 6.18047
7.908282 3.18 -2.72 6.18047
7.965294 2.6 -2.72 6.27549
8.024094 2.58 -2.72 6.37349
8.147369999999999 2.06 -2.72 6.57895
7.965294 2.6 -2.74 6.27549
8.024094 2.18 -2.74 6.37349
8.347944 3.44 -2.76 6.91324
8.347944 3.4 -2.76 6.91324
7.8529680000000015 3.34 -2.76 6.08828
7.908282 3.32 -2.76 6.18047
7.908282 3.16 -2.76 6.18047
7.908282 3.14 -2.76 6.18047
8.024094 2.16 -2.76 6.37349
8.024094 2.14 -2.76 6.37349
7.7992799999999995 3.7 -2.78 5.9988
7.7992799999999995 3.68 -2.78 5.9988
7.908282 3.32 -2.78 6.18047
7.908282 3.3 -2.78 6.18047
7.8529680000000015 3.28 -2.78 6.08828
7.8529680000000015 3.14 -2.78 6.08828
7.599432 3.08 -2.78 5.66572
7.908282 2.84 -2.78 6.18047
7.7992799999999995 3.7 -2.8 5.9988
7.7992799999999995 3.68 -2.8 5.9988
7.7992799999999995 3.66 -2.8 5.9988
7.908282 3.3 -2.8 6.18047
7.8529680000000015 3.28 -2.8 6.08828
7.8529680000000015 3.26 -2.8 6.08828
7.8529680000000015 3.24 -2.8 6.08828
7.747145999999999 3.22 -2.8 5.91191
7.7992799999999995 3.68 -2.82 5.9988
7.7992799999999995 3.66 -2.82 5.9988
7.7992799999999995 3.48 -2.82 5.9988
7.8529680000000015 3.24 -2.82 6.08828
7.747145999999999 3.22 -2.82 5.91191
7.747145999999999 3.2 -2.82 5.91191
7.747145999999999 3.18 -2.82 5.91191
7.908282 2.4 -2.82 6.18047
7.747145999999999 2.58 -2.84 5.91191
7.747145999999999 2.56 -2.86 5.91191
7.747145999999999 2.54 -2.86 5.91191
7.696506 3.78 -2.88 5.82751
7.599432 4.22 -2.9 5.66572
7.599432 4.2 -2.92 5.66572
7.599432 4.18 -2.92 5.66572
7.6472880000000005 3.82 -2.92 5.74548
7.696506 2.92 -2.92 5.82751
7.696506 2.9 -2.92 5.82751
7.6472880000000005 3.82 -2.94 5.74548
7.6472880000000005 3.8 -2.94 5.74548
7.6472880000000005 3.32 -2.94 5.74548
7.599432 2.76 -2.94 5.66572
7.747145999999999 2.58 -2.94 5.91191
7.747145999999999 2.56 -2.94 5.91191
7.8529680000000015 2.18 -2.94 6.08828
7.552889999999999 4.02 -2.96 5.58815
7.6472880000000005 3.78 -2.96 5.74548
7.6472880000000005 3.3 -2.96 5.74548
7.599432 2.76 -2.96 5.66572
7.599432 2.74 -2.96 5.66572
7.747145999999999 2.56 -2.96 5.91191
7.747145999999999 2.54 -2.96 5.91191
7.747145999999999 2.38 -2.96 5.91191
7.8529680000000015 2.2 -2.96 6.08828
7.8529680000000015 2.18 -2.96 6.08828
7.8529680000000015 2.16 -2.96 6.08828
7.599432 4.26 -2.98 5.66572
7.599432 2.82 -2.98 5.66572
7.8529680000000015 2.22 -2.98 6.08828
7.8529680000000015 2.16 -2.98 6.08828
7.599432 2.82 -3.0 5.66572
7.599432 2.8 -3.0 5.66572
7.7992799999999995 2.22 -3.0 5.9988
7.7992799999999995 2.2 -3.0 5.9988
7.599432 2.86 -3.02 5.66572
7.599432 2.8 -3.02 5.66572
7.599432 2.78 -3.02 5.66572
7.7992799999999995 2.2 -3.02 5.9988
7.7992799999999995 2.18 -3.02 5.9988
7.552889999999999 3.76 -3.04 5.58815
7.552889999999999 3.48 -3.04 5.58815
7.599432 2.86 -3.04 5.66572
7.599432 2.84 -3.04 5.66572
7.747145999999999 2.18 -3.04 5.91191
7.747145999999999 2.16 -3.04 5.91191
7.507607999999999 4.82 -3.06 5.51268
7.463532 4.08 -3.06 5.43922
7.420614 3.68 -3.06 5.36769
7.7992799999999995 2.24 -3.06 5.9988
7.463532 4.68 -3.08 5.43922
7.463532 4.26 -3.08 5.43922
7.463532 4.06 -3.08 5.43922
7.420614 4.02 -3.08 5.36769
7.420614 3.66 -3.08 5.36769
7.552889999999999 2.62 -3.08 5.58815
7.747145999999999 2.22 -3.08 5.91191
7.420614 4.02 -3.1 5.36769
7.420614 4.0 -3.1 5.36769
7.463532 3.72 -3.12 5.43922
7.378806 3.18 -3.12 5.29801
7.507607999999999 2.86 -3.12 5.51268
7.507607999999999 2.84 -3.12 5.51268
7.507607999999999 2.8 -3.12 5.51268
7.507607999999999 2.78 -3.12 5.51268
7.463532 3.72 -3.14 5.43922
7.696506 2.24 -3.14 5.82751
7.747145999999999 2.18 -3.14 5.91191
7.696506 2.16 -3.14 5.82751
7.420614 5.4 -3.16 5.36769
7.378806 3.64 -3.16 5.29801
7.420614 3.02 -3.16 5.36769
7.696506 2.16 -3.16 5.82751
7.696506 2.14 -3.16 5.82751
7.696506 2.12 -3.16 5.82751
7.338077999999999 3.72 -3.18 5.23013
7.338077999999999 3.7 -3.18 5.23013
7.378806 3.62 -3.18 5.29801
7.420614 3.02 -3.18 5.36769
7.420614 3.0 -3.18 5.36769
7.298376 4.18 -3.2 5.16396
7.338077999999999 3.7 -3.2 5.23013
7.378806 3.34 -3.2 5.29801
7.420614 2.98 -3.2 5.36769
7.463532 4.24 -3.22 5.43922
7.298376 4.18 -3.22 5.16396
7.298376 3.7 -3.22 5.16396
7.378806 3.34 -3.22 5.29801
7.298376 4.24 -3.24 5.16396
7.298376 4.18 -3.24 5.16396
7.298376 4.16 -3.24 5.16396
7.259664000000001 3.88 -3.24 5.09944
7.298376 3.22 -3.24 5.16396
7.259664000000001 4.3 -3.26 5.09944
7.298376 4.28 -3.26 5.16396
7.298376 4.26 -3.26 5.16396
7.259664000000001 3.68 -3.26 5.09944
7.298376 3.22 -3.26 5.16396
7.298376 3.2 -3.26 5.16396
7.259664000000001 4.3 -3.28 5.09944
7.259664000000001 4.28 -3.28 5.09944
7.259664000000001 4.26 -3.28 5.09944
7.298376 3.2 -3.28 5.16396
7.298376 3.18 -3.28 5.16396
7.259664000000001 4.28 -3.3 5.09944
7.259664000000001 4.26 -3.3 5.09944
7.221906000000001 3.28 -3.3 5.03651
7.507607999999999 -1.2 -3.3 5.51268
7.221906000000001 4.3 -3.32 5.03651
7.259664000000001 4.28 -3.32 5.09944
7.259664000000001 4.26 -3.32 5.09944
7.149126 3.78 -3.32 4.91521
7.221906000000001 3.26 -3.32 5.03651
7.221906000000001 3.24 -3.32 5.03651
7.185072 4.32 -3.34 4.97512
7.221906000000001 4.3 -3.34 5.03651
7.149126 3.74 -3.34 4.91521
7.221906000000001 3.24 -3.34 5.03651
7.221906000000001 3.22 -3.34 5.03651
7.507607999999999 -1.18 -3.34 5.51268
7.185072 4.34 -3.36 4.97512
7.221906000000001 4.04 -3.36 5.03651
7.149126 3.74 -3.36 4.91521
7.259664000000001 2.92 -3.36 5.09944
7.507607999999999 2.42 -3.36 5.51268
7.507607999999999 -1.22 -3.36 5.51268
7.149126 3.72 -3.38 4.91521
7.185072 3.6 -3.38 4.97512
7.149126 3.58 -3.38 4.91521
7.149126 3.56 -3.38 4.91521
7.185072 3.28 -3.38 4.97512
7.221906000000001 3.1 -3.38 5.03651
7.298376 2.96 -3.38 5.16396
7.298376 2.9 -3.38 5.16396
7.298376 2.74 -3.38 5.16396
7.378806 -6.24 -3.38 5.29801
7.378806 -6.26 -3.38 5.29801
7.185072 3.62 -3.4 4.97512
7.114037999999999 3.54 -3.4 4.85673
7.114037999999999 3.52 -3.4 4.85673
7.046298 3.5 -3.4 4.74383
7.185072 3.62 -3.42 4.97512
7.185072 3.6 -3.42 4.97512
7.149126 3.44 -3.42 4.91521
7.149126 3.42 -3.42 4.91521
7.221906000000001 3.08 -3.42 5.03651
7.298376 2.66 -3.42 5.16396
7.114037999999999 4.36 -3.44 4.85673
7.079772 4.2 -3.44 4.79962
7.079772 4.18 -3.44 4.79962
7.114037999999999 4.1 -3.44 4.85673
7.114037999999999 3.96 -3.44 4.85673
7.079772 3.8 -3.44 4.79962
7.149126 3.42 -3.44 4.91521
7.298376 2.72 -3.44 5.16396
7.114037999999999 4.4 -3.46 4.85673
7.079772 4.24 -3.46 4.79962
7.079772 4.22 -3.46 4.79962
7.079772 4.2 -3.46 4.79962
7.079772 4.18 -3.46 4.79962
7.079772 4.16 -3.46 4.79962
7.114037999999999 3.96 -3.46 4.85673
7.114037999999999 3.94 -3.46 4.85673
7.114037999999999 3.92 -3.46 4.85673
7.114037999999999 3.9 -3.46 4.85673
7.114037999999999 3.88 -3.46 4.85673
7.149126 3.4 -3.46 4.91521
7.298376 2.72 -3.46 5.16396
7.259664000000001 -6.06 -3.46 5.09944
7.079772 4.32 -3.48 4.79962
7.079772 4.18 -3.48 4.79962
7.079772 4.16 -3.48 4.79962
7.114037999999999 3.94 -3.48 4.85673
7.114037999999999 3.92 -3.48 4.85673
7.114037999999999 3.9 -3.48 4.85673
7.149126 3.08 -3.48 4.91521
7.298376 2.7 -3.48 5.16396
7.298376 -6.38 -3.48 5.16396
7.298376 -6.4 -3.48 5.16396
7.114037999999999 4.8 -3.5 4.85673
7.114037999999999 4.78 -3.5 4.85673
7.114037999999999 4.76 -3.5 4.85673
7.079772 4.32 -3.5 4.79962
7.079772 4.3 -3.5 4.79962
7.079772 4.28 -3.5 4.79962
7.149126 3.06 -3.5 4.91521
7.298376 2.7 -3.5 5.16396
7.079772 4.28 -3.52 4.79962
6.647982 4.02 -3.52 4.07997
6.647982 4.0 -3.52 4.07997
7.149126 3.12 -3.52 4.91521
6.919854 4.44 -3.54 4.53309
6.919854 4.42 -3.54 4.53309
7.013598 3.78 -3.54 4.68933
7.013598 3.76 -3.54 4.68933
7.013598 3.58 -3.54 4.68933
7.114037999999999 3.2 -3.54 4.85673
7.149126 3.1 -3.54 4.91521
6.919854 4.42 -3.56 4.53309
6.919854 4.4 -3.56 4.53309
6.7499340000000005 4.34 -3.56 4.24989
7.013598 3.78 -3.56 4.68933
7.013598 3.76 -3.56 4.68933
7.013598 3.74 -3.56 4.68933
7.079772 3.26 -3.56 4.79962
6.981642 5.86 -3.58 4.63607
6.981642 4.12 -3.58 4.63607
7.013598 3.76 -3.58 4.68933
7.013598 3.74 -3.58 4.68933
6.981642 3.72 -3.58 4.63607
7.079772 3.26 -3.58 4.79962
7.114037999999999 3.24 -3.58 4.85673
6.981642 4.58 -3.6 4.63607
6.9504 3.88 -3.62 4.584
6.9504 3.86 -3.62 4.584
6.919854 4.82 -3.64 4.53309
7.149126 3.64 -3.64 4.91521
7.114037999999999 3.62 -3.64 4.85673
6.981642 3.58 -3.64 4.63607
6.981642 3.56 -3.64 4.63607
6.919854 4.86 -3.66 4.53309
7.114037999999999 3.64 -3.66 4.85673
6.981642 3.56 -3.66 4.63607
6.981642 3.54 -3.66 4.63607
7.114037999999999 3.64 -3.68 4.85673
6.860754 3.96 -3.7 4.43459
6.919854 3.78 -3.7 4.53309
6.9504 3.7 -3.7 4.584
6.9504 3.62 -3.7 4.584
6.860754 3.96 -3.72 4.43459
6.860754 3.94 -3.72 4.43459
6.804168 4.32 -3.74 4.34028
7.079772 4.06 -3.74 4.79962
6.860754 3.96 -3.74 4.43459
6.860754 3.94 -3.74 4.43459
6.88998 3.86 -3.74 4.4833
6.88998 3.84 -3.74 4.4833
7.114037999999999 -3.0 -3.74 4.85673
6.804168 4.32 -3.76 4.34028
6.804168 4.26 -3.76 4.34028
6.804168 4.24 -3.76 4.34028
6.88998 3.86 -3.76 4.4833
6.88998 3.84 -3.76 4.4833
6.776765999999999 4.4 -3.78 4.29461
6.804168 4.32 -3.78 4.34028
6.804168 4.1 -3.78 4.34028
7.046298 2.86 -3.78 4.74383
6.69792 5.14 -3.8 4.1632
6.7499340000000005 4.4 -3.8 4.24989
6.804168 4.1 -3.8 4.34028
7.046298 2.84 -3.8 4.74383
7.046298 2.82 -3.8 4.74383
6.776765999999999 5.64 -3.82 4.29461
6.7499340000000005 4.38 -3.82 4.24989
6.776765999999999 4.2 -3.82 4.29461
7.046298 2.9 -3.82 4.74383
7.046298 2.88 -3.82 4.74383
6.776765999999999 5.64 -3.84 4.29461
6.7499340000000005 4.38 -3.84 4.24989
6.7499340000000005 4.36 -3.84 4.24989
6.776765999999999 4.2 -3.84 4.29461
6.776765999999999 4.18 -3.84 4.29461
7.046298 2.88 -3.84 4.74383
7.046298 2.86 -3.84 4.74383
6.72366 5.04 -3.86 4.2061
6.7499340000000005 4.36 -3.86 4.24989
6.776765999999999 4.18 -3.86 4.29461
6.776765999999999 4.16 -3.86 4.29461
6.72366 5.04 -3.88 4.2061
6.832158 3.54 -3.88 4.38693
6.804168 3.5 -3.88 4.34028
6.804168 3.48 -3.88 4.34028
6.72366 5.04 -3.9 4.2061
6.72366 5.02 -3.9 4.2061
6.69792 4.84 -3.9 4.1632
6.804168 3.52 -3.9 4.34028
6.804168 3.5 -3.9 4.34028
6.69792 5.42 -3.92 4.1632
6.69792 5.02 -3.92 4.1632
6.69792 5.0 -3.92 4.1632
6.69792 4.84 -3.92 4.1632
6.981642 1.06 -3.92 4.63607
6.9504 -0.9 -3.92 4.584
6.647982 5.9 -3.94 4.07997
6.69792 5.42 -3.94 4.1632
6.69792 5.0 -3.94 4.1632
6.672695999999999 4.98 -3.94 4.12116
6.69792 4.84 -3.94 4.1632
6.69792 4.36 -3.94 4.1632
6.919854 -0.94 -3.94 4.53309
6.9504 -1.1 -3.94 4.584
6.9504 -1.12 -3.94 4.584
6.647982 5.94 -3.96 4.07997
6.647982 5.92 -3.96 4.07997
6.647982 5.9 -3.96 4.07997
6.69792 5.42 -3.96 4.1632
6.69792 5.4 -3.96 4.1632
6.647982 5.18 -3.96 4.07997
6.672695999999999 4.98 -3.96 4.12116
