VERSION .7
FIELDS x y z rgb
SIZE 4 4 4 4
TYPE F F F F
COUNT 1 1 1 1
WIDTH 1754
HEIGHT 1
VIEWPOINT 0 0 0 1 0 0 0
POINTS 1754
DATA ascii
15.15888 -6.02 2.6 18.2648
13.4736 -6.1 2.6 15.456
13.4736 -6.12 2.6 15.456
12.23748 -6.18 2.6 13.3958
13.4736 -6.24 2.6 15.456
44.33376 5.06 2.58 66.8896
44.33376 5.04 2.58 66.8896
44.33376 4.9 2.58 66.8896
44.33376 4.72 2.58 66.8896
21.41664 4.44 2.58 28.6944
21.41664 4.08 2.58 28.6944
7.645308 3.86 2.58 5.74218
7.645308 3.84 2.58 5.74218
21.41664 3.78 2.58 28.6944
7.645308 3.64 2.58 5.74218
7.645308 3.6 2.58 5.74218
7.645308 3.58 2.58 5.74218
28.29636 2.54 2.58 40.1606
28.29636 2.42 2.58 40.1606
21.41664 -1.06 2.58 28.6944
124.19999999999999 -1.42 2.58 200.0
21.41664 -1.6 2.58 28.6944
21.41664 -1.62 2.58 28.6944
15.15888 -6.04 2.58 18.2648
13.4736 -6.1 2.58 15.456
13.4736 -6.12 2.58 15.456
12.23748 -6.18 2.58 13.3958
13.4736 -6.24 2.58 15.456
13.4736 -6.38 2.58 15.456
13.4736 -6.72 2.58 15.456
44.33376 4.92 2.56 66.8896
44.33376 4.74 2.56 66.8896
21.41664 4.24 2.56 28.6944
7.645308 3.86 2.56 5.74218
7.645308 3.84 2.56 5.74218
21.41664 3.78 2.56 28.6944
21.41664 3.64 2.56 28.6944
7.645308 3.6 2.56 5.74218
7.645308 3.58 2.56 5.74218
28.29636 2.42 2.56 40.1606
28.29636 2.22 2.56 40.1606
28.29636 2.14 2.56 40.1606
21.41664 -1.06 2.56 28.6944
124.19999999999999 -1.4 2.56 200.0
21.41664 -1.6 2.56 28.6944
13.4736 -6.1 2.56 15.456
13.4736 -6.12 2.56 15.456
13.4736 -6.24 2.56 15.456
13.4736 -6.38 2.56 15.456
44.33376 5.14 2.54 66.8896
44.33376 4.76 2.54 66.8896
21.41664 4.26 2.54 28.6944
21.41664 4.12 2.54 28.6944
21.41664 4.1 2.54 28.6944
7.645308 3.86 2.54 5.74218
21.41664 3.8 2.54 28.6944
21.41664 3.78 2.54 28.6944
21.41664 3.66 2.54 28.6944
7.645308 3.6 2.54 5.74218
7.645308 3.58 2.54 5.74218
28.29636 2.42 2.54 40.1606
28.29636 2.14 2.54 40.1606
124.19999999999999 -1.4 2.54 200.0
28.29636 -1.52 2.54 40.1606
21.41664 -1.58 2.54 28.6944
21.41664 -2.56 2.54 28.6944
21.41664 -2.58 2.54 28.6944
13.4736 -4.94 2.54 15.456
13.4736 -5.62 2.54 15.456
15.15888 -6.04 2.54 18.2648
13.4736 -6.12 2.54 15.456
13.4736 -6.24 2.54 15.456
13.4736 -6.26 2.54 15.456
13.4736 -6.38 2.54 15.456
44.33376 -6.74 2.54 66.8896
44.33376 4.88 2.52 66.8896
44.33376 4.78 2.52 66.8896
44.33376 4.76 2.52 66.8896
21.41664 4.4 2.52 28.6944
21.41664 4.3 2.52 28.6944
21.41664 4.12 2.52 28.6944
7.645308 3.86 2.52 5.74218
21.41664 3.66 2.52 28.6944
28.29636 2.42 2.52 40.1606
21.41664 -1.08 2.52 28.6944
21.41664 -1.58 2.52 28.6944
21.41664 -2.52 2.52 28.6944
21.41664 -2.88 2.52 28.6944
21.41664 -2.9 2.52 28.6944
13.4736 -5.62 2.52 15.456
15.15888 -6.04 2.52 18.2648
13.4736 -6.12 2.52 15.456
13.4736 -6.14 2.52 15.456
13.4736 -6.24 2.52 15.456
13.4736 -6.26 2.52 15.456
12.23748 -6.66 2.52 13.3958
44.33376 4.88 2.5 66.8896
44.33376 4.78 2.5 66.8896
21.41664 4.4 2.5 28.6944
7.645308 3.86 2.5 5.74218
21.41664 3.82 2.5 28.6944
21.41664 3.68 2.5 28.6944
21.41664 3.66 2.5 28.6944
7.645308 3.6 2.5 5.74218
7.645308 3.58 2.5 5.74218
28.29636 2.42 2.5 40.1606
28.29636 2.36 2.5 40.1606
28.29636 2.16 2.5 40.1606
28.29636 2.14 2.5 40.1606
21.41664 -1.08 2.5 28.6944
21.41664 -1.38 2.5 28.6944
21.41664 -1.4 2.5 28.6944
21.41664 -1.56 2.5 28.6944
21.41664 -1.58 2.5 28.6944
28.29636 -2.44 2.5 40.1606
13.4736 -5.62 2.5 15.456
13.4736 -6.12 2.5 15.456
13.4736 -6.14 2.5 15.456
13.4736 -6.26 2.5 15.456
12.23748 -6.66 2.5 13.3958
44.33376 4.9 2.48 66.8896
44.33376 4.78 2.48 66.8896
7.645308 3.86 2.48 5.74218
21.41664 3.8 2.48 28.6944
21.41664 3.68 2.48 28.6944
7.645308 3.6 2.48 5.74218
28.29636 2.32 2.48 40.1606
28.29636 2.16 2.48 40.1606
21.41664 -1.38 2.48 28.6944
21.41664 -1.54 2.48 28.6944
21.41664 -1.56 2.48 28.6944
15.15888 -4.02 2.48 18.2648
15.15888 -4.04 2.48 18.2648
13.4736 -6.12 2.48 15.456
13.4736 -6.14 2.48 15.456
13.4736 -6.26 2.48 15.456
13.4736 -6.58 2.48 15.456
44.33376 5.68 2.46 66.8896
44.33376 4.9 2.46 66.8896
7.645308 3.86 2.46 5.74218
21.41664 3.8 2.46 28.6944
21.41664 3.74 2.46 28.6944
21.41664 3.68 2.46 28.6944
7.645308 3.6 2.46 5.74218
7.645308 3.58 2.46 5.74218
28.29636 3.46 2.46 40.1606
28.29636 2.64 2.46 40.1606
28.29636 2.2 2.46 40.1606
28.29636 2.16 2.46 40.1606
21.41664 -1.54 2.46 28.6944
21.41664 -3.24 2.46 28.6944
15.15888 -6.06 2.46 18.2648
13.4736 -6.12 2.46 15.456
13.4736 -6.14 2.46 15.456
13.4736 -6.26 2.46 15.456
44.33376 5.72 2.44 66.8896
44.33376 5.7 2.44 66.8896
44.33376 4.92 2.44 66.8896
44.33376 4.78 2.44 66.8896
44.33376 4.54 2.44 66.8896
7.645308 3.86 2.44 5.74218
21.41664 3.78 2.44 28.6944
21.41664 3.74 2.44 28.6944
21.41664 3.68 2.44 28.6944
7.645308 3.6 2.44 5.74218
28.29636 3.46 2.44 40.1606
28.29636 2.64 2.44 40.1606
28.29636 2.2 2.44 40.1606
15.15888 -0.74 2.44 18.2648
12.23748 -4.52 2.44 13.3958
12.23748 -4.54 2.44 13.3958
15.15888 -6.06 2.44 18.2648
13.4736 -6.12 2.44 15.456
13.4736 -6.14 2.44 15.456
13.4736 -6.26 2.44 15.456
13.4736 -6.6 2.44 15.456
44.33376 4.58 2.42 66.8896
44.33376 4.56 2.42 66.8896
44.33376 4.54 2.42 66.8896
21.41664 4.32 2.42 28.6944
7.645308 3.86 2.42 5.74218
21.41664 3.78 2.42 28.6944
21.41664 3.68 2.42 28.6944
7.645308 3.6 2.42 5.74218
28.29636 3.46 2.42 40.1606
28.29636 2.64 2.42 40.1606
28.29636 2.34 2.42 40.1606
28.29636 2.16 2.42 40.1606
15.15888 -0.74 2.42 18.2648
21.41664 -1.52 2.42 28.6944
17.592840000000002 -2.46 2.42 22.3214
17.592840000000002 -2.48 2.42 22.3214
15.15888 -6.06 2.42 18.2648
13.4736 -6.12 2.42 15.456
13.4736 -6.14 2.42 15.456
13.4736 -6.26 2.42 15.456
13.4736 -6.6 2.42 15.456
44.33376 5.04 2.4 66.8896
44.33376 4.6 2.4 66.8896
44.33376 4.58 2.4 66.8896
7.645308 3.86 2.4 5.74218
21.41664 3.68 2.4 28.6944
7.645308 3.6 2.4 5.74218
28.29636 3.46 2.4 40.1606
28.29636 2.34 2.4 40.1606
28.29636 2.16 2.4 40.1606
21.41664 -0.02 2.4 28.6944
21.41664 -1.36 2.4 28.6944
21.41664 -1.52 2.4 28.6944
21.41664 -2.4 2.4 28.6944
21.41664 -2.42 2.4 28.6944
13.4736 -4.66 2.4 15.456
15.15888 -6.06 2.4 18.2648
13.4736 -6.12 2.4 15.456
13.4736 -6.14 2.4 15.456
13.4736 -6.26 2.4 15.456
13.4736 -6.6 2.4 15.456
44.33376 5.04 2.38 66.8896
21.41664 4.14 2.38 28.6944
7.645308 3.86 2.38 5.74218
21.41664 3.68 2.38 28.6944
7.645308 3.6 2.38 5.74218
28.29636 3.46 2.38 40.1606
28.29636 2.16 2.38 40.1606
28.29636 2.14 2.38 40.1606
44.33376 -1.36 2.38 66.8896
21.41664 -1.5 2.38 28.6944
21.41664 -2.38 2.38 28.6944
13.4736 -4.66 2.38 15.456
15.15888 -6.06 2.38 18.2648
13.4736 -6.12 2.38 15.456
13.4736 -6.14 2.38 15.456
13.4736 -6.26 2.38 15.456
44.33376 5.6 2.36 66.8896
44.33376 5.06 2.36 66.8896
44.33376 5.04 2.36 66.8896
44.33376 4.68 2.36 66.8896
21.41664 4.14 2.36 28.6944
7.645308 3.86 2.36 5.74218
21.41664 3.68 2.36 28.6944
7.645308 3.6 2.36 5.74218
28.29636 3.46 2.36 40.1606
28.29636 2.16 2.36 40.1606
28.29636 2.14 2.36 40.1606
44.33376 -1.36 2.36 66.8896
21.41664 -3.12 2.36 28.6944
12.23748 -5.76 2.36 13.3958
15.15888 -6.06 2.36 18.2648
13.4736 -6.12 2.36 15.456
13.4736 -6.14 2.36 15.456
13.4736 -6.22 2.36 15.456
13.4736 -6.26 2.36 15.456
44.33376 5.06 2.34 66.8896
44.33376 4.68 2.34 66.8896
44.33376 4.66 2.34 66.8896
7.645308 3.86 2.34 5.74218
21.41664 3.68 2.34 28.6944
21.41664 3.66 2.34 28.6944
7.645308 3.6 2.34 5.74218
28.29636 3.46 2.34 40.1606
28.29636 2.34 2.34 40.1606
28.29636 2.16 2.34 40.1606
21.41664 0.06 2.34 28.6944
44.33376 -1.34 2.34 66.8896
44.33376 -1.36 2.34 66.8896
21.41664 -3.1 2.34 28.6944
13.4736 -4.28 2.34 15.456
13.4736 -5.68 2.34 15.456
15.15888 -6.06 2.34 18.2648
13.4736 -6.14 2.34 15.456
12.23748 -6.22 2.34 13.3958
44.33376 -6.52 2.34 66.8896
44.33376 5.7 2.32 66.8896
44.33376 4.68 2.32 66.8896
7.645308 3.86 2.32 5.74218
21.41664 3.7 2.32 28.6944
21.41664 3.68 2.32 28.6944
7.645308 3.6 2.32 5.74218
28.29636 3.46 2.32 40.1606
28.29636 2.64 2.32 40.1606
28.29636 2.62 2.32 40.1606
28.29636 2.16 2.32 40.1606
44.33376 -1.34 2.32 66.8896
17.592840000000002 -1.52 2.32 22.3214
17.592840000000002 -2.36 2.32 22.3214
21.41664 -3.08 2.32 28.6944
15.15888 -6.06 2.32 18.2648
13.4736 -6.14 2.32 15.456
13.4736 -6.28 2.32 15.456
44.33376 -6.38 2.32 66.8896
44.33376 5.68 2.3 66.8896
44.33376 5.66 2.3 66.8896
44.33376 4.68 2.3 66.8896
44.33376 4.46 2.3 66.8896
7.645308 3.86 2.3 5.74218
7.645308 3.6 2.3 5.74218
28.29636 3.46 2.3 40.1606
28.29636 2.64 2.3 40.1606
28.29636 2.16 2.3 40.1606
28.29636 2.14 2.3 40.1606
21.41664 0.32 2.3 28.6944
44.33376 -1.34 2.3 66.8896
21.41664 -2.3 2.3 28.6944
17.592840000000002 -6.0 2.3 22.3214
15.15888 -6.06 2.3 18.2648
15.15888 -6.08 2.3 18.2648
13.4736 -6.14 2.3 15.456
12.23748 -6.22 2.3 13.3958
13.4736 -6.28 2.3 15.456
44.33376 5.7 2.28 66.8896
44.33376 5.68 2.28 66.8896
44.33376 4.68 2.28 66.8896
44.33376 4.46 2.28 66.8896
21.41664 4.06 2.28 28.6944
7.645308 3.88 2.28 5.74218
7.645308 3.86 2.28 5.74218
21.41664 3.66 2.28 28.6944
7.645308 3.6 2.28 5.74218
28.29636 3.46 2.28 40.1606
28.29636 2.64 2.28 40.1606
28.29636 2.16 2.28 40.1606
28.29636 2.14 2.28 40.1606
21.41664 0.36 2.28 28.6944
21.41664 0.32 2.28 28.6944
17.592840000000002 0.3 2.28 22.3214
21.41664 -3.04 2.28 28.6944
13.4736 -5.68 2.28 15.456
15.15888 -6.06 2.28 18.2648
15.15888 -6.08 2.28 18.2648
13.4736 -6.14 2.28 15.456
12.23748 -6.22 2.28 13.3958
13.4736 -6.28 2.28 15.456
44.33376 5.7 2.26 66.8896
28.29636 4.78 2.26 40.1606
44.33376 4.68 2.26 66.8896
44.33376 4.66 2.26 66.8896
21.41664 4.06 2.26 28.6944
7.645308 3.88 2.26 5.74218
7.645308 3.86 2.26 5.74218
21.41664 3.66 2.26 28.6944
7.645308 3.6 2.26 5.74218
28.29636 3.46 2.26 40.1606
28.29636 2.16 2.26 40.1606
28.29636 2.14 2.26 40.1606
21.41664 0.8 2.26 28.6944
21.41664 0.36 2.26 28.6944
21.41664 0.18 2.26 28.6944
21.41664 0.16 2.26 28.6944
21.41664 0.14 2.26 28.6944
21.41664 -2.3 2.26 28.6944
13.4736 -3.98 2.26 15.456
13.4736 -5.68 2.26 15.456
13.4736 -6.14 2.26 15.456
13.4736 -6.28 2.26 15.456
44.33376 5.7 2.24 66.8896
28.29636 4.78 2.24 40.1606
28.29636 4.76 2.24 40.1606
44.33376 4.68 2.24 66.8896
7.645308 3.88 2.24 5.74218
7.645308 3.86 2.24 5.74218
7.645308 3.6 2.24 5.74218
28.29636 3.46 2.24 40.1606
28.29636 2.34 2.24 40.1606
28.29636 2.18 2.24 40.1606
28.29636 2.14 2.24 40.1606
28.29636 0.42 2.24 40.1606
21.41664 0.18 2.24 28.6944
44.33376 -1.16 2.24 66.8896
17.592840000000002 -1.48 2.24 22.3214
13.4736 -5.68 2.24 15.456
13.4736 -6.14 2.24 15.456
12.23748 -6.22 2.24 13.3958
13.4736 -6.28 2.24 15.456
44.33376 5.86 2.22 66.8896
44.33376 5.7 2.22 66.8896
44.33376 4.98 2.22 66.8896
7.645308 3.88 2.22 5.74218
7.645308 3.86 2.22 5.74218
7.645308 3.6 2.22 5.74218
28.29636 3.46 2.22 40.1606
28.29636 2.34 2.22 40.1606
28.29636 2.18 2.22 40.1606
21.41664 0.46 2.22 28.6944
21.41664 -1.4 2.22 28.6944
21.41664 -1.42 2.22 28.6944
17.592840000000002 -1.48 2.22 22.3214
21.41664 -2.2 2.22 28.6944
21.41664 -2.22 2.22 28.6944
13.4736 -4.42 2.22 15.456
13.4736 -6.14 2.22 15.456
12.23748 -6.22 2.22 13.3958
13.4736 -6.28 2.22 15.456
44.33376 5.7 2.2 66.8896
44.33376 5.48 2.2 66.8896
44.33376 5.28 2.2 66.8896
44.33376 5.08 2.2 66.8896
44.33376 4.98 2.2 66.8896
44.33376 4.58 2.2 66.8896
7.645308 3.88 2.2 5.74218
7.645308 3.86 2.2 5.74218
7.645308 3.6 2.2 5.74218
28.29636 3.46 2.2 40.1606
28.29636 2.46 2.2 40.1606
21.41664 0.48 2.2 28.6944
44.33376 -1.16 2.2 66.8896
21.41664 -1.4 2.2 28.6944
21.41664 -2.18 2.2 28.6944
21.41664 -2.2 2.2 28.6944
15.15888 -5.06 2.2 18.2648
17.592840000000002 -6.0 2.2 22.3214
13.4736 -6.14 2.2 15.456
12.23748 -6.22 2.2 13.3958
13.4736 -6.28 2.2 15.456
44.33376 5.48 2.18 66.8896
44.33376 5.26 2.18 66.8896
44.33376 5.08 2.18 66.8896
44.33376 4.62 2.18 66.8896
7.645308 3.88 2.18 5.74218
7.645308 3.86 2.18 5.74218
7.645308 3.64 2.18 5.74218
7.645308 3.6 2.18 5.74218
28.29636 3.46 2.18 40.1606
124.19999999999999 2.28 2.18 200.0
28.29636 2.16 2.18 40.1606
21.41664 -0.04 2.18 28.6944
21.41664 -0.06 2.18 28.6944
17.592840000000002 -0.98 2.18 22.3214
44.33376 -1.16 2.18 66.8896
21.41664 -1.38 2.18 28.6944
21.41664 -2.18 2.18 28.6944
15.15888 -5.2 2.18 18.2648
15.15888 -6.08 2.18 18.2648
13.4736 -6.14 2.18 15.456
12.23748 -6.22 2.18 13.3958
13.4736 -6.28 2.18 15.456
44.33376 5.06 2.16 66.8896
44.33376 4.64 2.16 66.8896
21.41664 4.34 2.16 28.6944
21.41664 4.2 2.16 28.6944
21.41664 4.02 2.16 28.6944
7.645308 3.88 2.16 5.74218
7.645308 3.86 2.16 5.74218
7.645308 3.6 2.16 5.74218
28.29636 3.46 2.16 40.1606
28.29636 2.16 2.16 40.1606
21.41664 -0.04 2.16 28.6944
28.29636 -0.86 2.16 40.1606
21.41664 -1.38 2.16 28.6944
13.4736 -6.14 2.16 15.456
12.23748 -6.22 2.16 13.3958
13.4736 -6.28 2.16 15.456
28.29636 5.94 2.14 40.1606
44.33376 5.78 2.14 66.8896
44.33376 5.06 2.14 66.8896
44.33376 4.64 2.14 66.8896
28.29636 4.48 2.14 40.1606
21.41664 4.34 2.14 28.6944
21.41664 4.2 2.14 28.6944
7.645308 3.88 2.14 5.74218
7.645308 3.86 2.14 5.74218
21.41664 3.8 2.14 28.6944
7.645308 3.6 2.14 5.74218
28.29636 3.46 2.14 40.1606
28.29636 2.62 2.14 40.1606
28.29636 2.36 2.14 40.1606
21.41664 -1.38 2.14 28.6944
12.23748 -5.74 2.14 13.3958
13.4736 -6.14 2.14 15.456
12.23748 -6.22 2.14 13.3958
13.4736 -6.28 2.14 15.456
28.29636 5.94 2.12 40.1606
28.29636 5.9 2.12 40.1606
44.33376 5.46 2.12 66.8896
44.33376 5.08 2.12 66.8896
7.645308 3.88 2.12 5.74218
7.645308 3.86 2.12 5.74218
7.645308 3.6 2.12 5.74218
28.29636 3.46 2.12 40.1606
28.29636 2.36 2.12 40.1606
21.41664 -0.18 2.12 28.6944
21.41664 -0.2 2.12 28.6944
28.29636 -2.1 2.12 40.1606
13.4736 -5.66 2.12 15.456
13.4736 -6.14 2.12 15.456
13.4736 -6.28 2.12 15.456
44.33376 5.48 2.1 66.8896
44.33376 5.46 2.1 66.8896
44.33376 4.6 2.1 66.8896
21.41664 4.2 2.1 28.6944
21.41664 4.06 2.1 28.6944
7.645308 3.88 2.1 5.74218
7.645308 3.86 2.1 5.74218
7.645308 3.64 2.1 5.74218
7.645308 3.6 2.1 5.74218
28.29636 3.46 2.1 40.1606
28.29636 2.36 2.1 40.1606
28.29636 2.16 2.1 40.1606
28.29636 2.14 2.1 40.1606
21.41664 -0.14 2.1 28.6944
21.41664 -0.28 2.1 28.6944
17.592840000000002 -1.38 2.1 22.3214
15.15888 -1.46 2.1 18.2648
13.4736 -5.66 2.1 15.456
15.15888 -6.08 2.1 18.2648
13.4736 -6.14 2.1 15.456
44.33376 5.48 2.08 66.8896
44.33376 5.26 2.08 66.8896
44.33376 5.14 2.08 66.8896
44.33376 4.7 2.08 66.8896
44.33376 4.68 2.08 66.8896
21.41664 4.08 2.08 28.6944
21.41664 4.06 2.08 28.6944
7.645308 3.88 2.08 5.74218
7.645308 3.86 2.08 5.74218
7.645308 3.64 2.08 5.74218
7.645308 3.6 2.08 5.74218
28.29636 2.2 2.08 40.1606
28.29636 2.18 2.08 40.1606
21.41664 -0.28 2.08 28.6944
17.592840000000002 -1.38 2.08 22.3214
15.15888 -1.46 2.08 18.2648
28.29636 -2.08 2.08 40.1606
28.29636 -2.1 2.08 40.1606
28.29636 -2.8 2.08 40.1606
21.41664 -5.92 2.08 28.6944
13.4736 -6.14 2.08 15.456
44.33376 5.14 2.06 66.8896
44.33376 5.12 2.06 66.8896
44.33376 5.1 2.06 66.8896
44.33376 4.72 2.06 66.8896
44.33376 4.7 2.06 66.8896
44.33376 4.46 2.06 66.8896
21.41664 4.08 2.06 28.6944
7.645308 3.88 2.06 5.74218
7.645308 3.86 2.06 5.74218
7.645308 3.6 2.06 5.74218
28.29636 3.46 2.06 40.1606
28.29636 2.2 2.06 40.1606
28.29636 2.18 2.06 40.1606
21.41664 -0.28 2.06 28.6944
17.592840000000002 -1.36 2.06 22.3214
13.4736 -6.14 2.06 15.456
44.33376 5.74 2.04 66.8896
44.33376 5.7 2.04 66.8896
28.29636 4.72 2.04 40.1606
28.29636 4.7 2.04 40.1606
21.41664 4.08 2.04 28.6944
7.645308 3.88 2.04 5.74218
7.645308 3.86 2.04 5.74218
7.645308 3.6 2.04 5.74218
28.29636 2.6 2.04 40.1606
28.29636 2.52 2.04 40.1606
28.29636 2.34 2.04 40.1606
28.29636 2.2 2.04 40.1606
28.29636 2.18 2.04 40.1606
21.41664 -0.52 2.04 28.6944
21.41664 -2.0 2.04 28.6944
13.4736 -6.14 2.04 15.456
44.33376 5.86 2.02 66.8896
44.33376 5.74 2.02 66.8896
44.33376 5.72 2.02 66.8896
44.33376 5.5 2.02 66.8896
28.29636 4.72 2.02 40.1606
28.29636 4.7 2.02 40.1606
44.33376 4.56 2.02 66.8896
21.41664 4.08 2.02 28.6944
7.645308 3.88 2.02 5.74218
7.645308 3.86 2.02 5.74218
7.645308 3.6 2.02 5.74218
28.29636 2.6 2.02 40.1606
28.29636 2.46 2.02 40.1606
28.29636 2.36 2.02 40.1606
28.29636 2.2 2.02 40.1606
28.29636 2.18 2.02 40.1606
21.41664 -0.5 2.02 28.6944
28.29636 -1.9 2.02 40.1606
21.41664 -1.98 2.02 28.6944
21.41664 -2.0 2.02 28.6944
15.15888 -5.68 2.02 18.2648
13.4736 -6.14 2.02 15.456
13.4736 -6.28 2.02 15.456
44.33376 5.06 2.0 66.8896
28.29636 4.72 2.0 40.1606
28.29636 4.7 2.0 40.1606
44.33376 4.58 2.0 66.8896
7.645308 3.88 2.0 5.74218
7.645308 3.86 2.0 5.74218
7.645308 3.6 2.0 5.74218
28.29636 2.38 2.0 40.1606
28.29636 2.2 2.0 40.1606
21.41664 -1.96 2.0 28.6944
13.4736 -6.14 2.0 15.456
13.4736 -6.16 2.0 15.456
13.4736 -6.28 2.0 15.456
44.33376 5.52 1.98 66.8896
44.33376 5.32 1.98 66.8896
44.33376 5.04 1.98 66.8896
44.33376 4.66 1.98 66.8896
44.33376 4.62 1.98 66.8896
21.41664 4.18 1.98 28.6944
7.645308 3.88 1.98 5.74218
7.645308 3.86 1.98 5.74218
7.645308 3.62 1.98 5.74218
7.645308 3.6 1.98 5.74218
28.29636 2.22 1.98 40.1606
28.29636 2.2 1.98 40.1606
21.41664 -2.66 1.98 28.6944
15.15888 -5.68 1.98 18.2648
13.4736 -5.76 1.98 15.456
13.4736 -6.14 1.98 15.456
44.33376 5.3 1.96 66.8896
28.29636 4.72 1.96 40.1606
7.645308 3.88 1.96 5.74218
7.645308 3.86 1.96 5.74218
7.645308 3.62 1.96 5.74218
7.645308 3.6 1.96 5.74218
28.29636 2.6 1.96 40.1606
28.29636 2.24 1.96 40.1606
28.29636 2.22 1.96 40.1606
21.41664 -0.86 1.96 28.6944
28.29636 -1.44 1.96 40.1606
21.41664 -1.92 1.96 28.6944
13.4736 -6.14 1.96 15.456
13.4736 -6.3 1.96 15.456
44.33376 5.3 1.94 66.8896
28.29636 4.74 1.94 40.1606
28.29636 4.72 1.94 40.1606
7.645308 3.88 1.94 5.74218
7.645308 3.86 1.94 5.74218
7.645308 3.6 1.94 5.74218
28.29636 2.6 1.94 40.1606
28.29636 2.34 1.94 40.1606
28.29636 2.24 1.94 40.1606
21.41664 -1.9 1.94 28.6944
13.4736 -6.14 1.94 15.456
13.4736 -6.3 1.94 15.456
44.33376 5.3 1.92 66.8896
44.33376 4.48 1.92 66.8896
44.33376 4.46 1.92 66.8896
7.645308 3.88 1.92 5.74218
7.645308 3.6 1.92 5.74218
28.29636 2.34 1.92 40.1606
28.29636 2.24 1.92 40.1606
28.29636 -1.42 1.92 40.1606
21.41664 -1.88 1.92 28.6944
13.4736 -6.12 1.92 15.456
13.4736 -6.14 1.92 15.456
13.4736 -6.3 1.92 15.456
44.33376 5.58 1.9 66.8896
44.33376 5.56 1.9 66.8896
44.33376 5.28 1.9 66.8896
44.33376 5.08 1.9 66.8896
44.33376 4.46 1.9 66.8896
21.41664 3.98 1.9 28.6944
7.645308 3.88 1.9 5.74218
7.645308 3.62 1.9 5.74218
7.645308 3.6 1.9 5.74218
28.29636 3.48 1.9 40.1606
28.29636 2.34 1.9 40.1606
28.29636 2.24 1.9 40.1606
28.29636 2.2 1.9 40.1606
13.4736 -6.14 1.9 15.456
13.4736 -6.3 1.9 15.456
28.29636 5.66 1.88 40.1606
28.29636 5.64 1.88 40.1606
44.33376 5.28 1.88 66.8896
44.33376 5.26 1.88 66.8896
124.19999999999999 4.4 1.88 200.0
7.645308 3.88 1.88 5.74218
7.645308 3.62 1.88 5.74218
7.645308 3.6 1.88 5.74218
28.29636 3.48 1.88 40.1606
28.29636 2.34 1.88 40.1606
28.29636 2.24 1.88 40.1606
28.29636 2.18 1.88 40.1606
21.41664 -1.82 1.88 28.6944
13.4736 -6.14 1.88 15.456
13.4736 -6.16 1.88 15.456
13.4736 -6.3 1.88 15.456
13.4736 -6.66 1.88 15.456
28.29636 5.66 1.86 40.1606
44.33376 5.26 1.86 66.8896
44.33376 5.24 1.86 66.8896
21.41664 4.16 1.86 28.6944
7.645308 3.88 1.86 5.74218
7.645308 3.62 1.86 5.74218
7.645308 3.6 1.86 5.74218
28.29636 3.48 1.86 40.1606
28.29636 2.3 1.86 40.1606
28.29636 2.24 1.86 40.1606
17.592840000000002 -0.76 1.86 22.3214
21.41664 -1.8 1.86 28.6944
21.41664 -1.82 1.86 28.6944
13.4736 -6.14 1.86 15.456
13.4736 -6.16 1.86 15.456
13.4736 -6.3 1.86 15.456
13.4736 -6.66 1.86 15.456
44.33376 5.24 1.84 66.8896
21.41664 4.16 1.84 28.6944
7.645308 3.88 1.84 5.74218
7.645308 3.62 1.84 5.74218
7.645308 3.6 1.84 5.74218
28.29636 2.48 1.84 40.1606
17.592840000000002 -0.76 1.84 22.3214
11.29218 -1.66 1.84 11.8203
21.41664 -1.78 1.84 28.6944
21.41664 -1.8 1.84 28.6944
13.4736 -6.14 1.84 15.456
13.4736 -6.3 1.84 15.456
124.19999999999999 5.54 1.82 200.0
44.33376 5.46 1.82 66.8896
44.33376 5.22 1.82 66.8896
44.33376 5.08 1.82 66.8896
21.41664 4.16 1.82 28.6944
21.41664 4.04 1.82 28.6944
7.645308 3.88 1.82 5.74218
7.645308 3.62 1.82 5.74218
7.645308 3.6 1.82 5.74218
28.29636 2.48 1.82 40.1606
28.29636 2.18 1.82 40.1606
28.29636 -0.64 1.82 40.1606
21.41664 -1.76 1.82 28.6944
21.41664 -1.78 1.82 28.6944
28.29636 -2.12 1.82 40.1606
21.41664 -2.48 1.82 28.6944
13.4736 -6.16 1.82 15.456
44.33376 5.46 1.8 66.8896
44.33376 5.44 1.8 66.8896
44.33376 5.2 1.8 66.8896
21.41664 4.16 1.8 28.6944
7.645308 3.9 1.8 5.74218
7.645308 3.88 1.8 5.74218
7.645308 3.62 1.8 5.74218
7.645308 3.6 1.8 5.74218
28.29636 2.48 1.8 40.1606
28.29636 2.26 1.8 40.1606
28.29636 2.2 1.8 40.1606
28.29636 2.18 1.8 40.1606
17.592840000000002 -1.38 1.8 22.3214
21.41664 -1.74 1.8 28.6944
13.4736 -6.16 1.8 15.456
13.4736 -6.3 1.8 15.456
44.33376 5.46 1.78 66.8896
44.33376 5.44 1.78 66.8896
28.29636 5.18 1.78 40.1606
21.41664 4.16 1.78 28.6944
7.645308 3.88 1.78 5.74218
7.645308 3.62 1.78 5.74218
7.645308 3.6 1.78 5.74218
28.29636 2.18 1.78 40.1606
28.29636 -0.68 1.78 40.1606
17.592840000000002 -1.38 1.78 22.3214
21.41664 -1.72 1.78 28.6944
44.33376 -3.34 1.78 66.8896
44.33376 -5.58 1.78 66.8896
13.4736 -6.16 1.78 15.456
13.4736 -6.3 1.78 15.456
44.33376 5.0 1.76 66.8896
21.41664 4.08 1.76 28.6944
7.645308 3.88 1.76 5.74218
7.645308 3.62 1.76 5.74218
7.645308 3.6 1.76 5.74218
28.29636 2.18 1.76 40.1606
28.29636 -1.64 1.76 40.1606
21.41664 -1.72 1.76 28.6944
124.19999999999999 -5.46 1.76 200.0
13.4736 -6.16 1.76 15.456
13.4736 -6.3 1.76 15.456
21.41664 4.08 1.74 28.6944
7.645308 3.9 1.74 5.74218
7.645308 3.88 1.74 5.74218
7.645308 3.62 1.74 5.74218
7.645308 3.6 1.74 5.74218
28.29636 2.56 1.74 40.1606
28.29636 2.2 1.74 40.1606
28.29636 2.18 1.74 40.1606
21.41664 -1.7 1.74 28.6944
13.4736 -6.3 1.74 15.456
21.41664 4.08 1.72 28.6944
7.645308 3.9 1.72 5.74218
7.645308 3.88 1.72 5.74218
7.645308 3.62 1.72 5.74218
7.645308 3.6 1.72 5.74218
28.29636 2.2 1.72 40.1606
28.29636 2.18 1.72 40.1606
124.19999999999999 -1.48 1.72 200.0
21.41664 -1.68 1.72 28.6944
21.41664 -1.7 1.72 28.6944
21.41664 4.08 1.7 28.6944
7.645308 3.9 1.7 5.74218
7.645308 3.88 1.7 5.74218
7.645308 3.62 1.7 5.74218
7.645308 3.6 1.7 5.74218
28.29636 3.46 1.7 40.1606
28.29636 2.7 1.7 40.1606
28.29636 2.5 1.7 40.1606
28.29636 -2.52 1.7 40.1606
7.645308 3.9 1.68 5.74218
7.645308 3.88 1.68 5.74218
7.645308 3.62 1.68 5.74218
7.645308 3.6 1.68 5.74218
28.29636 2.22 1.68 40.1606
28.29636 -1.24 1.68 40.1606
21.41664 -1.66 1.68 28.6944
13.4736 -6.3 1.68 15.456
7.645308 3.9 1.66 5.74218
7.645308 3.88 1.66 5.74218
7.645308 3.62 1.66 5.74218
7.645308 3.6 1.66 5.74218
28.29636 -1.56 1.66 40.1606
21.41664 -1.64 1.66 28.6944
44.33376 -3.34 1.66 66.8896
28.29636 5.42 1.64 40.1606
28.29636 5.4 1.64 40.1606
7.645308 3.9 1.64 5.74218
7.645308 3.88 1.64 5.74218
7.645308 3.62 1.64 5.74218
7.645308 3.6 1.64 5.74218
28.29636 2.66 1.64 40.1606
28.29636 2.26 1.64 40.1606
28.29636 2.14 1.64 40.1606
17.592840000000002 -1.36 1.64 22.3214
21.41664 -1.62 1.64 28.6944
21.41664 -1.64 1.64 28.6944
44.33376 5.34 1.62 66.8896
7.645308 3.9 1.62 5.74218
7.645308 3.88 1.62 5.74218
7.645308 3.62 1.62 5.74218
7.645308 3.6 1.62 5.74218
28.29636 2.14 1.62 40.1606
21.41664 -1.6 1.62 28.6944
21.41664 -1.62 1.62 28.6944
28.29636 5.38 1.6 40.1606
7.645308 3.9 1.6 5.74218
7.645308 3.88 1.6 5.74218
7.645308 3.62 1.6 5.74218
7.645308 3.6 1.6 5.74218
28.29636 2.4 1.6 40.1606
28.29636 2.14 1.6 40.1606
21.41664 -1.6 1.6 28.6944
7.645308 3.9 1.58 5.74218
7.645308 3.88 1.58 5.74218
7.645308 3.62 1.58 5.74218
7.645308 3.6 1.58 5.74218
28.29636 2.66 1.58 40.1606
28.29636 2.2 1.58 40.1606
21.41664 -1.58 1.58 28.6944
7.645308 3.9 1.56 5.74218
7.645308 3.88 1.56 5.74218
7.645308 3.62 1.56 5.74218
7.645308 3.6 1.56 5.74218
28.29636 2.66 1.56 40.1606
28.29636 2.22 1.56 40.1606
28.29636 2.14 1.56 40.1606
17.592840000000002 -1.34 1.56 22.3214
21.41664 -1.58 1.56 28.6944
44.33376 -3.34 1.56 66.8896
13.4736 -6.16 1.56 15.456
7.645308 3.9 1.54 5.74218
7.645308 3.88 1.54 5.74218
7.645308 3.62 1.54 5.74218
28.29636 2.22 1.54 40.1606
28.29636 2.14 1.54 40.1606
17.592840000000002 -2.16 1.54 22.3214
44.33376 -3.32 1.54 66.8896
44.33376 -3.34 1.54 66.8896
13.4736 -6.16 1.54 15.456
7.645308 3.9 1.52 5.74218
7.645308 3.88 1.52 5.74218
7.645308 3.62 1.52 5.74218
28.29636 2.74 1.52 40.1606
28.29636 2.22 1.52 40.1606
17.592840000000002 -2.14 1.52 22.3214
28.29636 5.6 1.5 40.1606
21.41664 4.52 1.5 28.6944
21.41664 3.98 1.5 28.6944
7.645308 3.9 1.5 5.74218
7.645308 3.88 1.5 5.74218
7.645308 3.62 1.5 5.74218
28.29636 2.74 1.5 40.1606
28.29636 2.46 1.5 40.1606
28.29636 2.22 1.5 40.1606
28.29636 2.1 1.5 40.1606
21.41664 -0.92 1.5 28.6944
21.41664 -2.06 1.5 28.6944
21.41664 4.52 1.48 28.6944
7.645308 3.9 1.48 5.74218
7.645308 3.88 1.48 5.74218
7.645308 3.62 1.48 5.74218
28.29636 2.74 1.48 40.1606
28.29636 2.22 1.48 40.1606
28.29636 2.1 1.48 40.1606
21.41664 -1.3 1.48 28.6944
7.645308 3.9 1.46 5.74218
7.645308 3.88 1.46 5.74218
7.645308 3.62 1.46 5.74218
28.29636 2.74 1.46 40.1606
28.29636 2.62 1.46 40.1606
28.29636 2.12 1.46 40.1606
28.29636 2.1 1.46 40.1606
21.41664 -1.26 1.46 28.6944
21.41664 -1.28 1.46 28.6944
13.4736 -1.42 1.46 15.456
124.19999999999999 -2.26 1.46 200.0
7.645308 3.9 1.44 5.74218
7.645308 3.88 1.44 5.74218
7.645308 3.62 1.44 5.74218
28.29636 2.72 1.44 40.1606
28.29636 2.62 1.44 40.1606
28.29636 2.16 1.44 40.1606
13.4736 -1.42 1.44 15.456
7.645308 3.9 1.42 5.74218
7.645308 3.88 1.42 5.74218
7.645308 3.62 1.42 5.74218
28.29636 2.72 1.42 40.1606
28.29636 2.4 1.42 40.1606
28.29636 2.14 1.42 40.1606
7.645308 3.9 1.4 5.74218
7.645308 3.88 1.4 5.74218
7.645308 3.62 1.4 5.74218
44.33376 2.46 1.4 66.8896
28.29636 2.42 1.4 40.1606
28.29636 2.4 1.4 40.1606
28.29636 2.14 1.4 40.1606
28.29636 2.12 1.4 40.1606
124.19999999999999 -1.02 1.4 200.0
21.41664 -1.4 1.4 28.6944
21.41664 -1.92 1.4 28.6944
13.4736 -6.18 1.4 15.456
7.645308 3.9 1.38 5.74218
7.645308 3.88 1.38 5.74218
7.645308 3.62 1.38 5.74218
28.29636 2.7 1.38 40.1606
28.29636 2.52 1.38 40.1606
28.29636 2.4 1.38 40.1606
28.29636 2.12 1.38 40.1606
21.41664 -1.36 1.38 28.6944
21.41664 -1.38 1.38 28.6944
21.41664 -1.9 1.38 28.6944
7.645308 3.9 1.36 5.74218
7.645308 3.88 1.36 5.74218
7.645308 3.62 1.36 5.74218
28.29636 2.7 1.36 40.1606
28.29636 2.12 1.36 40.1606
21.41664 -1.34 1.36 28.6944
21.41664 -1.36 1.36 28.6944
21.41664 -1.88 1.36 28.6944
7.645308 3.9 1.34 5.74218
7.645308 3.88 1.34 5.74218
7.645308 3.62 1.34 5.74218
28.29636 2.34 1.34 40.1606
28.29636 2.12 1.34 40.1606
21.41664 -1.32 1.34 28.6944
21.41664 -1.34 1.34 28.6944
7.645308 3.9 1.32 5.74218
7.645308 3.88 1.32 5.74218
7.645308 3.62 1.32 5.74218
28.29636 2.68 1.32 40.1606
28.29636 2.12 1.32 40.1606
28.29636 2.1 1.32 40.1606
21.41664 -1.3 1.32 28.6944
21.41664 -1.32 1.32 28.6944
7.645308 3.9 1.3 5.74218
7.645308 3.62 1.3 5.74218
28.29636 2.68 1.3 40.1606
28.29636 2.4 1.3 40.1606
28.29636 2.12 1.3 40.1606
28.29636 2.1 1.3 40.1606
21.41664 -1.28 1.3 28.6944
21.41664 -1.3 1.3 28.6944
21.41664 -1.8 1.3 28.6944
7.645308 3.9 1.28 5.74218
7.645308 3.62 1.28 5.74218
28.29636 2.66 1.28 40.1606
28.29636 2.4 1.28 40.1606
28.29636 2.14 1.28 40.1606
28.29636 2.12 1.28 40.1606
21.41664 -1.28 1.28 28.6944
21.41664 4.08 1.26 28.6944
7.645308 3.9 1.26 5.74218
7.645308 3.62 1.26 5.74218
28.29636 2.64 1.26 40.1606
28.29636 2.14 1.26 40.1606
28.29636 2.12 1.26 40.1606
21.41664 -1.28 1.26 28.6944
21.41664 -1.74 1.26 28.6944
13.4736 -6.32 1.26 15.456
7.645308 3.92 1.24 5.74218
7.645308 3.9 1.24 5.74218
7.645308 3.62 1.24 5.74218
28.29636 2.14 1.24 40.1606
28.29636 2.12 1.24 40.1606
21.41664 -1.28 1.24 28.6944
13.4736 -6.32 1.24 15.456
7.645308 3.92 1.22 5.74218
7.645308 3.9 1.22 5.74218
7.645308 3.62 1.22 5.74218
28.29636 2.62 1.22 40.1606
28.29636 2.32 1.22 40.1606
28.29636 2.14 1.22 40.1606
28.29636 2.12 1.22 40.1606
13.4736 -6.32 1.22 15.456
7.645308 3.92 1.2 5.74218
7.645308 3.9 1.2 5.74218
7.645308 3.62 1.2 5.74218
28.29636 3.56 1.2 40.1606
28.29636 2.62 1.2 40.1606
28.29636 2.12 1.2 40.1606
21.41664 5.42 1.18 28.6944
7.645308 3.92 1.18 5.74218
7.645308 3.9 1.18 5.74218
28.29636 2.62 1.18 40.1606
7.645308 3.92 1.16 5.74218
7.645308 3.9 1.16 5.74218
28.29636 2.6 1.16 40.1606
7.645308 3.92 1.14 5.74218
7.645308 3.9 1.14 5.74218
28.29636 2.62 1.14 40.1606
21.41664 -1.6 1.14 28.6944
7.645308 3.92 1.12 5.74218
7.645308 3.9 1.12 5.74218
7.8540779999999994 3.56 1.12 6.09013
28.29636 2.62 1.12 40.1606
21.41664 -1.58 1.12 28.6944
28.29636 -1.74 1.12 40.1606
7.645308 3.92 1.1 5.74218
7.645308 3.9 1.1 5.74218
7.8540779999999994 3.56 1.1 6.09013
28.29636 2.62 1.1 40.1606
28.29636 2.14 1.1 40.1606
28.29636 2.04 1.1 40.1606
44.33376 1.24 1.1 66.8896
44.33376 -1.44 1.1 66.8896
124.19999999999999 -2.32 1.1 200.0
21.41664 4.48 1.08 28.6944
7.645308 3.92 1.08 5.74218
7.645308 3.9 1.08 5.74218
7.645308 3.62 1.08 5.74218
28.29636 2.62 1.08 40.1606
28.29636 2.52 1.08 40.1606
28.29636 2.04 1.08 40.1606
13.4736 -6.34 1.08 15.456
7.645308 3.92 1.06 5.74218
7.645308 3.9 1.06 5.74218
7.645308 3.64 1.06 5.74218
28.29636 3.1 1.06 40.1606
28.29636 2.0 1.06 40.1606
13.4736 -6.34 1.06 15.456
21.41664 5.48 1.04 28.6944
21.41664 5.26 1.04 28.6944
21.41664 4.64 1.04 28.6944
7.645308 3.92 1.04 5.74218
7.645308 3.9 1.04 5.74218
7.645308 3.64 1.04 5.74218
7.645308 3.56 1.04 5.74218
21.41664 -1.26 1.04 28.6944
21.41664 5.58 1.02 28.6944
21.41664 5.48 1.02 28.6944
21.41664 4.64 1.02 28.6944
7.645308 3.92 1.02 5.74218
7.645308 3.9 1.02 5.74218
7.645308 3.64 1.02 5.74218
7.645308 3.56 1.02 5.74218
44.33376 1.06 1.02 66.8896
21.41664 -1.26 1.02 28.6944
13.4736 -6.16 1.02 15.456
7.645308 3.92 1.0 5.74218
7.645308 3.9 1.0 5.74218
7.141176 3.74 1.0 4.90196
7.645308 3.64 1.0 5.74218
7.645308 3.6 1.0 5.74218
7.645308 3.56 1.0 5.74218
28.29636 2.62 1.0 40.1606
28.29636 2.18 1.0 40.1606
28.29636 1.94 1.0 40.1606
124.19999999999999 -1.04 1.0 200.0
21.41664 -1.26 1.0 28.6944
13.4736 -6.18 1.0 15.456
21.41664 4.24 0.98 28.6944
7.645308 3.92 0.98 5.74218
7.645308 3.9 0.98 5.74218
7.645308 3.64 0.98 5.74218
7.645308 3.56 0.98 5.74218
28.29636 2.62 0.98 40.1606
28.29636 2.18 0.98 40.1606
13.4736 -6.18 0.98 15.456
21.41664 5.56 0.96 28.6944
21.41664 4.08 0.96 28.6944
7.645308 3.92 0.96 5.74218
7.645308 3.9 0.96 5.74218
44.33376 2.0 0.96 66.8896
44.33376 -1.32 0.96 66.8896
13.4736 -6.18 0.96 15.456
13.4736 -6.34 0.96 15.456
21.41664 5.56 0.94 28.6944
21.41664 4.08 0.94 28.6944
7.645308 3.92 0.94 5.74218
7.645308 3.9 0.94 5.74218
7.645308 3.64 0.94 5.74218
7.645308 3.56 0.94 5.74218
28.29636 2.3 0.94 40.1606
28.29636 2.02 0.94 40.1606
28.29636 2.0 0.94 40.1606
13.4736 -6.34 0.94 15.456
7.645308 3.92 0.92 5.74218
7.645308 3.9 0.92 5.74218
7.645308 3.56 0.92 5.74218
28.29636 3.14 0.92 40.1606
28.29636 2.04 0.92 40.1606
21.41664 -1.42 0.92 28.6944
124.19999999999999 -2.34 0.92 200.0
13.4736 -6.34 0.92 15.456
7.645308 3.92 0.9 5.74218
7.645308 3.9 0.9 5.74218
28.29636 2.04 0.9 40.1606
44.33376 5.94 0.88 66.8896
44.33376 5.92 0.88 66.8896
7.645308 3.92 0.88 5.74218
7.645308 3.9 0.88 5.74218
28.29636 2.1 0.88 40.1606
28.29636 2.06 0.88 40.1606
28.29636 2.04 0.88 40.1606
44.33376 5.92 0.86 66.8896
7.645308 3.92 0.86 5.74218
7.645308 3.9 0.86 5.74218
7.645308 3.64 0.86 5.74218
7.645308 3.6 0.86 5.74218
28.29636 2.12 0.86 40.1606
28.29636 2.1 0.86 40.1606
7.645308 3.92 0.84 5.74218
7.645308 3.9 0.84 5.74218
7.645308 3.64 0.84 5.74218
21.41664 -1.36 0.84 28.6944
13.4736 -6.18 0.84 15.456
13.4736 -6.36 0.84 15.456
7.645308 3.92 0.82 5.74218
7.645308 3.64 0.82 5.74218
7.645308 3.6 0.82 5.74218
7.8540779999999994 3.56 0.82 6.09013
28.29636 2.1 0.82 40.1606
21.41664 -1.36 0.82 28.6944
13.4736 -6.18 0.82 15.456
13.4736 -6.36 0.82 15.456
7.645308 3.94 0.8 5.74218
7.645308 3.92 0.8 5.74218
7.645308 3.74 0.8 5.74218
7.8540779999999994 3.64 0.8 6.09013
7.645308 3.6 0.8 5.74218
7.8540779999999994 3.56 0.8 6.09013
28.29636 2.12 0.8 40.1606
28.29636 2.1 0.8 40.1606
21.41664 -1.36 0.8 28.6944
13.4736 -6.18 0.8 15.456
21.41664 5.78 0.78 28.6944
7.645308 3.94 0.78 5.74218
7.645308 3.92 0.78 5.74218
7.8540779999999994 3.64 0.78 6.09013
7.645308 3.6 0.78 5.74218
7.8540779999999994 3.56 0.78 6.09013
124.19999999999999 -0.28 0.78 200.0
13.4736 -6.18 0.78 15.456
21.41664 5.78 0.76 28.6944
21.41664 5.32 0.76 28.6944
7.645308 3.94 0.76 5.74218
7.645308 3.92 0.76 5.74218
7.645308 3.7 0.76 5.74218
7.645308 3.6 0.76 5.74218
7.8540779999999994 3.56 0.76 6.09013
28.29636 2.48 0.76 40.1606
44.33376 1.42 0.76 66.8896
44.33376 1.24 0.76 66.8896
124.19999999999999 -0.28 0.76 200.0
13.4736 -6.18 0.76 15.456
21.41664 4.22 0.74 28.6944
7.645308 4.0 0.74 5.74218
7.645308 3.98 0.74 5.74218
7.645308 3.7 0.74 5.74218
28.29636 2.48 0.74 40.1606
44.33376 1.42 0.74 66.8896
44.33376 1.24 0.74 66.8896
124.19999999999999 -0.28 0.74 200.0
13.4736 -6.18 0.74 15.456
13.4736 -6.36 0.74 15.456
7.645308 4.0 0.72 5.74218
7.645308 3.98 0.72 5.74218
44.33376 3.24 0.72 66.8896
44.33376 2.92 0.72 66.8896
28.29636 2.48 0.72 40.1606
28.29636 2.16 0.72 40.1606
44.33376 1.42 0.72 66.8896
44.33376 1.24 0.72 66.8896
44.33376 0.62 0.72 66.8896
124.19999999999999 -0.22 0.72 200.0
124.19999999999999 -0.28 0.72 200.0
21.41664 -1.32 0.72 28.6944
13.4736 -6.18 0.72 15.456
21.41664 4.22 0.7 28.6944
7.645308 3.98 0.7 5.74218
7.645308 3.96 0.7 5.74218
28.29636 3.58 0.7 40.1606
44.33376 3.24 0.7 66.8896
28.29636 2.5 0.7 40.1606
28.29636 2.18 0.7 40.1606
44.33376 1.84 0.7 66.8896
44.33376 1.42 0.7 66.8896
44.33376 0.62 0.7 66.8896
44.33376 -0.28 0.7 66.8896
21.41664 -1.32 0.7 28.6944
21.41664 4.22 0.68 28.6944
7.645308 3.98 0.68 5.74218
28.29636 2.5 0.68 40.1606
28.29636 2.2 0.68 40.1606
28.29636 2.18 0.68 40.1606
44.33376 1.84 0.68 66.8896
44.33376 1.24 0.68 66.8896
44.33376 0.62 0.68 66.8896
124.19999999999999 -0.62 0.68 200.0
44.33376 -0.72 0.68 66.8896
13.4736 -6.18 0.68 15.456
21.41664 4.22 0.66 28.6944
7.645308 3.98 0.66 5.74218
7.645308 3.64 0.66 5.74218
28.29636 3.58 0.66 40.1606
28.29636 2.5 0.66 40.1606
28.29636 2.22 0.66 40.1606
44.33376 1.42 0.66 66.8896
44.33376 1.24 0.66 66.8896
44.33376 0.62 0.66 66.8896
13.4736 -6.18 0.66 15.456
13.4736 -6.2 0.66 15.456
21.41664 5.44 0.64 28.6944
7.645308 3.98 0.64 5.74218
7.645308 3.88 0.64 5.74218
28.29636 3.62 0.64 40.1606
28.29636 3.58 0.64 40.1606
28.29636 2.24 0.64 40.1606
28.29636 2.22 0.64 40.1606
44.33376 1.86 0.64 66.8896
44.33376 1.42 0.64 66.8896
44.33376 1.24 0.64 66.8896
21.41664 5.44 0.62 28.6944
7.645308 3.98 0.62 5.74218
7.645308 3.88 0.62 5.74218
7.645308 3.78 0.62 5.74218
28.29636 3.58 0.62 40.1606
28.29636 2.48 0.62 40.1606
28.29636 2.4 0.62 40.1606
44.33376 2.34 0.62 66.8896
28.29636 2.28 0.62 40.1606
44.33376 1.42 0.62 66.8896
44.33376 1.24 0.62 66.8896
44.33376 0.62 0.62 66.8896
21.41664 -1.3 0.62 28.6944
13.4736 -6.2 0.62 15.456
21.41664 4.24 0.6 28.6944
7.645308 3.98 0.6 5.74218
7.645308 3.94 0.6 5.74218
7.645308 3.9 0.6 5.74218
28.29636 2.48 0.6 40.1606
28.29636 2.4 0.6 40.1606
44.33376 1.84 0.6 66.8896
124.19999999999999 0.84 0.6 200.0
44.33376 0.62 0.6 66.8896
13.4736 -6.2 0.6 15.456
7.645308 3.98 0.58 5.74218
28.29636 2.92 0.58 40.1606
28.29636 2.42 0.58 40.1606
28.29636 2.4 0.58 40.1606
44.33376 0.62 0.58 66.8896
21.41664 -1.32 0.58 28.6944
13.4736 -6.18 0.58 15.456
13.4736 -6.2 0.58 15.456
12.23748 -6.26 0.58 13.3958
7.645308 3.98 0.56 5.74218
7.645308 3.88 0.56 5.74218
7.645308 3.64 0.56 5.74218
28.29636 3.58 0.56 40.1606
28.29636 2.42 0.56 40.1606
44.33376 0.62 0.56 66.8896
13.4736 -6.18 0.56 15.456
13.4736 -6.2 0.56 15.456
21.41664 5.66 0.54 28.6944
21.41664 5.42 0.54 28.6944
7.645308 3.98 0.54 5.74218
7.645308 3.64 0.54 5.74218
28.29636 3.62 0.54 40.1606
28.29636 3.58 0.54 40.1606
28.29636 2.84 0.54 40.1606
28.29636 2.42 0.54 40.1606
13.4736 -6.18 0.54 15.456
13.4736 -6.2 0.54 15.456
21.41664 5.7 0.52 28.6944
21.41664 5.68 0.52 28.6944
21.41664 5.42 0.52 28.6944
21.41664 5.22 0.52 28.6944
28.29636 3.58 0.52 40.1606
28.29636 2.42 0.52 40.1606
13.4736 -6.2 0.52 15.456
44.33376 -6.7 0.52 66.8896
28.29636 -6.72 0.52 40.1606
21.41664 5.7 0.5 28.6944
21.41664 5.68 0.5 28.6944
7.645308 3.94 0.5 5.74218
7.645308 3.92 0.5 5.74218
7.8540779999999994 3.72 0.5 6.09013
7.8540779999999994 3.7 0.5 6.09013
7.645308 3.68 0.5 5.74218
7.645308 3.66 0.5 5.74218
28.29636 3.58 0.5 40.1606
21.41664 3.32 0.5 28.6944
28.29636 2.5 0.5 40.1606
28.29636 2.42 0.5 40.1606
13.4736 -6.2 0.5 15.456
7.645308 3.94 0.48 5.74218
7.645308 3.92 0.48 5.74218
7.645308 3.68 0.48 5.74218
28.29636 3.58 0.48 40.1606
21.41664 3.34 0.48 28.6944
21.41664 3.32 0.48 28.6944
17.592840000000002 3.26 0.48 22.3214
28.29636 2.5 0.48 40.1606
28.29636 2.42 0.48 40.1606
13.4736 -6.2 0.48 15.456
7.645308 3.94 0.46 5.74218
7.645308 3.92 0.46 5.74218
7.8540779999999994 3.64 0.46 6.09013
28.29636 3.58 0.46 40.1606
21.41664 3.34 0.46 28.6944
21.41664 3.32 0.46 28.6944
28.29636 2.42 0.46 40.1606
13.4736 -6.2 0.46 15.456
7.645308 3.94 0.44 5.74218
7.645308 3.92 0.44 5.74218
7.645308 3.64 0.44 5.74218
21.41664 3.34 0.44 28.6944
21.41664 3.32 0.44 28.6944
28.29636 2.96 0.44 40.1606
28.29636 2.86 0.44 40.1606
28.29636 2.42 0.44 40.1606
21.41664 -4.58 0.44 28.6944
17.592840000000002 -4.68 0.44 22.3214
15.15888 -4.74 0.44 18.2648
13.4736 -6.2 0.44 15.456
7.645308 3.94 0.42 5.74218
7.645308 3.92 0.42 5.74218
7.645308 3.64 0.42 5.74218
28.29636 2.86 0.42 40.1606
28.29636 2.42 0.42 40.1606
28.29636 -4.52 0.42 40.1606
28.29636 -4.54 0.42 40.1606
21.41664 -4.58 0.42 28.6944
21.41664 -4.6 0.42 28.6944
21.41664 -4.62 0.42 28.6944
21.41664 -4.66 0.42 28.6944
17.592840000000002 -4.68 0.42 22.3214
124.19999999999999 -6.62 0.42 200.0
44.33376 -6.68 0.42 66.8896
44.33376 -6.7 0.42 66.8896
21.41664 4.2 0.4 28.6944
7.645308 3.94 0.4 5.74218
7.645308 3.92 0.4 5.74218
7.645308 3.64 0.4 5.74218
28.29636 3.58 0.4 40.1606
28.29636 2.42 0.4 40.1606
44.33376 1.16 0.4 66.8896
44.33376 -4.46 0.4 66.8896
28.29636 -4.52 0.4 40.1606
28.29636 -4.54 0.4 40.1606
21.41664 -4.64 0.4 28.6944
7.645308 3.94 0.38 5.74218
7.645308 3.92 0.38 5.74218
7.645308 3.64 0.38 5.74218
28.29636 3.58 0.38 40.1606
124.19999999999999 2.68 0.38 200.0
28.29636 2.52 0.38 40.1606
28.29636 2.42 0.38 40.1606
44.33376 1.16 0.38 66.8896
124.19999999999999 -4.4 0.38 200.0
44.33376 -4.46 0.38 66.8896
28.29636 -4.54 0.38 40.1606
21.41664 -4.62 0.38 28.6944
21.41664 -4.64 0.38 28.6944
21.41664 -4.66 0.38 28.6944
17.592840000000002 -4.68 0.38 22.3214
17.592840000000002 -4.7 0.38 22.3214
15.15888 -4.74 0.38 18.2648
15.15888 -4.76 0.38 18.2648
7.645308 3.94 0.36 5.74218
7.645308 3.92 0.36 5.74218
7.645308 3.64 0.36 5.74218
28.29636 3.58 0.36 40.1606
44.33376 2.82 0.36 66.8896
124.19999999999999 2.68 0.36 200.0
28.29636 2.42 0.36 40.1606
44.33376 1.16 0.36 66.8896
44.33376 0.74 0.36 66.8896
28.29636 -4.54 0.36 40.1606
28.29636 -4.56 0.36 40.1606
28.29636 -4.58 0.36 40.1606
124.19999999999999 -6.56 0.36 200.0
124.19999999999999 -6.62 0.36 200.0
44.33376 -6.7 0.36 66.8896
7.645308 3.96 0.34 5.74218
7.645308 3.94 0.34 5.74218
7.645308 3.92 0.34 5.74218
7.645308 3.64 0.34 5.74218
28.29636 3.58 0.34 40.1606
21.41664 3.32 0.34 28.6944
44.33376 3.1 0.34 66.8896
124.19999999999999 2.74 0.34 200.0
28.29636 2.42 0.34 40.1606
44.33376 0.74 0.34 66.8896
44.33376 -4.48 0.34 66.8896
7.645308 3.96 0.32 5.74218
7.645308 3.94 0.32 5.74218
7.645308 3.92 0.32 5.74218
7.645308 3.64 0.32 5.74218
28.29636 3.58 0.32 40.1606
28.29636 2.42 0.32 40.1606
28.29636 2.4 0.32 40.1606
44.33376 1.16 0.32 66.8896
44.33376 0.74 0.32 66.8896
7.645308 3.94 0.3 5.74218
7.645308 3.92 0.3 5.74218
7.645308 3.64 0.3 5.74218
44.33376 2.94 0.3 66.8896
28.29636 2.4 0.3 40.1606
44.33376 2.14 0.3 66.8896
44.33376 1.16 0.3 66.8896
44.33376 0.74 0.3 66.8896
28.29636 -4.54 0.3 40.1606
21.41664 -4.58 0.3 28.6944
17.592840000000002 -4.64 0.3 22.3214
17.592840000000002 -4.68 0.3 22.3214
15.15888 -4.74 0.3 18.2648
13.4736 -6.18 0.3 15.456
28.29636 5.6 0.28 40.1606
21.41664 4.16 0.28 28.6944
7.645308 3.94 0.28 5.74218
7.645308 3.92 0.28 5.74218
7.645308 3.64 0.28 5.74218
28.29636 2.4 0.28 40.1606
44.33376 1.16 0.28 66.8896
44.33376 0.74 0.28 66.8896
28.29636 -4.52 0.28 40.1606
28.29636 -4.54 0.28 40.1606
28.29636 -4.58 0.28 40.1606
17.592840000000002 -4.68 0.28 22.3214
15.15888 -4.74 0.28 18.2648
13.4736 -6.18 0.28 15.456
28.29636 5.6 0.26 40.1606
28.29636 5.58 0.26 40.1606
7.645308 3.96 0.26 5.74218
7.645308 3.94 0.26 5.74218
7.645308 3.64 0.26 5.74218
28.29636 2.38 0.26 40.1606
44.33376 1.16 0.26 66.8896
124.19999999999999 -4.46 0.26 200.0
28.29636 -4.52 0.26 40.1606
28.29636 -4.54 0.26 40.1606
28.29636 -4.58 0.26 40.1606
21.41664 -4.6 0.26 28.6944
21.41664 -4.64 0.26 28.6944
17.592840000000002 -4.66 0.26 22.3214
17.592840000000002 -4.68 0.26 22.3214
15.15888 -4.74 0.26 18.2648
13.4736 -4.8 0.26 15.456
13.4736 -6.18 0.26 15.456
7.645308 3.96 0.24 5.74218
7.645308 3.94 0.24 5.74218
7.645308 3.92 0.24 5.74218
7.645308 3.64 0.24 5.74218
28.29636 2.38 0.24 40.1606
44.33376 1.16 0.24 66.8896
44.33376 0.74 0.24 66.8896
28.29636 -4.54 0.24 40.1606
21.41664 -4.64 0.24 28.6944
17.592840000000002 -4.68 0.24 22.3214
15.15888 -4.74 0.24 18.2648
7.645308 3.96 0.22 5.74218
7.645308 3.94 0.22 5.74218
7.645308 3.64 0.22 5.74218
44.33376 0.74 0.22 66.8896
124.19999999999999 -4.42 0.22 200.0
28.29636 -4.52 0.22 40.1606
28.29636 -4.54 0.22 40.1606
28.29636 -4.56 0.22 40.1606
21.41664 -4.6 0.22 28.6944
21.41664 -4.62 0.22 28.6944
21.41664 -4.64 0.22 28.6944
17.592840000000002 -4.68 0.22 22.3214
15.15888 -4.74 0.22 18.2648
7.645308 3.96 0.2 5.74218
7.645308 3.94 0.2 5.74218
7.645308 3.64 0.2 5.74218
28.29636 2.36 0.2 40.1606
44.33376 0.74 0.2 66.8896
44.33376 0.54 0.2 66.8896
124.19999999999999 -4.42 0.2 200.0
124.19999999999999 -4.46 0.2 200.0
28.29636 -4.48 0.2 40.1606
28.29636 -4.52 0.2 40.1606
28.29636 -4.54 0.2 40.1606
21.41664 -4.58 0.2 28.6944
21.41664 -4.6 0.2 28.6944
21.41664 -4.62 0.2 28.6944
17.592840000000002 -4.68 0.2 22.3214
21.41664 4.1 0.18 28.6944
7.645308 3.96 0.18 5.74218
7.645308 3.94 0.18 5.74218
7.645308 3.64 0.18 5.74218
28.29636 2.38 0.18 40.1606
44.33376 0.74 0.18 66.8896
44.33376 0.54 0.18 66.8896
124.19999999999999 -4.42 0.18 200.0
28.29636 -4.48 0.18 40.1606
28.29636 -4.52 0.18 40.1606
28.29636 -4.54 0.18 40.1606
21.41664 -4.58 0.18 28.6944
21.41664 -4.6 0.18 28.6944
21.41664 -4.62 0.18 28.6944
21.41664 -4.66 0.18 28.6944
7.645308 3.96 0.16 5.74218
7.645308 3.94 0.16 5.74218
7.645308 3.64 0.16 5.74218
28.29636 2.38 0.16 40.1606
44.33376 2.16 0.16 66.8896
44.33376 0.54 0.16 66.8896
28.29636 -4.52 0.16 40.1606
21.41664 -4.58 0.16 28.6944
21.41664 -4.6 0.16 28.6944
21.41664 5.7 0.14 28.6944
21.41664 4.1 0.14 28.6944
7.645308 3.96 0.14 5.74218
7.645308 3.94 0.14 5.74218
7.645308 3.64 0.14 5.74218
28.29636 3.48 0.14 40.1606
28.29636 2.54 0.14 40.1606
21.41664 4.1 0.12 28.6944
7.645308 3.96 0.12 5.74218
7.645308 3.94 0.12 5.74218
7.645308 3.64 0.12 5.74218
28.29636 3.48 0.12 40.1606
28.29636 2.44 0.12 40.1606
28.29636 2.42 0.12 40.1606
7.645308 3.96 0.1 5.74218
7.645308 3.94 0.1 5.74218
7.645308 3.64 0.1 5.74218
28.29636 2.44 0.1 40.1606
44.33376 2.22 0.1 66.8896
124.19999999999999 0.22 0.1 200.0
7.645308 3.96 0.08 5.74218
7.645308 3.94 0.08 5.74218
7.645308 3.64 0.08 5.74218
28.29636 3.48 0.08 40.1606
28.29636 2.44 0.08 40.1606
44.33376 2.22 0.08 66.8896
44.33376 -3.66 0.08 66.8896
28.29636 -4.02 0.08 40.1606
28.29636 4.5 0.06 40.1606
7.645308 3.96 0.06 5.74218
7.645308 3.94 0.06 5.74218
7.645308 3.64 0.06 5.74218
28.29636 3.48 0.06 40.1606
28.29636 2.46 0.06 40.1606
28.29636 2.44 0.06 40.1606
44.33376 2.22 0.06 66.8896
28.29636 -3.96 0.06 40.1606
21.41664 -4.02 0.06 28.6944
17.592840000000002 -4.1 0.06 22.3214
13.4736 -6.2 0.06 15.456
7.645308 3.96 0.04 5.74218
7.645308 3.94 0.04 5.74218
7.645308 3.64 0.04 5.74218
28.29636 3.48 0.04 40.1606
28.29636 2.54 0.04 40.1606
28.29636 2.46 0.04 40.1606
28.29636 2.44 0.04 40.1606
124.19999999999999 -3.84 0.04 200.0
124.19999999999999 -3.86 0.04 200.0
124.19999999999999 -3.88 0.04 200.0
28.29636 -3.92 0.04 40.1606
28.29636 -3.94 0.04 40.1606
28.29636 -3.96 0.04 40.1606
21.41664 -4.02 0.04 28.6944
21.41664 -4.04 0.04 28.6944
21.41664 -4.06 0.04 28.6944
17.592840000000002 -4.1 0.04 22.3214
17.592840000000002 -4.12 0.04 22.3214
15.15888 -4.16 0.04 18.2648
13.4736 -4.22 0.04 15.456
7.645308 3.96 0.02 5.74218
7.645308 3.94 0.02 5.74218
7.645308 3.64 0.02 5.74218
28.29636 3.48 0.02 40.1606
21.41664 3.32 0.02 28.6944
28.29636 2.46 0.02 40.1606
28.29636 2.44 0.02 40.1606
124.19999999999999 -3.84 0.02 200.0
124.19999999999999 -3.86 0.02 200.0
28.29636 -3.92 0.02 40.1606
28.29636 -3.94 0.02 40.1606
28.29636 -3.96 0.02 40.1606
21.41664 -4.0 0.02 28.6944
21.41664 -4.02 0.02 28.6944
21.41664 -4.04 0.02 28.6944
21.41664 -4.08 0.02 28.6944
17.592840000000002 -4.1 0.02 22.3214
15.15888 -4.16 0.02 18.2648
28.29636 5.92 0.0 40.1606
28.29636 5.9 0.0 40.1606
21.41664 4.22 0.0 28.6944
7.645308 3.96 0.0 5.74218
7.645308 3.94 0.0 5.74218
7.645308 3.64 0.0 5.74218
28.29636 3.48 0.0 40.1606
21.41664 3.32 0.0 28.6944
28.29636 2.46 0.0 40.1606
28.29636 2.44 0.0 40.1606
44.33376 1.24 0.0 66.8896
124.19999999999999 -1.56 0.0 200.0
124.19999999999999 -3.84 0.0 200.0
124.19999999999999 -3.86 0.0 200.0
28.29636 -3.92 0.0 40.1606
28.29636 -3.94 0.0 40.1606
28.29636 -3.96 0.0 40.1606
21.41664 -4.02 0.0 28.6944
21.41664 -4.04 0.0 28.6944
7.645308 3.96 -0.02 5.74218
7.645308 3.94 -0.02 5.74218
7.645308 3.66 -0.02 5.74218
7.645308 3.64 -0.02 5.74218
28.29636 3.48 -0.02 40.1606
28.29636 2.56 -0.02 40.1606
28.29636 2.46 -0.02 40.1606
44.33376 1.62 -0.02 66.8896
44.33376 1.24 -0.02 66.8896
44.33376 0.84 -0.02 66.8896
44.33376 0.82 -0.02 66.8896
15.15888 -1.36 -0.02 18.2648
124.19999999999999 -1.58 -0.02 200.0
28.29636 -3.92 -0.02 40.1606
28.29636 -3.96 -0.02 40.1606
21.41664 -4.02 -0.02 28.6944
21.41664 -4.04 -0.02 28.6944
7.645308 3.96 -0.04 5.74218
7.645308 3.94 -0.04 5.74218
7.645308 3.66 -0.04 5.74218
7.645308 3.64 -0.04 5.74218
28.29636 2.56 -0.04 40.1606
28.29636 2.46 -0.04 40.1606
44.33376 2.18 -0.04 66.8896
44.33376 1.62 -0.04 66.8896
44.33376 0.24 -0.04 66.8896
21.41664 4.72 -0.06 28.6944
7.645308 3.94 -0.06 5.74218
7.645308 3.66 -0.06 5.74218
7.645308 3.64 -0.06 5.74218
28.29636 2.56 -0.06 40.1606
28.29636 2.46 -0.06 40.1606
44.33376 2.18 -0.06 66.8896
44.33376 1.62 -0.06 66.8896
44.33376 1.24 -0.06 66.8896
44.33376 0.84 -0.06 66.8896
44.33376 0.24 -0.06 66.8896
21.41664 4.72 -0.08 28.6944
21.41664 4.6 -0.08 28.6944
21.41664 4.08 -0.08 28.6944
7.645308 3.94 -0.08 5.74218
7.645308 3.66 -0.08 5.74218
7.645308 3.64 -0.08 5.74218
28.29636 2.56 -0.08 40.1606
28.29636 2.46 -0.08 40.1606
44.33376 1.62 -0.08 66.8896
44.33376 1.24 -0.08 66.8896
44.33376 0.84 -0.08 66.8896
28.29636 4.92 -0.1 40.1606
21.41664 4.72 -0.1 28.6944
21.41664 4.34 -0.1 28.6944
7.645308 3.96 -0.1 5.74218
7.645308 3.94 -0.1 5.74218
7.645308 3.64 -0.1 5.74218
28.29636 2.56 -0.1 40.1606
28.29636 2.46 -0.1 40.1606
44.33376 2.18 -0.1 66.8896
44.33376 1.62 -0.1 66.8896
44.33376 1.24 -0.1 66.8896
44.33376 0.84 -0.1 66.8896
21.41664 4.72 -0.12 28.6944
21.41664 4.34 -0.12 28.6944
21.41664 4.32 -0.12 28.6944
21.41664 4.3 -0.12 28.6944
44.33376 4.24 -0.12 66.8896
44.33376 4.22 -0.12 66.8896
7.645308 3.96 -0.12 5.74218
7.645308 3.94 -0.12 5.74218
7.645308 3.66 -0.12 5.74218
7.645308 3.64 -0.12 5.74218
28.29636 2.56 -0.12 40.1606
28.29636 2.46 -0.12 40.1606
44.33376 2.18 -0.12 66.8896
44.33376 1.62 -0.12 66.8896
44.33376 0.84 -0.12 66.8896
124.19999999999999 -1.62 -0.12 200.0
21.41664 4.32 -0.14 28.6944
7.645308 3.96 -0.14 5.74218
7.645308 3.94 -0.14 5.74218
7.645308 3.66 -0.14 5.74218
7.645308 3.64 -0.14 5.74218
28.29636 2.56 -0.14 40.1606
28.29636 2.46 -0.14 40.1606
44.33376 1.62 -0.14 66.8896
44.33376 0.84 -0.14 66.8896
21.41664 5.7 -0.16 28.6944
7.645308 3.96 -0.16 5.74218
7.645308 3.94 -0.16 5.74218
7.645308 3.66 -0.16 5.74218
28.29636 2.56 -0.16 40.1606
28.29636 2.46 -0.16 40.1606
44.33376 2.2 -0.16 66.8896
44.33376 1.62 -0.16 66.8896
44.33376 0.84 -0.16 66.8896
7.645308 3.96 -0.18 5.74218
7.645308 3.94 -0.18 5.74218
7.645308 3.66 -0.18 5.74218
7.645308 3.64 -0.18 5.74218
28.29636 2.56 -0.18 40.1606
28.29636 2.46 -0.18 40.1606
44.33376 2.2 -0.18 66.8896
44.33376 1.62 -0.18 66.8896
44.33376 0.84 -0.18 66.8896
44.33376 0.68 -0.18 66.8896
7.645308 3.94 -0.2 5.74218
7.645308 3.66 -0.2 5.74218
28.29636 2.56 -0.2 40.1606
28.29636 2.46 -0.2 40.1606
44.33376 2.22 -0.2 66.8896
44.33376 1.62 -0.2 66.8896
28.29636 -6.56 -0.2 40.1606
21.41664 5.78 -0.22 28.6944
21.41664 5.74 -0.22 28.6944
7.645308 3.94 -0.22 5.74218
7.645308 3.66 -0.22 5.74218
28.29636 2.56 -0.22 40.1606
28.29636 2.46 -0.22 40.1606
44.33376 2.22 -0.22 66.8896
44.33376 0.56 -0.22 66.8896
21.41664 5.06 -0.24 28.6944
7.645308 3.94 -0.24 5.74218
7.645308 3.66 -0.24 5.74218
28.29636 2.56 -0.24 40.1606
28.29636 2.46 -0.24 40.1606
44.33376 2.22 -0.24 66.8896
44.33376 2.2 -0.24 66.8896
