VERSION .7
FIELDS x y z rgb
SIZE 4 4 4 4
TYPE F F F F
COUNT 1 1 1 1
WIDTH 1365
HEIGHT 1
VIEWPOINT 0 0 0 1 0 0 0
POINTS 1365
DATA ascii
7.141176 4.82 0.22 5000004.90196
7.141176 4.8 0.22 5000004.90196
7.141176 4.46 0.22 5000004.90196
7.141176 4.44 0.22 5000004.90196
28.29636 3.76 0.22 5000040.1606
28.29636 3.64 0.22 5000040.1606
21.41664 3.52 0.22 5000028.6944
28.29636 2.5 0.22 5000040.1606
44.33376 1.94 0.22 5000066.8896
44.33376 0.62 0.22 5000066.8896
44.33376 -4.48 0.22 5000066.8896
44.33376 -4.5 0.22 5000066.8896
28.29636 -4.56 0.22 5000040.1606
21.41664 -4.6 0.22 5000028.6944
21.41664 -4.62 0.22 5000028.6944
21.41664 -4.64 0.22 5000028.6944
17.592840000000002 -4.7 0.22 5000022.3214
7.141176 4.82 0.2 5000004.90196
7.141176 4.8 0.2 5000004.90196
7.141176 4.46 0.2 5000004.90196
7.141176 4.44 0.2 5000004.90196
28.29636 3.76 0.2 5000040.1606
28.29636 3.64 0.2 5000040.1606
21.41664 3.3 0.2 5000028.6944
44.33376 0.82 0.2 5000066.8896
44.33376 0.62 0.2 5000066.8896
28.29636 -4.54 0.2 5000040.1606
21.41664 -4.6 0.2 5000028.6944
21.41664 -4.62 0.2 5000028.6944
21.41664 -4.64 0.2 5000028.6944
21.41664 -4.68 0.2 5000028.6944
17.592840000000002 -4.7 0.2 5000022.3214
7.141176 4.82 0.18 5000004.90196
7.141176 4.8 0.18 5000004.90196
7.141176 4.46 0.18 5000004.90196
7.141176 4.44 0.18 5000004.90196
28.29636 3.76 0.18 5000040.1606
28.29636 3.64 0.18 5000040.1606
21.41664 3.52 0.18 5000028.6944
28.29636 2.52 0.18 5000040.1606
44.33376 2.26 0.18 5000066.8896
44.33376 0.62 0.18 5000066.8896
28.29636 -4.56 0.18 5000040.1606
21.41664 -4.6 0.18 5000028.6944
21.41664 -4.62 0.18 5000028.6944
21.41664 -4.64 0.18 5000028.6944
7.141176 4.82 0.16 5000004.90196
7.141176 4.8 0.16 5000004.90196
7.141176 4.46 0.16 5000004.90196
7.141176 4.44 0.16 5000004.90196
28.29636 3.76 0.16 5000040.1606
28.29636 3.64 0.16 5000040.1606
21.41664 3.52 0.16 5000028.6944
21.41664 3.5 0.16 5000028.6944
28.29636 2.56 0.16 5000040.1606
44.33376 0.62 0.16 5000066.8896
28.29636 -2.08 0.16 5000040.1606
21.41664 -4.62 0.16 5000028.6944
7.141176 4.82 0.14 5000004.90196
7.141176 4.8 0.14 5000004.90196
7.141176 4.46 0.14 5000004.90196
7.141176 4.44 0.14 5000004.90196
28.29636 3.76 0.14 5000040.1606
28.29636 3.64 0.14 5000040.1606
21.41664 3.52 0.14 5000028.6944
28.29636 2.58 0.14 5000040.1606
28.29636 2.56 0.14 5000040.1606
44.33376 5.02 0.12 5000066.8896
7.141176 4.82 0.12 5000004.90196
7.141176 4.8 0.12 5000004.90196
7.141176 4.46 0.12 5000004.90196
7.141176 4.44 0.12 5000004.90196
28.29636 3.76 0.12 5000040.1606
28.29636 3.64 0.12 5000040.1606
28.29636 2.58 0.12 5000040.1606
44.33376 2.34 0.12 5000066.8896
44.33376 2.32 0.12 5000066.8896
124.19999999999999 0.3 0.12 5000200.0
7.141176 4.82 0.1 5000004.90196
7.141176 4.8 0.1 5000004.90196
7.141176 4.46 0.1 5000004.90196
7.141176 4.44 0.1 5000004.90196
28.29636 3.76 0.1 5000040.1606
28.29636 3.64 0.1 5000040.1606
28.29636 2.58 0.1 5000040.1606
44.33376 2.34 0.1 5000066.8896
124.19999999999999 0.3 0.1 5000200.0
7.141176 4.82 0.08 5000004.90196
7.141176 4.8 0.08 5000004.90196
7.141176 4.46 0.08 5000004.90196
7.141176 4.44 0.08 5000004.90196
28.29636 3.76 0.08 5000040.1606
28.29636 3.64 0.08 5000040.1606
21.41664 3.52 0.08 5000028.6944
28.29636 2.7 0.08 5000040.1606
44.33376 2.6 0.08 5000066.8896
44.33376 2.58 0.08 5000066.8896
44.33376 2.34 0.08 5000066.8896
44.33376 -3.62 0.08 5000066.8896
44.33376 -3.92 0.08 5000066.8896
28.29636 -3.98 0.08 5000040.1606
28.29636 -4.0 0.08 5000040.1606
7.141176 4.82 0.06 5000004.90196
7.141176 4.8 0.06 5000004.90196
7.141176 4.46 0.06 5000004.90196
7.141176 4.44 0.06 5000004.90196
28.29636 3.76 0.06 5000040.1606
28.29636 3.64 0.06 5000040.1606
21.41664 3.52 0.06 5000028.6944
28.29636 2.7 0.06 5000040.1606
28.29636 2.6 0.06 5000040.1606
44.33376 -3.62 0.06 5000066.8896
44.33376 -3.92 0.06 5000066.8896
44.33376 -3.94 0.06 5000066.8896
28.29636 -4.0 0.06 5000040.1606
17.592840000000002 -4.08 0.06 5000022.3214
28.29636 5.86 0.04 5000040.1606
21.41664 5.42 0.04 5000028.6944
7.141176 4.82 0.04 5000004.90196
7.141176 4.8 0.04 5000004.90196
7.141176 4.46 0.04 5000004.90196
7.141176 4.44 0.04 5000004.90196
28.29636 3.76 0.04 5000040.1606
28.29636 3.64 0.04 5000040.1606
21.41664 3.52 0.04 5000028.6944
28.29636 2.7 0.04 5000040.1606
28.29636 2.6 0.04 5000040.1606
124.19999999999999 -3.82 0.04 5000200.0
124.19999999999999 -3.84 0.04 5000200.0
124.19999999999999 -3.86 0.04 5000200.0
44.33376 -3.88 0.04 5000066.8896
44.33376 -3.9 0.04 5000066.8896
44.33376 -3.92 0.04 5000066.8896
44.33376 -3.94 0.04 5000066.8896
28.29636 -3.98 0.04 5000040.1606
21.41664 -4.0 0.04 5000028.6944
21.41664 -4.02 0.04 5000028.6944
17.592840000000002 -4.06 0.04 5000022.3214
17.592840000000002 -4.08 0.04 5000022.3214
7.141176 4.82 0.02 5000004.90196
7.141176 4.8 0.02 5000004.90196
7.141176 4.46 0.02 5000004.90196
7.141176 4.44 0.02 5000004.90196
28.29636 3.76 0.02 5000040.1606
28.29636 3.64 0.02 5000040.1606
21.41664 3.52 0.02 5000028.6944
28.29636 2.7 0.02 5000040.1606
28.29636 2.6 0.02 5000040.1606
44.33376 1.34 0.02 5000066.8896
124.19999999999999 -3.82 0.02 5000200.0
124.19999999999999 -3.84 0.02 5000200.0
124.19999999999999 -3.86 0.02 5000200.0
44.33376 -3.92 0.02 5000066.8896
44.33376 -3.94 0.02 5000066.8896
21.41664 -4.0 0.02 5000028.6944
21.41664 -4.02 0.02 5000028.6944
17.592840000000002 -4.08 0.02 5000022.3214
7.141176 4.82 0.0 5000004.90196
7.141176 4.8 0.0 5000004.90196
7.141176 4.46 0.0 5000004.90196
7.141176 4.44 0.0 5000004.90196
28.29636 3.64 0.0 5000040.1606
44.33376 3.26 0.0 5000066.8896
28.29636 2.7 0.0 5000040.1606
28.29636 2.6 0.0 5000040.1606
44.33376 1.72 0.0 5000066.8896
44.33376 1.38 0.0 5000066.8896
44.33376 1.34 0.0 5000066.8896
44.33376 0.92 0.0 5000066.8896
124.19999999999999 -1.5 0.0 5000200.0
124.19999999999999 -3.82 0.0 5000200.0
124.19999999999999 -3.84 0.0 5000200.0
124.19999999999999 -3.86 0.0 5000200.0
44.33376 -3.9 0.0 5000066.8896
44.33376 -3.92 0.0 5000066.8896
44.33376 -3.94 0.0 5000066.8896
21.41664 -4.0 0.0 5000028.6944
21.41664 -4.02 0.0 5000028.6944
17.592840000000002 -4.06 0.0 5000022.3214
17.592840000000002 -4.08 0.0 5000022.3214
17.592840000000002 -4.12 0.0 5000022.3214
7.141176 4.82 -0.02 5000004.90196
7.141176 4.8 -0.02 5000004.90196
7.141176 4.46 -0.02 5000004.90196
7.141176 4.44 -0.02 5000004.90196
28.29636 2.7 -0.02 5000040.1606
28.29636 2.62 -0.02 5000040.1606
28.29636 2.6 -0.02 5000040.1606
44.33376 2.3 -0.02 5000066.8896
44.33376 2.28 -0.02 5000066.8896
44.33376 1.72 -0.02 5000066.8896
44.33376 1.38 -0.02 5000066.8896
44.33376 1.34 -0.02 5000066.8896
44.33376 0.92 -0.02 5000066.8896
44.33376 0.32 -0.02 5000066.8896
15.15888 -1.3 -0.02 5000018.2648
124.19999999999999 -1.52 -0.02 5000200.0
21.41664 -4.0 -0.02 5000028.6944
21.41664 4.96 -0.04 5000028.6944
7.141176 4.82 -0.04 5000004.90196
7.141176 4.8 -0.04 5000004.90196
7.141176 4.46 -0.04 5000004.90196
7.141176 4.44 -0.04 5000004.90196
28.29636 2.7 -0.04 5000040.1606
28.29636 2.62 -0.04 5000040.1606
28.29636 2.6 -0.04 5000040.1606
44.33376 2.3 -0.04 5000066.8896
44.33376 1.72 -0.04 5000066.8896
124.19999999999999 1.38 -0.04 5000200.0
124.19999999999999 1.34 -0.04 5000200.0
44.33376 0.92 -0.04 5000066.8896
44.33376 0.32 -0.04 5000066.8896
15.15888 -1.3 -0.04 5000018.2648
21.41664 5.56 -0.06 5000028.6944
7.141176 4.82 -0.06 5000004.90196
7.141176 4.8 -0.06 5000004.90196
7.141176 4.46 -0.06 5000004.90196
7.141176 4.44 -0.06 5000004.90196
28.29636 2.7 -0.06 5000040.1606
28.29636 2.62 -0.06 5000040.1606
28.29636 2.6 -0.06 5000040.1606
44.33376 1.72 -0.06 5000066.8896
44.33376 1.38 -0.06 5000066.8896
44.33376 1.34 -0.06 5000066.8896
44.33376 0.92 -0.06 5000066.8896
15.15888 -1.3 -0.06 5000018.2648
7.141176 4.82 -0.08 5000004.90196
7.141176 4.8 -0.08 5000004.90196
7.141176 4.46 -0.08 5000004.90196
7.141176 4.44 -0.08 5000004.90196
28.29636 2.62 -0.08 5000040.1606
28.29636 2.6 -0.08 5000040.1606
44.33376 2.3 -0.08 5000066.8896
44.33376 1.72 -0.08 5000066.8896
44.33376 1.38 -0.08 5000066.8896
44.33376 1.34 -0.08 5000066.8896
44.33376 0.92 -0.08 5000066.8896
21.41664 4.94 -0.1 5000028.6944
7.141176 4.82 -0.1 5000004.90196
7.141176 4.8 -0.1 5000004.90196
7.141176 4.46 -0.1 5000004.90196
7.141176 4.44 -0.1 5000004.90196
28.29636 3.76 -0.1 5000040.1606
28.29636 2.62 -0.1 5000040.1606
28.29636 2.6 -0.1 5000040.1606
44.33376 2.3 -0.1 5000066.8896
44.33376 1.72 -0.1 5000066.8896
44.33376 1.34 -0.1 5000066.8896
44.33376 0.92 -0.1 5000066.8896
124.19999999999999 -1.56 -0.1 5000200.0
7.141176 4.82 -0.12 5000004.90196
7.141176 4.8 -0.12 5000004.90196
7.141176 4.46 -0.12 5000004.90196
7.141176 4.44 -0.12 5000004.90196
28.29636 2.72 -0.12 5000040.1606
28.29636 2.62 -0.12 5000040.1606
28.29636 2.6 -0.12 5000040.1606
44.33376 1.72 -0.12 5000066.8896
44.33376 1.34 -0.12 5000066.8896
44.33376 0.92 -0.12 5000066.8896
21.41664 5.94 -0.14 5000028.6944
7.141176 4.82 -0.14 5000004.90196
7.141176 4.8 -0.14 5000004.90196
7.141176 4.46 -0.14 5000004.90196
7.141176 4.44 -0.14 5000004.90196
28.29636 4.16 -0.14 5000040.1606
44.33376 3.28 -0.14 5000066.8896
124.19999999999999 2.98 -0.14 5000200.0
28.29636 2.72 -0.14 5000040.1606
28.29636 2.62 -0.14 5000040.1606
28.29636 2.6 -0.14 5000040.1606
44.33376 2.3 -0.14 5000066.8896
44.33376 1.72 -0.14 5000066.8896
44.33376 1.34 -0.14 5000066.8896
44.33376 0.92 -0.14 5000066.8896
44.33376 0.76 -0.14 5000066.8896
21.41664 0.52 -0.14 5000028.6944
21.41664 0.5 -0.14 5000028.6944
9.442464 0.0 -0.14 5000008.73744
7.141176 4.82 -0.16 5000004.90196
7.141176 4.46 -0.16 5000004.90196
7.141176 4.44 -0.16 5000004.90196
28.29636 4.16 -0.16 5000040.1606
44.33376 3.28 -0.16 5000066.8896
28.29636 2.62 -0.16 5000040.1606
28.29636 2.6 -0.16 5000040.1606
44.33376 2.32 -0.16 5000066.8896
44.33376 1.72 -0.16 5000066.8896
44.33376 1.38 -0.16 5000066.8896
44.33376 1.34 -0.16 5000066.8896
44.33376 0.92 -0.16 5000066.8896
44.33376 0.76 -0.16 5000066.8896
21.41664 0.52 -0.16 5000028.6944
28.29636 -1.68 -0.16 5000040.1606
7.141176 4.82 -0.18 5000004.90196
7.141176 4.8 -0.18 5000004.90196
7.141176 4.46 -0.18 5000004.90196
7.141176 4.44 -0.18 5000004.90196
28.29636 4.16 -0.18 5000040.1606
28.29636 2.62 -0.18 5000040.1606
28.29636 2.6 -0.18 5000040.1606
44.33376 2.34 -0.18 5000066.8896
44.33376 2.32 -0.18 5000066.8896
44.33376 1.72 -0.18 5000066.8896
44.33376 1.34 -0.18 5000066.8896
44.33376 0.92 -0.18 5000066.8896
44.33376 0.76 -0.18 5000066.8896
44.33376 0.66 -0.18 5000066.8896
21.41664 0.52 -0.18 5000028.6944
28.29636 -1.66 -0.18 5000040.1606
28.29636 -1.68 -0.18 5000040.1606
28.29636 5.24 -0.2 5000040.1606
7.141176 4.82 -0.2 5000004.90196
7.141176 4.46 -0.2 5000004.90196
7.141176 4.44 -0.2 5000004.90196
28.29636 4.16 -0.2 5000040.1606
28.29636 2.62 -0.2 5000040.1606
28.29636 2.6 -0.2 5000040.1606
44.33376 2.34 -0.2 5000066.8896
44.33376 1.72 -0.2 5000066.8896
44.33376 0.76 -0.2 5000066.8896
44.33376 0.66 -0.2 5000066.8896
21.41664 0.52 -0.2 5000028.6944
21.41664 5.66 -0.22 5000028.6944
21.41664 5.32 -0.22 5000028.6944
7.141176 4.82 -0.22 5000004.90196
7.141176 4.46 -0.22 5000004.90196
7.141176 4.44 -0.22 5000004.90196
28.29636 4.16 -0.22 5000040.1606
28.29636 2.62 -0.22 5000040.1606
28.29636 2.6 -0.22 5000040.1606
44.33376 2.32 -0.22 5000066.8896
44.33376 0.76 -0.22 5000066.8896
124.19999999999999 -1.54 -0.22 5000200.0
7.141176 4.82 -0.24 5000004.90196
7.141176 4.46 -0.24 5000004.90196
7.141176 4.44 -0.24 5000004.90196
28.29636 4.16 -0.24 5000040.1606
124.19999999999999 2.98 -0.24 5000200.0
28.29636 2.6 -0.24 5000040.1606
44.33376 2.32 -0.24 5000066.8896
44.33376 0.76 -0.24 5000066.8896
124.19999999999999 -1.54 -0.24 5000200.0
44.33376 -2.8 -0.24 5000066.8896
7.141176 4.84 -0.26 5000004.90196
7.141176 4.82 -0.26 5000004.90196
7.141176 4.46 -0.26 5000004.90196
7.141176 4.44 -0.26 5000004.90196
28.29636 4.16 -0.26 5000040.1606
28.29636 2.6 -0.26 5000040.1606
44.33376 2.32 -0.26 5000066.8896
15.15888 -0.04 -0.26 5000018.2648
7.645308 -0.74 -0.26 5000005.74218
28.29636 5.24 -0.28 5000040.1606
7.141176 4.84 -0.28 5000004.90196
7.141176 4.82 -0.28 5000004.90196
7.141176 4.46 -0.28 5000004.90196
28.29636 4.16 -0.28 5000040.1606
124.19999999999999 3.26 -0.28 5000200.0
28.29636 2.7 -0.28 5000040.1606
28.29636 2.6 -0.28 5000040.1606
44.33376 2.34 -0.28 5000066.8896
44.33376 2.32 -0.28 5000066.8896
7.645308 -0.74 -0.28 5000005.74218
7.2919860000000005 -0.86 -0.28 5000005.15331
28.29636 5.24 -0.3 5000040.1606
7.141176 4.84 -0.3 5000004.90196
7.141176 4.82 -0.3 5000004.90196
7.141176 4.46 -0.3 5000004.90196
28.29636 4.08 -0.3 5000040.1606
28.29636 4.06 -0.3 5000040.1606
28.29636 2.6 -0.3 5000040.1606
44.33376 2.34 -0.3 5000066.8896
28.29636 0.16 -0.3 5000040.1606
7.645308 -0.74 -0.3 5000005.74218
7.2919860000000005 -0.86 -0.3 5000005.15331
44.33376 -2.54 -0.3 5000066.8896
7.141176 4.84 -0.32 5000004.90196
7.141176 4.82 -0.32 5000004.90196
7.141176 4.46 -0.32 5000004.90196
28.29636 2.6 -0.32 5000040.1606
7.645308 -0.74 -0.32 5000005.74218
7.2919860000000005 -0.86 -0.32 5000005.15331
7.141176 4.84 -0.34 5000004.90196
7.141176 4.82 -0.34 5000004.90196
7.141176 4.46 -0.34 5000004.90196
28.29636 2.6 -0.34 5000040.1606
44.33376 1.04 -0.34 5000066.8896
44.33376 -1.58 -0.34 5000066.8896
44.33376 -1.6 -0.34 5000066.8896
21.41664 5.04 -0.36 5000028.6944
7.141176 4.84 -0.36 5000004.90196
7.141176 4.82 -0.36 5000004.90196
21.41664 4.7 -0.36 5000028.6944
7.141176 4.46 -0.36 5000004.90196
21.41664 4.3 -0.36 5000028.6944
28.29636 2.6 -0.36 5000040.1606
28.29636 0.18 -0.36 5000040.1606
21.41664 5.06 -0.38 5000028.6944
7.141176 4.84 -0.38 5000004.90196
7.141176 4.82 -0.38 5000004.90196
7.141176 4.46 -0.38 5000004.90196
21.41664 4.3 -0.38 5000028.6944
28.29636 2.72 -0.38 5000040.1606
28.29636 2.6 -0.38 5000040.1606
44.33376 -1.58 -0.38 5000066.8896
124.19999999999999 -2.3 -0.38 5000200.0
21.41664 5.06 -0.4 5000028.6944
7.141176 4.84 -0.4 5000004.90196
7.141176 4.82 -0.4 5000004.90196
7.141176 4.46 -0.4 5000004.90196
21.41664 4.3 -0.4 5000028.6944
28.29636 2.72 -0.4 5000040.1606
28.29636 2.6 -0.4 5000040.1606
28.29636 2.58 -0.4 5000040.1606
44.33376 2.02 -0.4 5000066.8896
44.33376 1.6 -0.4 5000066.8896
44.33376 1.04 -0.4 5000066.8896
44.33376 -1.58 -0.4 5000066.8896
124.19999999999999 -2.02 -0.4 5000200.0
124.19999999999999 -2.28 -0.4 5000200.0
124.19999999999999 -2.3 -0.4 5000200.0
124.19999999999999 -2.34 -0.4 5000200.0
21.41664 5.08 -0.42 5000028.6944
7.141176 4.84 -0.42 5000004.90196
7.141176 4.82 -0.42 5000004.90196
7.141176 4.46 -0.42 5000004.90196
28.29636 2.72 -0.42 5000040.1606
28.29636 2.6 -0.42 5000040.1606
44.33376 2.02 -0.42 5000066.8896
44.33376 1.6 -0.42 5000066.8896
44.33376 1.04 -0.42 5000066.8896
44.33376 0.42 -0.42 5000066.8896
7.8540779999999994 -0.46 -0.42 5000006.09013
44.33376 -1.58 -0.42 5000066.8896
124.19999999999999 -2.0 -0.42 5000200.0
124.19999999999999 -2.02 -0.42 5000200.0
124.19999999999999 -2.06 -0.42 5000200.0
124.19999999999999 -2.28 -0.42 5000200.0
124.19999999999999 -2.3 -0.42 5000200.0
124.19999999999999 -2.34 -0.42 5000200.0
7.141176 4.84 -0.44 5000004.90196
7.141176 4.82 -0.44 5000004.90196
7.141176 4.46 -0.44 5000004.90196
28.29636 2.72 -0.44 5000040.1606
28.29636 2.6 -0.44 5000040.1606
44.33376 2.02 -0.44 5000066.8896
44.33376 1.04 -0.44 5000066.8896
124.19999999999999 0.48 -0.44 5000200.0
124.19999999999999 0.46 -0.44 5000200.0
44.33376 0.42 -0.44 5000066.8896
28.29636 0.4 -0.44 5000040.1606
28.29636 0.38 -0.44 5000040.1606
28.29636 0.36 -0.44 5000040.1606
28.29636 0.34 -0.44 5000040.1606
8.665944 -0.24 -0.44 5000007.44324
7.8540779999999994 -0.44 -0.44 5000006.09013
124.19999999999999 -2.06 -0.44 5000200.0
21.41664 5.1 -0.46 5000028.6944
7.141176 4.84 -0.46 5000004.90196
7.141176 4.82 -0.46 5000004.90196
7.141176 4.46 -0.46 5000004.90196
28.29636 2.6 -0.46 5000040.1606
44.33376 2.02 -0.46 5000066.8896
44.33376 1.06 -0.46 5000066.8896
44.33376 1.04 -0.46 5000066.8896
28.29636 0.38 -0.46 5000040.1606
28.29636 0.36 -0.46 5000040.1606
28.29636 0.34 -0.46 5000040.1606
9.023147999999999 -0.16 -0.46 5000008.03858
9.023147999999999 -0.18 -0.46 5000008.03858
44.33376 -1.14 -0.46 5000066.8896
44.33376 -1.16 -0.46 5000066.8896
44.33376 -1.18 -0.46 5000066.8896
28.29636 -1.22 -0.46 5000040.1606
28.29636 -1.24 -0.46 5000040.1606
44.33376 -1.36 -0.46 5000066.8896
44.33376 -1.38 -0.46 5000066.8896
28.29636 -1.4 -0.46 5000040.1606
28.29636 -1.42 -0.46 5000040.1606
15.15888 -1.44 -0.46 5000018.2648
8.358006 -2.22 -0.46 5000006.93001
28.29636 5.86 -0.48 5000040.1606
28.29636 5.72 -0.48 5000040.1606
21.41664 5.1 -0.48 5000028.6944
7.141176 4.84 -0.48 5000004.90196
7.141176 4.82 -0.48 5000004.90196
7.141176 4.46 -0.48 5000004.90196
28.29636 2.72 -0.48 5000040.1606
28.29636 2.6 -0.48 5000040.1606
44.33376 2.02 -0.48 5000066.8896
44.33376 1.06 -0.48 5000066.8896
7.8540779999999994 -0.4 -0.48 5000006.09013
7.8540779999999994 -0.42 -0.48 5000006.09013
44.33376 -1.14 -0.48 5000066.8896
44.33376 -1.16 -0.48 5000066.8896
28.29636 -1.22 -0.48 5000040.1606
44.33376 -1.36 -0.48 5000066.8896
44.33376 -1.38 -0.48 5000066.8896
28.29636 -1.42 -0.48 5000040.1606
13.4736 -1.74 -0.48 5000015.456
28.29636 5.86 -0.5 5000040.1606
28.29636 5.72 -0.5 5000040.1606
28.29636 5.56 -0.5 5000040.1606
28.29636 5.36 -0.5 5000040.1606
21.41664 5.12 -0.5 5000028.6944
7.141176 4.84 -0.5 5000004.90196
7.141176 4.82 -0.5 5000004.90196
7.141176 4.46 -0.5 5000004.90196
28.29636 2.72 -0.5 5000040.1606
28.29636 2.6 -0.5 5000040.1606
44.33376 2.02 -0.5 5000066.8896
7.645308 -0.38 -0.5 5000005.74218
7.645308 -0.42 -0.5 5000005.74218
44.33376 -0.64 -0.5 5000066.8896
44.33376 -1.16 -0.5 5000066.8896
28.29636 -1.22 -0.5 5000040.1606
44.33376 -1.38 -0.5 5000066.8896
28.29636 -1.4 -0.5 5000040.1606
28.29636 -1.42 -0.5 5000040.1606
15.15888 -1.44 -0.5 5000018.2648
12.23748 -1.78 -0.5 5000013.3958
12.23748 -1.8 -0.5 5000013.3958
12.23748 -1.82 -0.5 5000013.3958
28.29636 5.72 -0.52 5000040.1606
7.141176 4.84 -0.52 5000004.90196
7.141176 4.82 -0.52 5000004.90196
7.141176 4.46 -0.52 5000004.90196
28.29636 3.88 -0.52 5000040.1606
28.29636 2.72 -0.52 5000040.1606
28.29636 2.6 -0.52 5000040.1606
44.33376 2.02 -0.52 5000066.8896
7.645308 -0.4 -0.52 5000005.74218
44.33376 -0.62 -0.52 5000066.8896
44.33376 -0.64 -0.52 5000066.8896
44.33376 -0.68 -0.52 5000066.8896
21.41664 -0.74 -0.52 5000028.6944
28.29636 -1.2 -0.52 5000040.1606
7.141176 -1.86 -0.52 5000004.90196
7.141176 -1.9 -0.52 5000004.90196
28.29636 5.78 -0.54 5000040.1606
28.29636 5.72 -0.54 5000040.1606
21.41664 5.14 -0.54 5000028.6944
7.141176 4.84 -0.54 5000004.90196
7.141176 4.46 -0.54 5000004.90196
124.19999999999999 3.26 -0.54 5000200.0
28.29636 2.72 -0.54 5000040.1606
28.29636 2.6 -0.54 5000040.1606
44.33376 2.02 -0.54 5000066.8896
12.23748 0.4 -0.54 5000013.3958
12.23748 0.38 -0.54 5000013.3958
44.33376 -0.64 -0.54 5000066.8896
8.089788 -1.5 -0.54 5000006.48298
28.29636 5.78 -0.56 5000040.1606
28.29636 5.66 -0.56 5000040.1606
28.29636 5.62 -0.56 5000040.1606
21.41664 5.16 -0.56 5000028.6944
7.141176 4.84 -0.56 5000004.90196
7.141176 4.48 -0.56 5000004.90196
7.141176 4.46 -0.56 5000004.90196
124.19999999999999 3.26 -0.56 5000200.0
28.29636 2.72 -0.56 5000040.1606
28.29636 2.6 -0.56 5000040.1606
44.33376 2.02 -0.56 5000066.8896
28.29636 5.78 -0.58 5000040.1606
28.29636 5.72 -0.58 5000040.1606
28.29636 5.62 -0.58 5000040.1606
7.141176 4.84 -0.58 5000004.90196
7.141176 4.48 -0.58 5000004.90196
7.141176 4.46 -0.58 5000004.90196
28.29636 2.72 -0.58 5000040.1606
28.29636 2.6 -0.58 5000040.1606
44.33376 2.02 -0.58 5000066.8896
124.19999999999999 0.16 -0.58 5000200.0
28.29636 -0.06 -0.58 5000040.1606
28.29636 -0.1 -0.58 5000040.1606
28.29636 -0.12 -0.58 5000040.1606
21.41664 -0.16 -0.58 5000028.6944
21.41664 -0.18 -0.58 5000028.6944
9.941628000000001 -0.5 -0.58 5000009.56938
28.29636 5.78 -0.6 5000040.1606
28.29636 5.62 -0.6 5000040.1606
21.41664 5.18 -0.6 5000028.6944
7.141176 4.84 -0.6 5000004.90196
7.141176 4.46 -0.6 5000004.90196
28.29636 2.72 -0.6 5000040.1606
28.29636 2.6 -0.6 5000040.1606
44.33376 0.38 -0.6 5000066.8896
44.33376 0.36 -0.6 5000066.8896
44.33376 0.34 -0.6 5000066.8896
28.29636 0.32 -0.6 5000040.1606
28.29636 0.3 -0.6 5000040.1606
28.29636 0.28 -0.6 5000040.1606
28.29636 0.26 -0.6 5000040.1606
28.29636 0.24 -0.6 5000040.1606
28.29636 0.22 -0.6 5000040.1606
28.29636 0.2 -0.6 5000040.1606
28.29636 0.18 -0.6 5000040.1606
124.19999999999999 0.16 -0.6 5000200.0
12.23748 0.04 -0.6 5000013.3958
12.23748 0.02 -0.6 5000013.3958
12.23748 -0.02 -0.6 5000013.3958
12.23748 -0.06 -0.6 5000013.3958
28.29636 -0.08 -0.6 5000040.1606
28.29636 -0.1 -0.6 5000040.1606
28.29636 -0.12 -0.6 5000040.1606
21.41664 -0.16 -0.6 5000028.6944
21.41664 -0.18 -0.6 5000028.6944
44.33376 -1.58 -0.6 5000066.8896
28.29636 5.78 -0.62 5000040.1606
28.29636 5.66 -0.62 5000040.1606
28.29636 5.62 -0.62 5000040.1606
28.29636 5.38 -0.62 5000040.1606
7.141176 4.84 -0.62 5000004.90196
7.141176 4.46 -0.62 5000004.90196
28.29636 2.72 -0.62 5000040.1606
28.29636 2.6 -0.62 5000040.1606
44.33376 0.38 -0.62 5000066.8896
44.33376 0.34 -0.62 5000066.8896
28.29636 0.32 -0.62 5000040.1606
28.29636 0.28 -0.62 5000040.1606
28.29636 0.26 -0.62 5000040.1606
28.29636 0.24 -0.62 5000040.1606
28.29636 0.22 -0.62 5000040.1606
28.29636 0.2 -0.62 5000040.1606
12.23748 0.04 -0.62 5000013.3958
12.23748 0.02 -0.62 5000013.3958
12.23748 0.0 -0.62 5000013.3958
12.23748 -0.02 -0.62 5000013.3958
12.23748 -0.04 -0.62 5000013.3958
12.23748 -0.06 -0.62 5000013.3958
28.29636 -0.1 -0.62 5000040.1606
28.29636 -0.12 -0.62 5000040.1606
28.29636 -1.2 -0.62 5000040.1606
9.442464 -1.7 -0.62 5000008.73744
28.29636 5.84 -0.64 5000040.1606
28.29636 5.78 -0.64 5000040.1606
28.29636 5.66 -0.64 5000040.1606
28.29636 5.62 -0.64 5000040.1606
28.29636 5.38 -0.64 5000040.1606
21.41664 5.2 -0.64 5000028.6944
7.141176 4.84 -0.64 5000004.90196
7.141176 4.48 -0.64 5000004.90196
7.141176 4.46 -0.64 5000004.90196
12.23748 0.02 -0.64 5000013.3958
12.23748 0.0 -0.64 5000013.3958
12.23748 -0.02 -0.64 5000013.3958
12.23748 -0.04 -0.64 5000013.3958
12.23748 -0.06 -0.64 5000013.3958
28.29636 -0.12 -0.64 5000040.1606
8.358006 -0.36 -0.64 5000006.93001
28.29636 5.84 -0.66 5000040.1606
28.29636 5.78 -0.66 5000040.1606
28.29636 5.62 -0.66 5000040.1606
28.29636 5.38 -0.66 5000040.1606
7.141176 4.84 -0.66 5000004.90196
7.141176 4.48 -0.66 5000004.90196
7.141176 4.46 -0.66 5000004.90196
28.29636 0.68 -0.66 5000040.1606
28.29636 0.66 -0.66 5000040.1606
21.41664 0.6 -0.66 5000028.6944
28.29636 -0.12 -0.66 5000040.1606
8.358006 -0.38 -0.66 5000006.93001
8.358006 -0.74 -0.66 5000006.93001
28.29636 5.84 -0.68 5000040.1606
28.29636 5.78 -0.68 5000040.1606
7.141176 4.84 -0.68 5000004.90196
7.141176 4.48 -0.68 5000004.90196
7.141176 4.46 -0.68 5000004.90196
21.41664 4.28 -0.68 5000028.6944
12.23748 -0.32 -0.68 5000013.3958
8.358006 -0.38 -0.68 5000006.93001
8.358006 -0.4 -0.68 5000006.93001
7.141176 4.84 -0.7 5000004.90196
7.141176 4.46 -0.7 5000004.90196
21.41664 4.28 -0.7 5000028.6944
7.141176 4.84 -0.72 5000004.90196
7.141176 4.46 -0.72 5000004.90196
7.141176 4.84 -0.74 5000004.90196
7.141176 4.46 -0.74 5000004.90196
21.41664 4.04 -0.74 5000028.6944
7.141176 4.84 -0.76 5000004.90196
7.141176 4.48 -0.76 5000004.90196
7.141176 4.46 -0.76 5000004.90196
7.141176 4.84 -0.78 5000004.90196
7.141176 4.84 -0.8 5000004.90196
7.141176 4.84 -0.82 5000004.90196
21.41664 3.76 -0.82 5000028.6944
21.41664 3.74 -0.84 5000028.6944
7.141176 4.48 -0.88 5000004.90196
7.141176 4.48 -0.9 5000004.90196
11.29218 -6.1 -0.9 5000011.8203
7.141176 4.48 -0.92 5000004.90196
11.29218 -6.1 -0.92 5000011.8203
10.54584 -6.2 -0.92 5000010.5764
7.141176 4.86 -0.94 5000004.90196
7.141176 4.84 -0.94 5000004.90196
11.29218 -6.08 -0.94 5000011.8203
10.54584 -6.2 -0.94 5000010.5764
7.141176 4.86 -0.96 5000004.90196
7.141176 4.84 -0.96 5000004.90196
7.141176 4.84 -0.98 5000004.90196
12.23748 -5.92 -0.98 5000013.3958
11.29218 -5.98 -0.98 5000011.8203
11.29218 -6.0 -0.98 5000011.8203
7.141176 4.84 -1.0 5000004.90196
7.141176 4.48 -1.0 5000004.90196
12.23748 -5.88 -1.0 5000013.3958
12.23748 -5.9 -1.0 5000013.3958
11.29218 -5.96 -1.0 5000011.8203
11.29218 -5.98 -1.0 5000011.8203
7.141176 4.84 -1.02 5000004.90196
12.23748 -5.86 -1.02 5000013.3958
12.23748 -5.88 -1.02 5000013.3958
11.29218 -5.94 -1.02 5000011.8203
12.23748 -5.86 -1.04 5000013.3958
11.29218 -5.92 -1.04 5000011.8203
11.29218 -5.94 -1.04 5000011.8203
12.23748 -5.86 -1.06 5000013.3958
11.29218 -5.92 -1.06 5000011.8203
11.29218 -5.92 -1.08 5000011.8203
15.15888 -5.06 -1.1 5000018.2648
7.141176 4.48 -1.12 5000004.90196
7.141176 4.48 -1.14 5000004.90196
7.141176 4.48 -1.16 5000004.90196
12.23748 -6.1 -1.16 5000013.3958
11.29218 -6.18 -1.16 5000011.8203
11.29218 -6.2 -1.16 5000011.8203
11.29218 -6.24 -1.16 5000011.8203
7.141176 4.48 -1.18 5000004.90196
11.29218 -6.18 -1.18 5000011.8203
11.29218 -6.2 -1.18 5000011.8203
11.29218 -6.24 -1.18 5000011.8203
9.941628000000001 -6.32 -1.18 5000009.56938
7.141176 4.48 -1.2 5000004.90196
13.4736 -5.08 -1.2 5000015.456
7.141176 4.48 -1.22 5000004.90196
13.4736 -5.06 -1.22 5000015.456
11.29218 -5.88 -1.24 5000011.8203
7.141176 4.86 -1.26 5000004.90196
7.141176 4.48 -1.32 5000004.90196
7.141176 4.48 -1.34 5000004.90196
13.4736 -4.4 -1.34 5000015.456
13.4736 -4.4 -1.36 5000015.456
11.29218 -5.9 -1.36 5000011.8203
7.141176 4.48 -1.38 5000004.90196
13.4736 -4.38 -1.38 5000015.456
7.141176 4.48 -1.4 5000004.90196
10.54584 -6.62 -1.4 5000010.5764
11.29218 -5.3 -1.42 5000011.8203
11.29218 -5.9 -1.42 5000011.8203
12.23748 -4.46 -1.44 5000013.3958
7.141176 4.48 -1.46 5000004.90196
12.23748 -4.46 -1.46 5000013.3958
7.141176 4.5 -1.48 5000004.90196
7.141176 4.48 -1.48 5000004.90196
12.23748 2.5 -1.48 5000013.3958
12.23748 2.52 -1.5 5000013.3958
12.23748 -4.46 -1.5 5000013.3958
7.141176 4.48 -1.52 5000004.90196
12.23748 2.54 -1.52 5000013.3958
7.141176 4.48 -1.54 5000004.90196
7.141176 4.5 -1.56 5000004.90196
7.141176 4.48 -1.56 5000004.90196
12.23748 3.1 -1.56 5000013.3958
12.23748 3.08 -1.56 5000013.3958
12.23748 3.06 -1.56 5000013.3958
12.23748 -4.48 -1.56 5000013.3958
11.29218 -5.94 -1.56 5000011.8203
7.141176 4.5 -1.58 5000004.90196
7.141176 4.48 -1.58 5000004.90196
11.29218 3.04 -1.58 5000011.8203
11.29218 3.02 -1.58 5000011.8203
11.29218 3.0 -1.58 5000011.8203
11.29218 -5.94 -1.58 5000011.8203
11.29218 -5.96 -1.58 5000011.8203
10.54584 -6.02 -1.58 5000010.5764
10.54584 -6.04 -1.58 5000010.5764
9.941628000000001 -6.14 -1.58 5000009.56938
7.141176 4.5 -1.6 5000004.90196
11.29218 2.96 -1.6 5000011.8203
11.29218 2.94 -1.6 5000011.8203
11.29218 2.92 -1.6 5000011.8203
11.29218 2.9 -1.6 5000011.8203
11.29218 -4.54 -1.6 5000011.8203
10.54584 -6.02 -1.6 5000010.5764
7.141176 4.5 -1.62 5000004.90196
11.29218 2.88 -1.62 5000011.8203
11.29218 2.86 -1.62 5000011.8203
11.29218 2.84 -1.62 5000011.8203
11.29218 2.82 -1.62 5000011.8203
11.29218 -4.54 -1.62 5000011.8203
11.29218 2.82 -1.64 5000011.8203
11.29218 2.8 -1.64 5000011.8203
11.29218 2.78 -1.64 5000011.8203
11.29218 2.76 -1.64 5000011.8203
11.29218 4.58 -1.66 5000011.8203
7.141176 4.48 -1.66 5000004.90196
11.29218 2.72 -1.66 5000011.8203
11.29218 2.7 -1.66 5000011.8203
11.29218 2.68 -1.66 5000011.8203
11.29218 -4.58 -1.7 5000011.8203
11.29218 -4.58 -1.72 5000011.8203
9.941628000000001 1.36 -1.74 5000009.56938
9.941628000000001 1.3 -1.74 5000009.56938
11.29218 -4.6 -1.74 5000011.8203
10.54584 -5.98 -1.74 5000010.5764
9.941628000000001 1.36 -1.76 5000009.56938
9.941628000000001 1.34 -1.76 5000009.56938
10.54584 -5.98 -1.76 5000010.5764
10.54584 -6.06 -1.76 5000010.5764
9.941628000000001 1.34 -1.78 5000009.56938
10.54584 -5.76 -1.78 5000010.5764
10.54584 -5.96 -1.78 5000010.5764
10.54584 -6.06 -1.78 5000010.5764
10.54584 -6.08 -1.78 5000010.5764
10.54584 -6.18 -1.78 5000010.5764
7.141176 4.5 -1.8 5000004.90196
10.54584 -5.88 -1.8 5000010.5764
10.54584 -6.06 -1.8 5000010.5764
10.54584 -6.16 -1.8 5000010.5764
10.54584 -6.18 -1.8 5000010.5764
10.54584 -6.3 -1.8 5000010.5764
10.54584 -6.32 -1.8 5000010.5764
7.141176 4.5 -1.82 5000004.90196
10.54584 -4.7 -1.82 5000010.5764
7.141176 4.5 -1.84 5000004.90196
9.442464 1.78 -1.84 5000008.73744
9.941628000000001 -6.54 -1.84 5000009.56938
7.141176 4.5 -1.86 5000004.90196
9.442464 1.58 -1.86 5000008.73744
9.442464 1.5 -1.86 5000008.73744
10.54584 -6.26 -1.86 5000010.5764
10.54584 -6.28 -1.86 5000010.5764
10.54584 -6.3 -1.86 5000010.5764
9.941628000000001 -6.36 -1.86 5000009.56938
9.941628000000001 -6.7 -1.86 5000009.56938
10.54584 1.64 -1.88 5000010.5764
9.442464 1.58 -1.88 5000008.73744
9.442464 1.56 -1.88 5000008.73744
9.941628000000001 -6.34 -1.88 5000009.56938
7.141176 4.5 -1.9 5000004.90196
9.442464 2.22 -1.9 5000008.73744
9.442464 1.56 -1.9 5000008.73744
9.442464 1.54 -1.9 5000008.73744
9.442464 2.4 -1.94 5000008.73744
9.442464 2.1 -1.94 5000008.73744
9.442464 1.7 -1.94 5000008.73744
9.442464 1.68 -1.94 5000008.73744
9.442464 2.1 -1.96 5000008.73744
9.442464 1.68 -1.96 5000008.73744
9.442464 1.66 -1.96 5000008.73744
9.442464 1.52 -1.96 5000008.73744
9.941628000000001 -4.86 -1.96 5000009.56938
10.54584 -6.24 -1.96 5000010.5764
9.941628000000001 -6.34 -1.96 5000009.56938
9.442464 2.22 -1.98 5000008.73744
9.941628000000001 -6.32 -1.98 5000009.56938
9.941628000000001 -6.34 -1.98 5000009.56938
7.141176 4.5 -2.02 5000004.90196
7.141176 4.5 -2.04 5000004.90196
9.023147999999999 2.24 -2.04 5000008.03858
9.023147999999999 2.22 -2.06 5000008.03858
9.023147999999999 1.92 -2.06 5000008.03858
9.023147999999999 2.54 -2.12 5000008.03858
8.665944 2.78 -2.14 5000007.44324
8.665944 2.76 -2.14 5000007.44324
9.023147999999999 2.54 -2.14 5000008.03858
8.665944 2.76 -2.16 5000007.44324
8.665944 2.48 -2.16 5000007.44324
8.665944 2.82 -2.18 5000007.44324
8.665944 2.34 -2.24 5000007.44324
8.665944 2.34 -2.26 5000007.44324
8.665944 2.32 -2.26 5000007.44324
8.665944 2.5 -2.28 5000007.44324
8.665944 2.42 -2.28 5000007.44324
8.665944 2.48 -2.3 5000007.44324
8.665944 2.46 -2.3 5000007.44324
8.665944 2.4 -2.3 5000007.44324
8.665944 2.46 -2.32 5000007.44324
8.665944 2.44 -2.32 5000007.44324
8.665944 2.18 -2.32 5000007.44324
8.358006 3.1 -2.36 5000006.93001
8.358006 3.08 -2.36 5000006.93001
8.665944 1.98 -2.36 5000007.44324
8.358006 3.08 -2.38 5000006.93001
8.665944 1.98 -2.38 5000007.44324
8.358006 2.62 -2.42 5000006.93001
8.358006 2.62 -2.44 5000006.93001
8.358006 2.6 -2.44 5000006.93001
8.358006 2.94 -2.46 5000006.93001
8.358006 2.32 -2.5 5000006.93001
8.089788 3.46 -2.52 5000006.48298
8.089788 3.18 -2.52 5000006.48298
8.089788 3.16 -2.52 5000006.48298
7.141176 4.52 -2.54 5000004.90196
8.089788 3.46 -2.54 5000006.48298
8.089788 3.44 -2.54 5000006.48298
8.358006 2.04 -2.54 5000006.93001
7.141176 4.52 -2.56 5000004.90196
8.089788 2.86 -2.56 5000006.48298
8.089788 2.84 -2.56 5000006.48298
8.089788 2.82 -2.56 5000006.48298
8.089788 2.8 -2.56 5000006.48298
7.141176 4.52 -2.58 5000004.90196
8.089788 2.9 -2.58 5000006.48298
8.089788 2.88 -2.58 5000006.48298
8.089788 2.8 -2.58 5000006.48298
8.089788 3.12 -2.6 5000006.48298
8.089788 2.88 -2.6 5000006.48298
8.089788 2.86 -2.6 5000006.48298
8.089788 2.84 -2.6 5000006.48298
8.089788 3.12 -2.62 5000006.48298
8.089788 2.86 -2.62 5000006.48298
8.089788 2.84 -2.62 5000006.48298
8.089788 3.68 -2.64 5000006.48298
8.089788 3.66 -2.64 5000006.48298
8.089788 2.66 -2.64 5000006.48298
7.141176 4.52 -2.66 5000004.90196
8.089788 3.74 -2.66 5000006.48298
8.089788 2.66 -2.66 5000006.48298
7.141176 4.52 -2.68 5000004.90196
8.089788 3.76 -2.68 5000006.48298
7.8540779999999994 3.36 -2.68 5000006.09013
7.8540779999999994 3.24 -2.68 5000006.09013
7.141176 4.52 -2.7 5000004.90196
7.141176 4.52 -2.72 5000004.90196
7.8540779999999994 3.64 -2.72 5000006.09013
7.8540779999999994 2.92 -2.72 5000006.09013
7.645308 3.78 -2.74 5000005.74218
7.8540779999999994 3.2 -2.74 5000006.09013
7.8540779999999994 3.18 -2.74 5000006.09013
7.8540779999999994 3.1 -2.74 5000006.09013
7.8540779999999994 3.08 -2.74 5000006.09013
7.645308 3.78 -2.76 5000005.74218
7.645308 3.76 -2.76 5000005.74218
7.8540779999999994 3.08 -2.76 5000006.09013
7.8540779999999994 3.06 -2.76 5000006.09013
7.645308 3.8 -2.78 5000005.74218
7.645308 3.74 -2.78 5000005.74218
7.8540779999999994 3.26 -2.78 5000006.09013
8.089788 2.38 -2.78 5000006.48298
8.089788 2.36 -2.78 5000006.48298
8.089788 -5.96 -2.78 5000006.48298
7.141176 4.56 -2.8 5000004.90196
7.141176 4.54 -2.8 5000004.90196
7.141176 4.52 -2.8 5000004.90196
7.645308 3.8 -2.8 5000005.74218
7.645308 3.78 -2.8 5000005.74218
8.089788 -5.96 -2.8 5000006.48298
8.089788 -5.98 -2.8 5000006.48298
7.141176 4.52 -2.82 5000004.90196
7.8540779999999994 2.92 -2.82 5000006.09013
7.645308 3.66 -2.84 5000005.74218
7.645308 3.64 -2.84 5000005.74218
7.645308 4.34 -2.86 5000005.74218
7.645308 4.34 -2.88 5000005.74218
7.645308 3.84 -2.88 5000005.74218
7.645308 3.82 -2.88 5000005.74218
8.089788 0.08 -2.88 5000006.48298
8.089788 0.06 -2.88 5000006.48298
7.645308 3.84 -2.9 5000005.74218
7.645308 3.82 -2.9 5000005.74218
7.645308 3.56 -2.9 5000005.74218
8.089788 0.04 -2.9 5000006.48298
7.645308 3.68 -2.92 5000005.74218
7.8540779999999994 2.5 -2.92 5000006.09013
8.089788 -5.92 -2.92 5000006.48298
8.089788 -5.94 -2.92 5000006.48298
8.089788 -5.96 -2.92 5000006.48298
8.089788 -5.98 -2.92 5000006.48298
8.089788 -6.0 -2.92 5000006.48298
8.089788 -6.02 -2.92 5000006.48298
8.089788 -6.04 -2.92 5000006.48298
7.8540779999999994 -6.06 -2.92 5000006.09013
7.8540779999999994 -6.08 -2.92 5000006.09013
7.8540779999999994 -6.14 -2.92 5000006.09013
7.8540779999999994 -6.16 -2.92 5000006.09013
7.8540779999999994 -6.18 -2.92 5000006.09013
7.645308 3.66 -2.94 5000005.74218
7.8540779999999994 2.5 -2.94 5000006.09013
7.8540779999999994 2.48 -2.94 5000006.09013
8.089788 -5.94 -2.94 5000006.48298
8.089788 -6.0 -2.94 5000006.48298
8.089788 -6.02 -2.94 5000006.48298
8.089788 -6.04 -2.94 5000006.48298
7.8540779999999994 -6.06 -2.94 5000006.09013
7.8540779999999994 -6.08 -2.94 5000006.09013
7.8540779999999994 -6.1 -2.94 5000006.09013
7.8540779999999994 -6.12 -2.94 5000006.09013
7.8540779999999994 -6.14 -2.94 5000006.09013
7.8540779999999994 -6.16 -2.94 5000006.09013
7.8540779999999994 -6.18 -2.94 5000006.09013
7.645308 -6.2 -2.94 5000005.74218
7.645308 -6.22 -2.94 5000005.74218
7.459097999999999 3.74 -2.96 5000005.43183
7.8540779999999994 -6.1 -2.96 5000006.09013
7.8540779999999994 -6.12 -2.96 5000006.09013
7.8540779999999994 -6.16 -2.96 5000006.09013
7.8540779999999994 -6.18 -2.96 5000006.09013
7.645308 -6.2 -2.96 5000005.74218
7.645308 -6.22 -2.96 5000005.74218
7.645308 -6.24 -2.96 5000005.74218
7.459097999999999 -6.26 -2.96 5000005.43183
7.459097999999999 3.74 -2.98 5000005.43183
7.459097999999999 3.72 -2.98 5000005.43183
7.645308 -6.24 -2.98 5000005.74218
7.459097999999999 -6.26 -2.98 5000005.43183
7.459097999999999 4.22 -3.0 5000005.43183
7.459097999999999 3.62 -3.0 5000005.43183
7.8540779999999994 2.78 -3.0 5000006.09013
7.8540779999999994 -0.7 -3.0 5000006.09013
7.459097999999999 4.22 -3.02 5000005.43183
7.459097999999999 4.2 -3.02 5000005.43183
7.645308 2.82 -3.02 5000005.74218
7.645308 2.54 -3.02 5000005.74218
7.459097999999999 4.4 -3.04 5000005.43183
7.459097999999999 4.28 -3.04 5000005.43183
7.459097999999999 4.26 -3.04 5000005.43183
7.645308 2.78 -3.04 5000005.74218
7.645308 2.54 -3.04 5000005.74218
7.645308 2.52 -3.04 5000005.74218
7.645308 2.5 -3.04 5000005.74218
7.459097999999999 4.4 -3.06 5000005.43183
7.459097999999999 4.22 -3.06 5000005.43183
7.645308 2.86 -3.06 5000005.74218
7.645308 2.84 -3.06 5000005.74218
7.645308 2.82 -3.06 5000005.74218
7.645308 2.52 -3.06 5000005.74218
7.459097999999999 4.4 -3.08 5000005.43183
7.459097999999999 4.22 -3.08 5000005.43183
7.459097999999999 3.56 -3.08 5000005.43183
7.645308 2.86 -3.08 5000005.74218
7.645308 2.84 -3.08 5000005.74218
7.645308 2.82 -3.08 5000005.74218
7.8540779999999994 2.58 -3.08 5000006.09013
7.459097999999999 4.38 -3.1 5000005.43183
7.459097999999999 3.2 -3.1 5000005.43183
7.645308 2.84 -3.1 5000005.74218
7.645308 2.82 -3.1 5000005.74218
7.2919860000000005 2.74 -3.1 5000005.15331
7.2919860000000005 2.72 -3.1 5000005.15331
7.459097999999999 3.74 -3.12 5000005.43183
7.459097999999999 3.18 -3.12 5000005.43183
7.459097999999999 3.76 -3.14 5000005.43183
7.459097999999999 3.16 -3.14 5000005.43183
7.2919860000000005 4.36 -3.16 5000005.15331
7.645308 2.78 -3.16 5000005.74218
7.459097999999999 3.46 -3.18 5000005.43183
7.2919860000000005 3.88 -3.2 5000005.15331
7.2919860000000005 3.86 -3.2 5000005.15331
7.459097999999999 2.92 -3.2 5000005.43183
7.2919860000000005 3.88 -3.22 5000005.15331
7.2919860000000005 3.86 -3.22 5000005.15331
7.2919860000000005 3.84 -3.22 5000005.15331
7.459097999999999 2.92 -3.22 5000005.43183
7.459097999999999 2.9 -3.22 5000005.43183
7.459097999999999 2.88 -3.22 5000005.43183
7.2919860000000005 3.84 -3.24 5000005.15331
7.2919860000000005 3.82 -3.24 5000005.15331
7.141176 3.8 -3.24 5000004.90196
7.2919860000000005 4.12 -3.26 5000005.15331
7.2919860000000005 3.58 -3.26 5000005.15331
7.2919860000000005 3.56 -3.26 5000005.15331
7.141176 4.48 -3.3 5000004.90196
7.141176 4.44 -3.3 5000004.90196
7.141176 4.42 -3.3 5000004.90196
7.459097999999999 -0.84 -3.3 5000005.43183
7.459097999999999 -0.86 -3.3 5000005.43183
7.459097999999999 -0.88 -3.3 5000005.43183
7.459097999999999 -0.9 -3.3 5000005.43183
7.141176 4.46 -3.32 5000004.90196
7.141176 4.44 -3.32 5000004.90196
7.141176 4.42 -3.32 5000004.90196
7.141176 3.66 -3.32 5000004.90196
7.459097999999999 2.02 -3.32 5000005.43183
7.459097999999999 1.3 -3.32 5000005.43183
7.459097999999999 -2.34 -3.32 5000005.43183
7.459097999999999 -2.36 -3.32 5000005.43183
7.141176 3.68 -3.34 5000004.90196
7.141176 3.66 -3.34 5000004.90196
7.141176 3.64 -3.34 5000004.90196
7.2919860000000005 3.5 -3.34 5000005.15331
7.459097999999999 1.3 -3.34 5000005.43183
7.459097999999999 1.28 -3.34 5000005.43183
7.141176 5.14 -3.36 5000004.90196
7.141176 4.98 -3.36 5000004.90196
7.141176 4.96 -3.36 5000004.90196
7.141176 3.66 -3.36 5000004.90196
7.141176 3.64 -3.36 5000004.90196
7.141176 3.62 -3.36 5000004.90196
7.2919860000000005 3.48 -3.36 5000005.15331
7.141176 5.44 -3.38 5000004.90196
7.141176 5.04 -3.38 5000004.90196
7.141176 4.96 -3.38 5000004.90196
7.141176 3.78 -3.38 5000004.90196
7.141176 5.04 -3.4 5000004.90196
7.141176 4.96 -3.4 5000004.90196
7.141176 4.94 -3.4 5000004.90196
7.141176 3.78 -3.4 5000004.90196
7.141176 3.76 -3.4 5000004.90196
7.141176 3.74 -3.4 5000004.90196
7.141176 3.72 -3.4 5000004.90196
7.2919860000000005 2.62 -3.4 5000005.15331
7.141176 5.52 -3.42 5000004.90196
7.141176 5.5 -3.42 5000004.90196
7.2919860000000005 2.68 -3.42 5000005.15331
7.2919860000000005 2.6 -3.42 5000005.15331
7.2919860000000005 2.58 -3.42 5000005.15331
7.2919860000000005 2.68 -3.44 5000005.15331
7.2919860000000005 2.66 -3.44 5000005.15331
7.2919860000000005 2.58 -3.44 5000005.15331
7.2919860000000005 2.16 -3.44 5000005.15331
7.2919860000000005 1.48 -3.44 5000005.15331
7.004394 4.36 -3.46 5000004.67399
7.2919860000000005 2.66 -3.46 5000005.15331
7.2919860000000005 2.64 -3.46 5000005.15331
7.2919860000000005 2.62 -3.46 5000005.15331
7.2919860000000005 1.54 -3.46 5000005.15331
7.2919860000000005 1.4 -3.46 5000005.15331
7.141176 3.84 -3.48 5000004.90196
7.2919860000000005 3.26 -3.48 5000005.15331
7.2919860000000005 3.12 -3.48 5000005.15331
7.2919860000000005 3.1 -3.48 5000005.15331
7.2919860000000005 2.64 -3.48 5000005.15331
7.2919860000000005 2.62 -3.48 5000005.15331
7.2919860000000005 1.36 -3.48 5000005.15331
7.2919860000000005 1.3 -3.48 5000005.15331
7.645308 0.62 -3.48 5000005.74218
7.2919860000000005 0.26 -3.48 5000005.15331
7.004394 3.82 -3.5 5000004.67399
7.2919860000000005 3.26 -3.5 5000005.15331
7.2919860000000005 3.24 -3.5 5000005.15331
7.2919860000000005 3.22 -3.5 5000005.15331
7.2919860000000005 3.2 -3.5 5000005.15331
7.2919860000000005 3.18 -3.5 5000005.15331
7.2919860000000005 1.46 -3.5 5000005.15331
7.2919860000000005 1.44 -3.5 5000005.15331
7.2919860000000005 0.52 -3.5 5000005.15331
7.2919860000000005 -0.9 -3.5 5000005.15331
7.004394 4.42 -3.52 5000004.67399
7.004394 3.82 -3.52 5000004.67399
7.004394 3.8 -3.52 5000004.67399
7.2919860000000005 3.24 -3.52 5000005.15331
7.2919860000000005 3.22 -3.52 5000005.15331
7.2919860000000005 3.2 -3.52 5000005.15331
7.2919860000000005 3.18 -3.52 5000005.15331
7.2919860000000005 3.16 -3.52 5000005.15331
7.2919860000000005 3.14 -3.52 5000005.15331
7.2919860000000005 1.38 -3.52 5000005.15331
7.2919860000000005 0.52 -3.52 5000005.15331
7.004394 4.72 -3.54 5000004.67399
7.004394 4.7 -3.54 5000004.67399
7.004394 3.9 -3.54 5000004.67399
7.004394 3.8 -3.54 5000004.67399
7.004394 3.78 -3.54 5000004.67399
7.2919860000000005 3.16 -3.54 5000005.15331
7.2919860000000005 3.14 -3.54 5000005.15331
7.2919860000000005 0.82 -3.54 5000005.15331
6.879768 4.44 -3.56 5000004.46628
7.004394 4.02 -3.56 5000004.67399
7.004394 3.96 -3.56 5000004.67399
7.004394 3.86 -3.56 5000004.67399
7.2919860000000005 2.34 -3.56 5000005.15331
6.879768 4.42 -3.58 5000004.46628
7.004394 4.22 -3.58 5000004.67399
7.004394 4.02 -3.58 5000004.67399
7.004394 3.96 -3.58 5000004.67399
7.004394 3.92 -3.58 5000004.67399
7.141176 0.76 -3.58 5000004.90196
7.141176 0.74 -3.58 5000004.90196
6.879768 5.5 -3.6 5000004.46628
6.879768 5.48 -3.6 5000004.46628
7.004394 4.02 -3.6 5000004.67399
7.004394 4.0 -3.6 5000004.67399
7.004394 3.92 -3.6 5000004.67399
7.004394 3.9 -3.6 5000004.67399
7.141176 0.64 -3.6 5000004.90196
7.141176 0.62 -3.6 5000004.90196
6.879768 5.48 -3.62 5000004.46628
6.879768 4.82 -3.62 5000004.46628
7.004394 4.02 -3.62 5000004.67399
7.004394 4.0 -3.62 5000004.67399
7.004394 3.98 -3.62 5000004.67399
7.004394 3.9 -3.62 5000004.67399
7.141176 2.28 -3.62 5000004.90196
7.141176 2.26 -3.62 5000004.90196
7.141176 0.84 -3.62 5000004.90196
7.004394 4.0 -3.64 5000004.67399
7.004394 3.98 -3.64 5000004.67399
7.141176 2.24 -3.64 5000004.90196
7.141176 2.22 -3.64 5000004.90196
7.141176 0.74 -3.64 5000004.90196
7.141176 0.72 -3.64 5000004.90196
6.879768 4.92 -3.66 5000004.46628
7.141176 4.06 -3.66 5000004.90196
7.004394 4.0 -3.66 5000004.67399
7.004394 3.98 -3.66 5000004.67399
7.004394 3.96 -3.66 5000004.67399
7.004394 3.84 -3.66 5000004.67399
7.2919860000000005 2.86 -3.66 5000005.15331
7.141176 2.82 -3.66 5000004.90196
7.141176 2.8 -3.66 5000004.90196
7.141176 2.16 -3.66 5000004.90196
7.141176 0.7 -3.66 5000004.90196
7.004394 4.0 -3.68 5000004.67399
7.004394 3.98 -3.68 5000004.67399
7.004394 3.82 -3.68 5000004.67399
7.141176 2.86 -3.68 5000004.90196
7.141176 2.8 -3.68 5000004.90196
7.141176 2.78 -3.68 5000004.90196
7.004394 3.88 -3.7 5000004.67399
7.141176 2.9 -3.7 5000004.90196
7.141176 2.78 -3.7 5000004.90196
6.879768 4.1 -3.72 5000004.46628
7.141176 3.48 -3.72 5000004.90196
7.141176 2.9 -3.72 5000004.90196
7.141176 2.76 -3.72 5000004.90196
7.004394 2.74 -3.72 5000004.67399
7.141176 -4.14 -3.72 5000004.90196
7.141176 3.48 -3.74 5000004.90196
7.141176 3.46 -3.74 5000004.90196
7.141176 3.44 -3.74 5000004.90196
7.141176 2.9 -3.74 5000004.90196
7.141176 -1.26 -3.74 5000004.90196
6.879768 4.18 -3.76 5000004.46628
6.879768 3.94 -3.76 5000004.46628
6.879768 3.84 -3.76 5000004.46628
6.879768 3.82 -3.76 5000004.46628
7.004394 2.9 -3.76 5000004.67399
7.004394 2.74 -3.76 5000004.67399
7.141176 -1.3 -3.76 5000004.90196
7.141176 4.32 -3.78 5000004.90196
6.879768 4.26 -3.78 5000004.46628
6.879768 4.16 -3.78 5000004.46628
6.879768 4.06 -3.78 5000004.46628
6.879768 3.82 -3.78 5000004.46628
6.879768 3.8 -3.78 5000004.46628
7.004394 2.92 -3.78 5000004.67399
7.004394 2.9 -3.78 5000004.67399
7.004394 2.88 -3.78 5000004.67399
7.004394 2.86 -3.78 5000004.67399
6.879768 2.78 -3.78 5000004.46628
7.004394 0.94 -3.78 5000004.67399
6.879768 4.24 -3.8 5000004.46628
6.879768 4.04 -3.8 5000004.46628
7.004394 2.9 -3.8 5000004.67399
7.004394 2.88 -3.8 5000004.67399
7.004394 2.86 -3.8 5000004.67399
7.004394 2.84 -3.8 5000004.67399
7.004394 2.82 -3.8 5000004.67399
6.879768 4.4 -3.82 5000004.46628
6.879768 4.38 -3.82 5000004.46628
6.879768 3.82 -3.82 5000004.46628
7.004394 1.12 -3.82 5000004.67399
6.765750000000001 5.26 -3.84 5000004.27625
6.879768 4.38 -3.84 5000004.46628
6.879768 3.8 -3.84 5000004.46628
7.004394 0.6 -3.84 5000004.67399
7.004394 0.58 -3.84 5000004.67399
6.765750000000001 5.36 -3.86 5000004.27625
6.879768 5.22 -3.86 5000004.46628
6.879768 3.8 -3.86 5000004.46628
6.879768 3.78 -3.86 5000004.46628
6.765750000000001 5.34 -3.88 5000004.27625
6.765750000000001 5.28 -3.88 5000004.27625
6.879768 3.78 -3.88 5000004.46628
6.765750000000001 5.3 -3.9 5000004.27625
6.879768 4.36 -3.9 5000004.46628
6.879768 3.78 -3.9 5000004.46628
7.004394 0.78 -3.9 5000004.67399
7.004394 0.76 -3.9 5000004.67399
6.765750000000001 4.28 -3.92 5000004.27625
6.879768 2.22 -3.92 5000004.46628
6.879768 2.2 -3.92 5000004.46628
7.004394 0.74 -3.92 5000004.67399
6.661032 4.44 -3.94 5000004.10172
6.765750000000001 4.38 -3.94 5000004.27625
6.765750000000001 4.28 -3.94 5000004.27625
6.765750000000001 4.26 -3.94 5000004.27625
6.879768 2.12 -3.94 5000004.46628
6.661032 4.44 -3.96 5000004.10172
6.765750000000001 4.34 -3.96 5000004.27625
7.004394 3.7 -3.96 5000004.67399
6.879768 1.6 -3.96 5000004.46628
6.879768 1.58 -3.96 5000004.46628
6.564533999999999 5.84 -3.98 5000003.94089
6.564533999999999 5.82 -3.98 5000003.94089
6.661032 4.46 -3.98 5000004.10172
6.661032 4.44 -3.98 5000004.10172
6.661032 4.42 -3.98 5000004.10172
6.765750000000001 4.34 -3.98 5000004.27625
6.765750000000001 4.32 -3.98 5000004.27625
6.765750000000001 4.3 -3.98 5000004.27625
6.879768 3.66 -3.98 5000004.46628
6.879768 3.64 -3.98 5000004.46628
6.879768 1.7 -3.98 5000004.46628
6.879768 1.52 -3.98 5000004.46628
6.879768 1.14 -3.98 5000004.46628
6.661032 4.78 -4.0 5000004.10172
6.661032 4.4 -4.0 5000004.10172
6.879768 1.42 -4.0 5000004.46628
6.879768 1.4 -4.0 5000004.46628
6.879768 1.12 -4.0 5000004.46628
6.661032 4.88 -4.02 5000004.10172
6.661032 4.86 -4.02 5000004.10172
6.661032 4.92 -4.04 5000004.10172
6.661032 4.88 -4.04 5000004.10172
6.661032 4.84 -4.04 5000004.10172
6.661032 4.82 -4.04 5000004.10172
6.879768 1.46 -4.04 5000004.46628
6.879768 1.44 -4.04 5000004.46628
6.564533999999999 5.58 -4.06 5000003.94089
6.661032 4.9 -4.06 5000004.10172
6.661032 4.84 -4.06 5000004.10172
6.661032 4.82 -4.06 5000004.10172
6.879768 1.42 -4.06 5000004.46628
6.564533999999999 4.92 -4.08 5000003.94089
6.564533999999999 4.9 -4.08 5000003.94089
6.564533999999999 4.88 -4.08 5000003.94089
6.564533999999999 4.82 -4.08 5000003.94089
6.661032 4.8 -4.08 5000004.10172
6.564533999999999 4.92 -4.1 5000003.94089
6.564533999999999 4.9 -4.1 5000003.94089
6.564533999999999 4.88 -4.1 5000003.94089
6.564533999999999 4.86 -4.1 5000003.94089
6.564533999999999 4.88 -4.12 5000003.94089
6.564533999999999 4.86 -4.12 5000003.94089
6.564533999999999 5.48 -4.14 5000003.94089
6.564533999999999 5.38 -4.14 5000003.94089
6.564533999999999 5.36 -4.14 5000003.94089
6.564533999999999 5.3 -4.14 5000003.94089
6.564533999999999 5.36 -4.16 5000003.94089
6.564533999999999 5.2 -4.16 5000003.94089
6.564533999999999 5.0 -4.16 5000003.94089
6.765750000000001 3.9 -4.16 5000004.27625
6.765750000000001 1.74 -4.16 5000004.27625
6.765750000000001 -1.38 -4.16 5000004.27625
6.564533999999999 5.6 -4.18 5000003.94089
6.564533999999999 5.2 -4.18 5000003.94089
6.564533999999999 5.18 -4.18 5000003.94089
6.564533999999999 4.98 -4.18 5000003.94089
6.765750000000001 1.74 -4.18 5000004.27625
6.564533999999999 5.6 -4.2 5000003.94089
6.564533999999999 5.58 -4.2 5000003.94089
6.564533999999999 5.2 -4.2 5000003.94089
6.475314 5.08 -4.2 5000003.79219
6.564533999999999 4.56 -4.2 5000003.94089
6.765750000000001 3.98 -4.2 5000004.27625
6.765750000000001 3.96 -4.2 5000004.27625
6.765750000000001 1.56 -4.2 5000004.27625
6.765750000000001 1.54 -4.2 5000004.27625
6.765750000000001 -2.36 -4.2 5000004.27625
6.564533999999999 5.68 -4.22 5000003.94089
6.564533999999999 5.62 -4.22 5000003.94089
6.564533999999999 5.58 -4.22 5000003.94089
6.564533999999999 5.44 -4.22 5000003.94089
6.564533999999999 4.96 -4.22 5000003.94089
6.765750000000001 3.96 -4.22 5000004.27625
6.765750000000001 3.94 -4.22 5000004.27625
6.765750000000001 1.54 -4.22 5000004.27625
6.765750000000001 1.52 -4.22 5000004.27625
6.765750000000001 -0.9 -4.22 5000004.27625
6.765750000000001 -1.22 -4.22 5000004.27625
6.765750000000001 -1.48 -4.22 5000004.27625
