VERSION .7
FIELDS x y z rgb
SIZE 4 4 4 4
TYPE F F F F
COUNT 1 1 1 1
WIDTH 828
HEIGHT 1
VIEWPOINT 0 0 0 1 0 0 0
POINTS 828
DATA ascii
10.446526666666667 -5.333333333333333 2.1666666666666665 5000013.3958
10.39401 -5.466666666666667 2.1666666666666665 5000011.8203
10.95648 -5.566666666666666 2.1666666666666665 5000028.6944
10.95648 -5.6 2.1666666666666665 5000028.6944
10.95648 -5.633333333333334 2.1666666666666665 5000028.6944
10.231000333333334 -5.933333333333334 2.1666666666666665 5000006.93001
10.113552333333333 -8.466666666666667 2.1666666666666665 5000003.40657
10.291248 -6.266666666666667 2.1333333333333333 5000008.73744
10.95648 0.9333333333333333 2.1 5000028.6944
10.95648 0.9 2.1 5000028.6944
10.231000333333334 -6.7 2.1 5000006.93001
10.95648 0.9 2.066666666666667 5000028.6944
10.95648 0.4 1.9666666666666666 5000028.6944
10.95648 0.36666666666666664 1.9333333333333333 5000028.6944
10.744046666666666 2.933333333333333 1.9 5000022.3214
10.744046666666666 2.933333333333333 1.8666666666666667 5000022.3214
10.352546666666667 -17.8 1.7333333333333334 5000010.5764
10.352546666666667 -17.766666666666666 1.7 5000010.5764
10.352546666666667 -17.8 1.7 5000010.5764
10.352546666666667 -17.766666666666666 1.6666666666666667 5000010.5764
10.352546666666667 -17.8 1.6666666666666667 5000010.5764
10.39401 -17.466666666666665 1.6 5000011.8203
10.39401 -17.433333333333334 1.5666666666666667 5000011.8203
10.352546666666667 -17.533333333333335 1.5666666666666667 5000010.5764
10.39401 -17.366666666666667 1.5333333333333334 5000011.8203
10.352546666666667 -17.5 1.5333333333333334 5000010.5764
10.39401 -17.333333333333332 1.5 5000011.8203
10.39401 -17.366666666666667 1.5 5000011.8203
10.352546666666667 -17.466666666666665 1.5 5000010.5764
10.39401 -17.3 1.4666666666666666 5000011.8203
10.352546666666667 -17.433333333333334 1.4666666666666666 5000010.5764
10.352546666666667 -17.566666666666666 1.4666666666666666 5000010.5764
10.352546666666667 -17.4 1.4333333333333333 5000010.5764
10.352546666666667 -17.433333333333334 1.4333333333333333 5000010.5764
10.352546666666667 -17.4 1.4 5000010.5764
10.608826666666667 1.8333333333333333 1.2666666666666666 5000018.2648
10.352546666666667 -17.5 1.2333333333333334 5000010.5764
10.352546666666667 -17.5 1.2 5000010.5764
10.39401 -17.866666666666667 1.2 5000011.8203
10.39401 -17.9 1.2 5000011.8203
10.5152 -15.5 1.1666666666666667 5000015.456
10.352546666666667 -17.466666666666665 1.1333333333333333 5000010.5764
10.446526666666667 -5.366666666666666 1.1 5000013.3958
10.352546666666667 -17.366666666666667 1.0666666666666667 5000010.5764
10.352546666666667 -17.366666666666667 1.0333333333333334 5000010.5764
10.352546666666667 -17.333333333333332 1.0 5000010.5764
10.318979333333333 -17.8 0.9666666666666667 5000009.56938
10.446526666666667 0.0 0.8333333333333334 5000013.3958
10.446526666666667 -0.03333333333333333 0.8333333333333334 5000013.3958
10.446526666666667 -14.4 0.8333333333333334 5000013.3958
10.352546666666667 -4.5 0.7666666666666667 5000010.5764
10.39401 -1.6 0.7333333333333333 5000011.8203
10.39401 -1.6333333333333333 0.7333333333333333 5000011.8203
10.352546666666667 -16.2 0.7333333333333333 5000010.5764
10.352546666666667 -17.4 0.7333333333333333 5000010.5764
10.39401 -1.5666666666666667 0.7 5000011.8203
10.39401 -1.5 0.6666666666666666 5000011.8203
10.446526666666667 -14.433333333333334 0.6666666666666666 5000013.3958
10.39401 -1.4666666666666666 0.6333333333333333 5000011.8203
10.39401 -1.5 0.6333333333333333 5000011.8203
10.352546666666667 -17.166666666666668 0.6333333333333333 5000010.5764
10.39401 -1.4333333333333333 0.6 5000011.8203
10.39401 -14.6 0.6 5000011.8203
10.352546666666667 -17.166666666666668 0.6 5000010.5764
10.39401 -1.3666666666666667 0.5666666666666667 5000011.8203
10.39401 -1.4 0.5666666666666667 5000011.8203
10.39401 -0.9 0.5333333333333333 5000011.8203
10.39401 -0.9333333333333333 0.5333333333333333 5000011.8203
10.39401 -1.3333333333333333 0.5333333333333333 5000011.8203
10.39401 -1.3 0.5 5000011.8203
10.352546666666667 -16.6 0.5 5000010.5764
10.352546666666667 -17.066666666666666 0.5 5000010.5764
10.352546666666667 -0.26666666666666666 0.4666666666666667 5000010.5764
10.39401 -14.666666666666666 0.4666666666666667 5000011.8203
10.352546666666667 -0.23333333333333334 0.43333333333333335 5000010.5764
10.352546666666667 -0.26666666666666666 0.43333333333333335 5000010.5764
10.352546666666667 -0.3 0.43333333333333335 5000010.5764
10.352546666666667 -0.3333333333333333 0.43333333333333335 5000010.5764
10.352546666666667 -0.36666666666666664 0.43333333333333335 5000010.5764
10.318979333333333 -2.966666666666667 0.43333333333333335 5000009.56938
10.352546666666667 -14.766666666666667 0.43333333333333335 5000010.5764
10.318979333333333 -16.933333333333334 0.43333333333333335 5000009.56938
10.352546666666667 -0.36666666666666664 0.4 5000010.5764
10.352546666666667 -0.4 0.4 5000010.5764
10.352546666666667 -0.43333333333333335 0.4 5000010.5764
10.352546666666667 -16.033333333333335 0.4 5000010.5764
10.352546666666667 -17.633333333333333 0.4 5000010.5764
10.318979333333333 -17.733333333333334 0.4 5000009.56938
10.318979333333333 -17.766666666666666 0.4 5000009.56938
10.318979333333333 -17.866666666666667 0.4 5000009.56938
10.352546666666667 -0.4666666666666667 0.36666666666666664 5000010.5764
10.352546666666667 -0.5 0.36666666666666664 5000010.5764
10.352546666666667 -0.5333333333333333 0.36666666666666664 5000010.5764
10.352546666666667 -0.5666666666666667 0.36666666666666664 5000010.5764
10.318979333333333 -3.8 0.36666666666666664 5000009.56938
10.352546666666667 -14.8 0.36666666666666664 5000010.5764
10.352546666666667 -16.233333333333334 0.36666666666666664 5000010.5764
10.352546666666667 -17.633333333333333 0.36666666666666664 5000010.5764
10.318979333333333 -17.733333333333334 0.36666666666666664 5000009.56938
10.318979333333333 -17.766666666666666 0.36666666666666664 5000009.56938
10.352546666666667 -0.5666666666666667 0.3333333333333333 5000010.5764
10.352546666666667 -0.6 0.3333333333333333 5000010.5764
10.352546666666667 -0.6333333333333333 0.3333333333333333 5000010.5764
10.352546666666667 -0.6666666666666666 0.3333333333333333 5000010.5764
10.318979333333333 -17.733333333333334 0.3333333333333333 5000009.56938
10.352546666666667 -0.6666666666666666 0.3 5000010.5764
10.352546666666667 -0.7 0.3 5000010.5764
10.352546666666667 -0.7333333333333333 0.3 5000010.5764
10.352546666666667 -0.7666666666666667 0.26666666666666666 5000010.5764
10.352546666666667 -0.8 0.26666666666666666 5000010.5764
10.352546666666667 -0.8333333333333334 0.26666666666666666 5000010.5764
10.291248 -3.1 0.26666666666666666 5000008.73744
10.318979333333333 2.7666666666666666 0.23333333333333334 5000009.56938
10.352546666666667 2.7333333333333334 0.23333333333333334 5000010.5764
10.352546666666667 2.7 0.23333333333333334 5000010.5764
10.352546666666667 -0.8666666666666667 0.23333333333333334 5000010.5764
10.352546666666667 -0.9 0.23333333333333334 5000010.5764
10.352546666666667 -0.9333333333333333 0.23333333333333334 5000010.5764
10.291248 -3.1 0.23333333333333334 5000008.73744
10.318979333333333 -4.966666666666667 0.23333333333333334 5000009.56938
10.318979333333333 2.8 0.2 5000009.56938
10.318979333333333 2.7666666666666666 0.2 5000009.56938
10.352546666666667 2.7333333333333334 0.2 5000010.5764
10.352546666666667 2.7 0.2 5000010.5764
10.352546666666667 2.6666666666666665 0.2 5000010.5764
10.352546666666667 -0.9666666666666667 0.2 5000010.5764
10.318979333333333 -4.966666666666667 0.16666666666666666 5000009.56938
10.318979333333333 -5.0 0.16666666666666666 5000009.56938
10.318979333333333 -5.033333333333333 0.13333333333333333 5000009.56938
10.318979333333333 -15.066666666666666 0.1 5000009.56938
10.318979333333333 -15.1 0.06666666666666667 5000009.56938
10.318979333333333 -17.733333333333334 0.03333333333333333 5000009.56938
10.318979333333333 -17.8 0.03333333333333333 5000009.56938
10.291248 -17.866666666666667 0.03333333333333333 5000008.73744
10.267952666666666 -3.4 0.0 5000008.03858
10.267952666666666 -3.466666666666667 0.0 5000008.03858
10.318979333333333 -17.233333333333334 0.0 5000009.56938
10.318979333333333 -17.266666666666666 0.0 5000009.56938
10.318979333333333 -17.7 0.0 5000009.56938
10.267952666666666 -3.3666666666666667 -0.03333333333333333 5000008.03858
10.267952666666666 -3.5 -0.03333333333333333 5000008.03858
10.267952666666666 -3.6333333333333333 -0.03333333333333333 5000008.03858
10.267952666666666 -3.3666666666666667 -0.06666666666666667 5000008.03858
10.267952666666666 -3.4 -0.06666666666666667 5000008.03858
10.248108 -2.2 -0.13333333333333333 5000007.44324
10.248108 -2.1333333333333333 -0.16666666666666666 5000007.44324
10.248108 -2.2 -0.16666666666666666 5000007.44324
10.248108 -2.466666666666667 -0.26666666666666666 5000007.44324
10.248108 -2.466666666666667 -0.3 5000007.44324
10.248108 -2.933333333333333 -0.3 5000007.44324
10.248108 -2.966666666666667 -0.3 5000007.44324
10.248108 -3.0 -0.3 5000007.44324
10.267952666666666 -2.7333333333333334 -0.3333333333333333 5000008.03858
10.248108 -2.8333333333333335 -0.3333333333333333 5000007.44324
10.248108 -2.8666666666666667 -0.3333333333333333 5000007.44324
10.248108 -3.033333333333333 -0.3333333333333333 5000007.44324
10.267952666666666 -2.7333333333333334 -0.36666666666666664 5000008.03858
10.248108 -2.8333333333333335 -0.36666666666666664 5000007.44324
10.248108 -2.8666666666666667 -0.36666666666666664 5000007.44324
10.248108 -2.9 -0.36666666666666664 5000007.44324
10.248108 -2.8666666666666667 -0.4 5000007.44324
10.248108 -2.9 -0.4 5000007.44324
10.248108 -2.933333333333333 -0.4 5000007.44324
10.231000333333334 -1.5333333333333334 -0.4666666666666667 5000006.93001
10.231000333333334 -2.6 -0.4666666666666667 5000006.93001
10.231000333333334 -1.5333333333333334 -0.5 5000006.93001
10.231000333333334 -1.5666666666666667 -0.5 5000006.93001
10.248108 -2.5 -0.5 5000007.44324
10.231000333333334 -2.6 -0.5 5000006.93001
10.231000333333334 -2.6333333333333333 -0.5 5000006.93001
10.231000333333334 -2.6666666666666665 -0.5 5000006.93001
10.231000333333334 -1.6666666666666667 -0.5333333333333333 5000006.93001
10.231000333333334 -1.7333333333333334 -0.5333333333333333 5000006.93001
10.231000333333334 -2.6333333333333333 -0.5333333333333333 5000006.93001
10.231000333333334 -2.6666666666666665 -0.5333333333333333 5000006.93001
10.231000333333334 -2.7 -0.5333333333333333 5000006.93001
10.231000333333334 -1.1333333333333333 -0.5666666666666667 5000006.93001
10.231000333333334 -1.5 -0.5666666666666667 5000006.93001
10.231000333333334 -1.7333333333333334 -0.5666666666666667 5000006.93001
10.231000333333334 -1.7666666666666666 -0.5666666666666667 5000006.93001
10.231000333333334 -2.433333333333333 -0.5666666666666667 5000006.93001
10.248108 -2.5 -0.5666666666666667 5000007.44324
10.231000333333334 -1.3666666666666667 -0.6 5000006.93001
10.231000333333334 -2.3666666666666667 -0.6 5000006.93001
10.231000333333334 -2.4 -0.6 5000006.93001
10.231000333333334 -1.4666666666666666 -0.6333333333333333 5000006.93001
10.248108 -2.066666666666667 -0.6333333333333333 5000007.44324
10.248108 -2.1 -0.6333333333333333 5000007.44324
10.231000333333334 -2.2 -0.6333333333333333 5000006.93001
10.248108 -16.9 -0.7 5000007.44324
10.216099333333334 -2.033333333333333 -0.7666666666666667 5000006.48298
10.216099333333334 -2.0 -0.8 5000006.48298
10.216099333333334 -2.033333333333333 -0.8 5000006.48298
10.216099333333334 -1.3 -0.8333333333333334 5000006.48298
10.203004333333332 -1.3333333333333333 -0.8333333333333334 5000006.09013
10.216099333333334 -2.033333333333333 -0.8333333333333334 5000006.48298
10.216099333333334 -1.2333333333333334 -0.8666666666666667 5000006.48298
10.203004333333332 -1.3333333333333333 -0.8666666666666667 5000006.09013
10.203004333333332 -1.3666666666666667 -0.8666666666666667 5000006.09013
10.203004333333332 -1.1333333333333333 -0.9 5000006.09013
10.203004333333332 -1.1666666666666667 -0.9 5000006.09013
10.203004333333332 -1.3666666666666667 -0.9 5000006.09013
10.203004333333332 -1.4 -0.9 5000006.09013
10.231000333333334 -3.2333333333333334 -0.9 5000006.93001
10.231000333333334 -3.2666666666666666 -0.9 5000006.93001
10.203004333333332 -0.8 -0.9333333333333333 5000006.09013
10.216099333333334 -2.2 -0.9333333333333333 5000006.48298
10.216099333333334 -0.6666666666666666 -0.9666666666666667 5000006.48298
10.203004333333332 -0.8 -0.9666666666666667 5000006.09013
10.203004333333332 -0.8333333333333334 -0.9666666666666667 5000006.09013
10.216099333333334 -2.466666666666667 -0.9666666666666667 5000006.48298
10.203004333333332 -0.2 -1.0 5000006.09013
10.231000333333334 -8.533333333333333 -1.0 5000006.93001
10.203004333333332 -0.1 -1.0333333333333334 5000006.09013
10.216099333333334 -0.6 -1.0333333333333334 5000006.48298
10.216099333333334 -0.6333333333333333 -1.0333333333333334 5000006.48298
10.203004333333332 -1.0333333333333334 -1.0333333333333334 5000006.09013
10.231000333333334 -3.6333333333333333 -1.0333333333333334 5000006.93001
10.203004333333332 -0.03333333333333333 -1.0666666666666667 5000006.09013
10.203004333333332 -0.06666666666666667 -1.0666666666666667 5000006.09013
10.203004333333332 -0.1 -1.0666666666666667 5000006.09013
10.203004333333332 -0.13333333333333333 -1.0666666666666667 5000006.09013
10.203004333333332 -0.7 -1.0666666666666667 5000006.09013
10.216099333333334 -0.5333333333333333 -1.1 5000006.48298
10.203004333333332 -0.7333333333333333 -1.1 5000006.09013
10.203004333333332 -0.03333333333333333 -1.1666666666666667 5000006.09013
10.216099333333334 -2.7333333333333334 -1.2333333333333334 5000006.48298
10.191406 -1.0 -1.3333333333333333 5000005.74218
10.191406 -1.0333333333333334 -1.3333333333333333 5000005.74218
10.203004333333332 -2.433333333333333 -1.3666666666666667 5000006.09013
10.191406 -0.6333333333333333 -1.4 5000005.74218
10.191406 -0.7333333333333333 -1.4 5000005.74218
10.191406 -0.8 -1.4 5000005.74218
10.191406 -0.6 -1.4333333333333333 5000005.74218
10.191406 -0.6333333333333333 -1.4333333333333333 5000005.74218
10.191406 -0.6666666666666666 -1.4333333333333333 5000005.74218
10.191406 -0.7 -1.4333333333333333 5000005.74218
10.191406 -0.8 -1.4333333333333333 5000005.74218
10.191406 -0.8333333333333334 -1.4333333333333333 5000005.74218
10.191406 -0.7 -1.4666666666666666 5000005.74218
10.191406 -0.7333333333333333 -1.4666666666666666 5000005.74218
10.191406 -0.7666666666666667 -1.4666666666666666 5000005.74218
10.191406 -0.8 -1.4666666666666666 5000005.74218
10.191406 -1.8 -1.4666666666666666 5000005.74218
10.191406 -0.7666666666666667 -1.5 5000005.74218
10.191406 -1.3333333333333333 -1.5 5000005.74218
10.191406 -1.7333333333333334 -1.5333333333333334 5000005.74218
10.181061 -0.4 -1.5666666666666667 5000005.43183
10.181061 -0.43333333333333335 -1.5666666666666667 5000005.43183
10.191406 -1.7666666666666666 -1.5666666666666667 5000005.74218
10.203004333333332 -2.4 -1.5666666666666667 5000006.09013
10.181061 1.1 -1.6 5000005.43183
10.191406 0.7 -1.6 5000005.74218
10.181061 -0.2 -1.6 5000005.43183
10.171777 0.8 -1.6333333333333333 5000005.15331
10.191406 -1.8 -1.6333333333333333 5000005.74218
10.171777 0.8 -1.6666666666666667 5000005.15331
10.171777 0.8 -1.7 5000005.15331
10.181061 1.0666666666666667 -1.7333333333333334 5000005.43183
10.181061 -0.2 -1.7333333333333334 5000005.43183
10.181061 -0.3333333333333333 -1.7333333333333334 5000005.43183
10.181061 -0.36666666666666664 -1.7333333333333334 5000005.43183
10.181061 -0.6333333333333333 -1.7333333333333334 5000005.43183
10.191406 -1.8 -1.7333333333333334 5000005.74218
10.171777 1.3666666666666667 -1.7666666666666666 5000005.15331
10.171777 -0.26666666666666666 -1.7666666666666666 5000005.15331
10.181061 -1.1 -1.7666666666666666 5000005.43183
10.171777 -0.26666666666666666 -1.8 5000005.15331
10.171777 -0.3 -1.8 5000005.15331
10.181061 -0.3333333333333333 -1.8 5000005.43183
10.171777 0.7 -1.8333333333333333 5000005.15331
10.171777 -0.23333333333333334 -1.8333333333333333 5000005.15331
10.171777 -0.26666666666666666 -1.8333333333333333 5000005.15331
10.171777 -0.3 -1.8333333333333333 5000005.15331
10.171777 0.5333333333333333 -1.8666666666666667 5000005.15331
10.191406 -16.266666666666666 -1.8666666666666667 5000005.74218
10.171777 0.5333333333333333 -1.9 5000005.15331
10.171777 0.5 -1.9 5000005.15331
10.191406 -16.233333333333334 -1.9 5000005.74218
10.191406 -16.266666666666666 -1.9 5000005.74218
10.171777 0.5 -1.9333333333333333 5000005.15331
10.171777 0.6333333333333333 -1.9666666666666666 5000005.15331
10.171777 0.36666666666666664 -1.9666666666666666 5000005.15331
10.163398666666666 1.0666666666666667 -2.0 5000004.90196
10.163398666666666 1.0333333333333334 -2.0 5000004.90196
10.163398666666666 1.0 -2.0 5000004.90196
10.171777 0.6 -2.0 5000005.15331
10.171777 0.4666666666666667 -2.0 5000005.15331
10.171777 0.36666666666666664 -2.0 5000005.15331
10.171777 -0.8333333333333334 -2.0 5000005.15331
10.171777 -0.8666666666666667 -2.0 5000005.15331
10.171777 -0.9 -2.0 5000005.15331
10.171777 -0.9333333333333333 -2.0 5000005.15331
10.171777 -0.9666666666666667 -2.0 5000005.15331
10.181061 -1.5 -2.0 5000005.43183
10.181061 -1.5333333333333334 -2.0 5000005.43183
10.181061 -1.5666666666666667 -2.0 5000005.43183
10.163398666666666 1.0333333333333334 -2.033333333333333 5000004.90196
10.163398666666666 1.0 -2.033333333333333 5000004.90196
10.163398666666666 0.9666666666666667 -2.033333333333333 5000004.90196
10.163398666666666 1.1333333333333333 -2.066666666666667 5000004.90196
10.163398666666666 1.1 -2.066666666666667 5000004.90196
10.163398666666666 1.0666666666666667 -2.066666666666667 5000004.90196
10.163398666666666 1.8 -2.1 5000004.90196
10.171777 -0.5333333333333333 -2.1 5000005.15331
10.171777 -0.7 -2.1 5000005.15331
10.181061 -1.4333333333333333 -2.1 5000005.43183
10.163398666666666 1.8 -2.1333333333333333 5000004.90196
10.216099333333334 0.7666666666666667 -2.1333333333333333 5000006.48298
10.181061 -3.3666666666666667 -2.1333333333333333 5000005.43183
10.163398666666666 1.8 -2.1666666666666665 5000004.90196
10.163398666666666 1.2 -2.1666666666666665 5000004.90196
10.163398666666666 1.1666666666666667 -2.1666666666666665 5000004.90196
10.216099333333334 0.8333333333333334 -2.1666666666666665 5000006.48298
10.216099333333334 0.8 -2.1666666666666665 5000006.48298
10.163398666666666 0.3333333333333333 -2.1666666666666665 5000004.90196
10.163398666666666 1.1333333333333333 -2.2 5000004.90196
10.216099333333334 0.8666666666666667 -2.2 5000006.48298
10.163398666666666 0.5 -2.2 5000004.90196
10.163398666666666 0.4 -2.2 5000004.90196
10.163398666666666 0.3333333333333333 -2.2 5000004.90196
10.163398666666666 0.3 -2.2 5000004.90196
10.155799666666667 2.2666666666666666 -2.2333333333333334 5000004.67399
10.163398666666666 0.9666666666666667 -2.2333333333333334 5000004.90196
10.163398666666666 0.5333333333333333 -2.2333333333333334 5000004.90196
10.163398666666666 0.5 -2.2333333333333334 5000004.90196
10.163398666666666 0.4666666666666667 -2.2333333333333334 5000004.90196
10.163398666666666 0.43333333333333335 -2.2333333333333334 5000004.90196
10.155799666666667 2.3333333333333335 -2.2666666666666666 5000004.67399
10.163398666666666 2.2333333333333334 -2.2666666666666666 5000004.90196
10.155799666666667 1.7333333333333334 -2.2666666666666666 5000004.67399
10.163398666666666 1.0666666666666667 -2.2666666666666666 5000004.90196
10.163398666666666 1.0333333333333334 -2.2666666666666666 5000004.90196
10.163398666666666 1.0 -2.2666666666666666 5000004.90196
10.163398666666666 0.9666666666666667 -2.2666666666666666 5000004.90196
10.163398666666666 0.4666666666666667 -2.2666666666666666 5000004.90196
10.163398666666666 0.43333333333333335 -2.2666666666666666 5000004.90196
10.163398666666666 0.4 -2.2666666666666666 5000004.90196
10.163398666666666 0.36666666666666664 -2.2666666666666666 5000004.90196
10.155799666666667 2.3333333333333335 -2.3 5000004.67399
10.155799666666667 1.7 -2.3 5000004.67399
10.163398666666666 1.0666666666666667 -2.3 5000004.90196
10.163398666666666 1.0333333333333334 -2.3 5000004.90196
10.163398666666666 0.5 -2.3 5000004.90196
10.163398666666666 0.4 -2.3 5000004.90196
10.163398666666666 0.36666666666666664 -2.3 5000004.90196
10.163398666666666 1.1 -2.3333333333333335 5000004.90196
10.163398666666666 1.0666666666666667 -2.3333333333333335 5000004.90196
10.163398666666666 1.0333333333333334 -2.3333333333333335 5000004.90196
10.155799666666667 2.433333333333333 -2.4 5000004.67399
10.181061 2.3333333333333335 -2.4 5000005.43183
10.155799666666667 0.1 -2.4 5000004.67399
10.155799666666667 2.5 -2.433333333333333 5000004.67399
10.155799666666667 2.433333333333333 -2.433333333333333 5000004.67399
10.155799666666667 0.1 -2.433333333333333 5000004.67399
10.155799666666667 0.06666666666666667 -2.433333333333333 5000004.67399
10.155799666666667 0.03333333333333333 -2.433333333333333 5000004.67399
10.155799666666667 2.433333333333333 -2.466666666666667 5000004.67399
10.155799666666667 0.16666666666666666 -2.466666666666667 5000004.67399
10.155799666666667 0.13333333333333333 -2.466666666666667 5000004.67399
10.155799666666667 0.1 -2.466666666666667 5000004.67399
10.148876 2.1666666666666665 -2.5 5000004.46628
10.148876 2.1333333333333333 -2.5 5000004.46628
10.155799666666667 1.2333333333333334 -2.5 5000004.67399
10.155799666666667 1.2 -2.5 5000004.67399
10.148876 2.533333333333333 -2.533333333333333 5000004.46628
10.148876 2.5 -2.533333333333333 5000004.46628
10.148876 2.7333333333333334 -2.566666666666667 5000004.46628
10.148876 2.533333333333333 -2.566666666666667 5000004.46628
10.148876 1.5333333333333334 -2.566666666666667 5000004.46628
10.163398666666666 -0.7 -2.566666666666667 5000004.90196
10.171777 -0.7333333333333333 -2.566666666666667 5000005.15331
10.148876 1.5 -2.6 5000004.46628
10.148876 0.7666666666666667 -2.6 5000004.46628
10.171777 1.2666666666666666 -2.6333333333333333 5000005.15331
10.148876 0.8 -2.6333333333333333 5000004.46628
10.148876 0.7333333333333333 -2.6333333333333333 5000004.46628
10.163398666666666 -0.6333333333333333 -2.6333333333333333 5000004.90196
10.163398666666666 -0.6666666666666666 -2.6333333333333333 5000004.90196
10.163398666666666 -0.7 -2.6333333333333333 5000004.90196
10.148876 1.4333333333333333 -2.6666666666666665 5000004.46628
10.148876 1.4 -2.6666666666666665 5000004.46628
10.148876 0.16666666666666666 -2.6666666666666665 5000004.46628
10.163398666666666 -0.6666666666666666 -2.6666666666666665 5000004.90196
10.148876 1.4333333333333333 -2.7 5000004.46628
10.148876 1.4 -2.7 5000004.46628
10.148876 1.3666666666666667 -2.7 5000004.46628
10.148876 1.1666666666666667 -2.7 5000004.46628
10.148876 1.1333333333333333 -2.7 5000004.46628
10.148876 1.1 -2.7 5000004.46628
10.148876 0.1 -2.7 5000004.46628
10.148876 1.4 -2.7333333333333334 5000004.46628
10.148876 1.3666666666666667 -2.7333333333333334 5000004.46628
10.148876 1.1666666666666667 -2.7333333333333334 5000004.46628
10.148876 1.1333333333333333 -2.7333333333333334 5000004.46628
10.148876 1.1 -2.7333333333333334 5000004.46628
10.148876 1.0666666666666667 -2.7333333333333334 5000004.46628
10.148876 0.16666666666666666 -2.7333333333333334 5000004.46628
10.148876 0.13333333333333333 -2.7333333333333334 5000004.46628
10.148876 0.1 -2.7333333333333334 5000004.46628
10.155799666666667 -0.06666666666666667 -2.7333333333333334 5000004.67399
10.148876 1.1333333333333333 -2.7666666666666666 5000004.46628
10.148876 1.1 -2.7666666666666666 5000004.46628
10.148876 1.0666666666666667 -2.7666666666666666 5000004.46628
10.148876 1.1666666666666667 -2.8 5000004.46628
10.163398666666666 -5.133333333333334 -2.8 5000004.90196
10.136724 2.9 -2.8333333333333335 5000004.10172
10.142541666666666 2.8666666666666667 -2.8333333333333335 5000004.27625
10.163398666666666 -5.8 -2.8333333333333335 5000004.90196
10.136724 2.9 -2.8666666666666667 5000004.10172
10.148876 1.4666666666666666 -2.8666666666666667 5000004.46628
10.148876 0.6666666666666666 -2.8666666666666667 5000004.46628
10.155799666666667 -5.833333333333333 -2.8666666666666667 5000004.67399
10.155799666666667 -5.866666666666666 -2.8666666666666667 5000004.67399
10.136724 3.0 -2.9 5000004.10172
10.136724 2.966666666666667 -2.9 5000004.10172
10.136724 2.933333333333333 -2.9 5000004.10172
10.136724 2.9 -2.9 5000004.10172
10.136724 2.8666666666666667 -2.9 5000004.10172
10.142541666666666 1.4 -2.9 5000004.27625
10.142541666666666 1.3666666666666667 -2.9 5000004.27625
10.148876 0.7666666666666667 -2.9 5000004.46628
10.148876 0.7333333333333333 -2.9 5000004.46628
10.155799666666667 -5.733333333333333 -2.9 5000004.67399
10.148876 0.7333333333333333 -2.933333333333333 5000004.46628
10.155799666666667 -5.733333333333333 -2.933333333333333 5000004.67399
10.155799666666667 -5.766666666666667 -2.933333333333333 5000004.67399
10.155799666666667 -5.8 -2.933333333333333 5000004.67399
10.155799666666667 -5.833333333333333 -2.933333333333333 5000004.67399
10.155799666666667 -5.866666666666666 -2.933333333333333 5000004.67399
10.136724 2.966666666666667 -2.966666666666667 5000004.10172
10.136724 2.933333333333333 -2.966666666666667 5000004.10172
10.155799666666667 -5.766666666666667 -2.966666666666667 5000004.67399
10.136724 2.6333333333333333 -3.0 5000004.10172
10.142541666666666 1.3666666666666667 -3.0 5000004.27625
10.142541666666666 1.3333333333333333 -3.0 5000004.27625
10.142541666666666 1.4 -3.033333333333333 5000004.27625
10.142541666666666 1.3666666666666667 -3.033333333333333 5000004.27625
10.136724 2.6666666666666665 -3.066666666666667 5000004.10172
10.136724 2.6333333333333333 -3.066666666666667 5000004.10172
10.191406 0.16666666666666666 -3.066666666666667 5000005.74218
10.148876 -0.2 -3.066666666666667 5000004.46628
10.142541666666666 3.033333333333333 -3.1 5000004.27625
10.148876 -0.2 -3.1 5000004.46628
10.148876 -0.23333333333333334 -3.1 5000004.46628
10.155799666666667 -7.433333333333334 -3.1 5000004.67399
10.136724 3.066666666666667 -3.1333333333333333 5000004.10172
10.136724 3.033333333333333 -3.1333333333333333 5000004.10172
10.148876 -0.16666666666666666 -3.1333333333333333 5000004.46628
10.148876 -0.2 -3.1333333333333333 5000004.46628
10.148876 -0.23333333333333334 -3.1333333333333333 5000004.46628
10.148876 -0.26666666666666666 -3.1333333333333333 5000004.46628
10.148876 -0.4 -3.1333333333333333 5000004.46628
10.148876 -0.43333333333333335 -3.1333333333333333 5000004.46628
10.155799666666667 -7.5 -3.1333333333333333 5000004.67399
10.136724 3.066666666666667 -3.1666666666666665 5000004.10172
10.136724 3.033333333333333 -3.1666666666666665 5000004.10172
10.148876 -0.2 -3.1666666666666665 5000004.46628
10.148876 -0.23333333333333334 -3.1666666666666665 5000004.46628
10.148876 -0.26666666666666666 -3.1666666666666665 5000004.46628
10.148876 -3.533333333333333 -3.1666666666666665 5000004.46628
10.136724 3.1333333333333333 -3.2 5000004.10172
10.136724 3.1 -3.2 5000004.10172
10.136724 3.066666666666667 -3.2 5000004.10172
10.191406 0.23333333333333334 -3.2 5000005.74218
10.148876 -0.16666666666666666 -3.2 5000004.46628
10.148876 -7.466666666666667 -3.2333333333333334 5000004.46628
10.148876 -7.8 -3.2333333333333334 5000004.46628
10.148876 -7.833333333333333 -3.2333333333333334 5000004.46628
10.148876 -7.866666666666666 -3.2333333333333334 5000004.46628
10.136724 3.1666666666666665 -3.2666666666666666 5000004.10172
10.136724 3.1333333333333333 -3.2666666666666666 5000004.10172
10.142541666666666 2.8 -3.2666666666666666 5000004.27625
10.148876 0.4666666666666667 -3.2666666666666666 5000004.46628
10.148876 -7.466666666666667 -3.2666666666666666 5000004.46628
10.148876 -7.5 -3.2666666666666666 5000004.46628
10.148876 -7.533333333333333 -3.2666666666666666 5000004.46628
10.148876 2.6666666666666665 -3.3 5000004.46628
10.171777 0.7333333333333333 -3.3 5000005.15331
10.142541666666666 0.4666666666666667 -3.3 5000004.27625
10.148876 -0.2 -3.3 5000004.46628
10.142541666666666 2.7333333333333334 -3.3333333333333335 5000004.27625
10.171777 0.8 -3.3333333333333335 5000005.15331
10.148876 0.5333333333333333 -3.3333333333333335 5000004.46628
10.142541666666666 0.5 -3.3333333333333335 5000004.27625
10.142541666666666 0.4666666666666667 -3.3333333333333335 5000004.27625
10.142541666666666 0.43333333333333335 -3.3333333333333335 5000004.27625
10.142541666666666 0.36666666666666664 -3.3333333333333335 5000004.27625
10.131363 2.8333333333333335 -3.3666666666666667 5000003.94089
10.131363 2.8 -3.3666666666666667 5000003.94089
10.131363 2.566666666666667 -3.3666666666666667 5000003.94089
10.148876 0.5666666666666667 -3.3666666666666667 5000004.46628
10.142541666666666 0.4666666666666667 -3.3666666666666667 5000004.27625
10.142541666666666 0.43333333333333335 -3.3666666666666667 5000004.27625
10.142541666666666 0.4 -3.3666666666666667 5000004.27625
10.142541666666666 0.36666666666666664 -3.3666666666666667 5000004.27625
10.142541666666666 -0.43333333333333335 -3.3666666666666667 5000004.27625
10.131363 3.0 -3.4 5000003.94089
10.131363 2.9 -3.4 5000003.94089
10.131363 2.566666666666667 -3.4 5000003.94089
10.136724 1.4 -3.4 5000004.10172
10.142541666666666 0.03333333333333333 -3.4 5000004.27625
10.142541666666666 -0.06666666666666667 -3.4 5000004.27625
10.142541666666666 -0.1 -3.4 5000004.27625
10.131363 3.0 -3.433333333333333 5000003.94089
10.131363 2.966666666666667 -3.433333333333333 5000003.94089
10.131363 2.6333333333333333 -3.433333333333333 5000003.94089
10.131363 2.6 -3.433333333333333 5000003.94089
10.136724 1.3666666666666667 -3.433333333333333 5000004.10172
10.136724 1.0 -3.433333333333333 5000004.10172
10.155799666666667 0.6333333333333333 -3.433333333333333 5000004.67399
10.142541666666666 0.03333333333333333 -3.433333333333333 5000004.27625
10.142541666666666 0.0 -3.433333333333333 5000004.27625
10.142541666666666 -0.03333333333333333 -3.433333333333333 5000004.27625
10.142541666666666 -0.06666666666666667 -3.433333333333333 5000004.27625
10.142541666666666 -0.1 -3.433333333333333 5000004.27625
10.142541666666666 -0.13333333333333333 -3.433333333333333 5000004.27625
10.142541666666666 -0.16666666666666666 -3.433333333333333 5000004.27625
10.142541666666666 -0.2 -3.433333333333333 5000004.27625
10.142541666666666 -0.43333333333333335 -3.433333333333333 5000004.27625
10.142541666666666 -0.4666666666666667 -3.433333333333333 5000004.27625
10.136724 1.0 -3.466666666666667 5000004.10172
10.136724 0.9666666666666667 -3.466666666666667 5000004.10172
10.155799666666667 0.8666666666666667 -3.466666666666667 5000004.67399
10.155799666666667 0.6 -3.466666666666667 5000004.67399
10.155799666666667 0.5666666666666667 -3.466666666666667 5000004.67399
10.142541666666666 -0.03333333333333333 -3.466666666666667 5000004.27625
10.131363 -0.36666666666666664 -3.466666666666667 5000003.94089
10.142541666666666 -0.4 -3.466666666666667 5000004.27625
10.142541666666666 -7.766666666666667 -3.466666666666667 5000004.27625
10.136724 1.0666666666666667 -3.5 5000004.10172
10.136724 0.9666666666666667 -3.5 5000004.10172
10.136724 0.7333333333333333 -3.5 5000004.10172
10.148876 0.16666666666666666 -3.5 5000004.46628
10.142541666666666 0.06666666666666667 -3.5 5000004.27625
10.131363 -0.3 -3.5 5000003.94089
10.136724 1.0666666666666667 -3.533333333333333 5000004.10172
10.136724 0.9666666666666667 -3.533333333333333 5000004.10172
10.136724 0.7333333333333333 -3.533333333333333 5000004.10172
10.136724 0.7 -3.533333333333333 5000004.10172
10.126406333333334 -0.26666666666666666 -3.533333333333333 5000003.79219
10.142541666666666 0.7666666666666667 -3.566666666666667 5000004.27625
10.136724 0.7333333333333333 -3.566666666666667 5000004.10172
10.136724 0.7 -3.566666666666667 5000004.10172
10.142541666666666 0.6666666666666666 -3.566666666666667 5000004.27625
10.148876 0.6 -3.566666666666667 5000004.46628
10.136724 0.4666666666666667 -3.566666666666667 5000004.10172
10.148876 0.16666666666666666 -3.566666666666667 5000004.46628
10.126406333333334 -0.23333333333333334 -3.566666666666667 5000003.79219
10.131363 1.9 -3.6 5000003.94089
10.136724 0.6 -3.6 5000004.10172
10.136724 0.4666666666666667 -3.6 5000004.10172
10.142541666666666 -2.8 -3.6 5000004.27625
10.131363 1.9 -3.6333333333333333 5000003.94089
10.131363 1.8666666666666667 -3.6333333333333333 5000003.94089
10.136724 0.5333333333333333 -3.6333333333333333 5000004.10172
10.136724 0.5 -3.6333333333333333 5000004.10172
10.136724 0.4666666666666667 -3.6333333333333333 5000004.10172
10.136724 0.3 -3.6333333333333333 5000004.10172
10.142541666666666 -2.8 -3.6333333333333333 5000004.27625
10.131363 1.8333333333333333 -3.6666666666666665 5000003.94089
10.136724 0.7333333333333333 -3.6666666666666665 5000004.10172
10.136724 0.7 -3.6666666666666665 5000004.10172
10.136724 0.6666666666666666 -3.6666666666666665 5000004.10172
10.136724 0.3 -3.6666666666666665 5000004.10172
10.136724 0.26666666666666666 -3.6666666666666665 5000004.10172
10.136724 0.23333333333333334 -3.6666666666666665 5000004.10172
10.136724 0.2 -3.6666666666666665 5000004.10172
10.136724 0.16666666666666666 -3.6666666666666665 5000004.10172
10.131363 1.8 -3.7 5000003.94089
10.126406333333334 2.7333333333333334 -3.7333333333333334 5000003.79219
10.131363 1.7 -3.7333333333333334 5000003.94089
10.126406333333334 2.7333333333333334 -3.7666666666666666 5000003.79219
10.126406333333334 2.7 -3.7666666666666666 5000003.79219
10.136724 0.9333333333333333 -3.7666666666666666 5000004.10172
10.136724 0.9333333333333333 -3.8 5000004.10172
10.136724 0.9 -3.8 5000004.10172
10.136724 -2.7 -3.8 5000004.10172
10.126406333333334 3.066666666666667 -3.8333333333333335 5000003.79219
10.142541666666666 0.8 -3.8333333333333335 5000004.27625
10.136724 0.7 -3.8333333333333335 5000004.10172
10.136724 0.6666666666666666 -3.8333333333333335 5000004.10172
10.136724 -2.7333333333333334 -3.8333333333333335 5000004.10172
10.136724 -10.0 -3.8333333333333335 5000004.10172
10.142541666666666 0.8333333333333334 -3.8666666666666667 5000004.27625
10.142541666666666 0.8 -3.8666666666666667 5000004.27625
10.136724 0.7333333333333333 -3.8666666666666667 5000004.10172
10.136724 0.6666666666666666 -3.8666666666666667 5000004.10172
10.126406333333334 3.2333333333333334 -3.9 5000003.79219
10.126406333333334 3.2 -3.9 5000003.79219
10.142541666666666 0.8333333333333334 -3.9 5000004.27625
10.136724 0.7333333333333333 -3.9 5000004.10172
10.136724 0.7 -3.9 5000004.10172
10.136724 0.6666666666666666 -3.9 5000004.10172
10.136724 -7.633333333333334 -3.9 5000004.10172
10.126406333333334 3.2333333333333334 -3.933333333333333 5000003.79219
10.131363 1.0 -3.933333333333333 5000003.94089
10.131363 0.9666666666666667 -3.933333333333333 5000003.94089
10.136724 -7.666666666666667 -3.933333333333333 5000004.10172
10.12181 3.2333333333333334 -3.966666666666667 5000003.6543
10.126406333333334 3.2 -3.966666666666667 5000003.79219
10.131363 2.466666666666667 -3.966666666666667 5000003.94089
10.131363 1.0666666666666667 -3.966666666666667 5000003.94089
10.131363 1.0333333333333334 -3.966666666666667 5000003.94089
10.131363 1.0 -3.966666666666667 5000003.94089
10.131363 0.9666666666666667 -3.966666666666667 5000003.94089
10.131363 0.9333333333333333 -3.966666666666667 5000003.94089
10.131363 0.9 -3.966666666666667 5000003.94089
10.131363 0.8333333333333334 -3.966666666666667 5000003.94089
10.142541666666666 -1.1333333333333333 -3.966666666666667 5000004.27625
10.136724 -1.2333333333333334 -3.966666666666667 5000004.10172
10.136724 -1.2666666666666666 -3.966666666666667 5000004.10172
10.12181 3.2 -4.0 5000003.6543
10.131363 2.466666666666667 -4.0 5000003.94089
10.12181 3.2333333333333334 -4.033333333333333 5000003.6543
10.131363 1.1666666666666667 -4.033333333333333 5000003.94089
10.131363 -5.433333333333334 -4.033333333333333 5000003.94089
10.12181 2.566666666666667 -4.066666666666666 5000003.6543
10.12181 2.533333333333333 -4.066666666666666 5000003.6543
10.12181 2.533333333333333 -4.1 5000003.6543
10.12181 2.5 -4.1 5000003.6543
10.12181 2.4 -4.1 5000003.6543
10.12181 2.5 -4.133333333333334 5000003.6543
10.12181 2.466666666666667 -4.133333333333334 5000003.6543
10.131363 -3.433333333333333 -4.133333333333334 5000003.94089
10.131363 -3.466666666666667 -4.133333333333334 5000003.94089
10.131363 -13.266666666666667 -4.133333333333334 5000003.94089
10.12181 2.533333333333333 -4.166666666666667 5000003.6543
10.131363 -1.2 -4.166666666666667 5000003.94089
10.131363 -7.7 -4.2 5000003.94089
10.131363 -7.733333333333333 -4.2 5000003.94089
10.131363 -7.766666666666667 -4.2 5000003.94089
10.131363 -7.8 -4.2 5000003.94089
10.131363 -7.833333333333333 -4.2 5000003.94089
10.126406333333334 -7.866666666666666 -4.2 5000003.79219
10.126406333333334 -11.4 -4.2 5000003.79219
10.131363 -13.433333333333334 -4.2 5000003.94089
10.131363 -13.466666666666667 -4.2 5000003.94089
10.131363 -13.5 -4.2 5000003.94089
10.131363 -13.533333333333333 -4.2 5000003.94089
10.126406333333334 -13.6 -4.2 5000003.79219
10.131363 -7.8 -4.233333333333333 5000003.94089
10.131363 -7.833333333333333 -4.233333333333333 5000003.94089
10.126406333333334 -7.866666666666666 -4.233333333333333 5000003.79219
10.126406333333334 -7.9 -4.233333333333333 5000003.79219
10.126406333333334 -10.266666666666667 -4.233333333333333 5000003.79219
10.131363 -13.566666666666666 -4.233333333333333 5000003.94089
10.12181 2.9 -4.266666666666667 5000003.6543
10.126406333333334 -11.3 -4.266666666666667 5000003.79219
10.126406333333334 -17.766666666666666 -4.266666666666667 5000003.79219
10.12181 2.966666666666667 -4.3 5000003.6543
10.117536333333334 2.8 -4.3 5000003.52609
10.126406333333334 -2.7 -4.3 5000003.79219
10.126406333333334 -11.333333333333334 -4.3 5000003.79219
10.126406333333334 -11.366666666666667 -4.3 5000003.79219
10.126406333333334 -11.4 -4.3 5000003.79219
10.126406333333334 -11.433333333333334 -4.3 5000003.79219
10.12181 2.9 -4.333333333333333 5000003.6543
10.126406333333334 -0.9666666666666667 -4.333333333333333 5000003.79219
10.126406333333334 -2.7 -4.333333333333333 5000003.79219
10.126406333333334 -2.7333333333333334 -4.333333333333333 5000003.79219
10.126406333333334 -2.7666666666666666 -4.333333333333333 5000003.79219
10.126406333333334 -2.8 -4.333333333333333 5000003.79219
10.126406333333334 -4.3 -4.333333333333333 5000003.79219
10.126406333333334 -10.266666666666667 -4.333333333333333 5000003.79219
10.126406333333334 -10.3 -4.333333333333333 5000003.79219
10.126406333333334 -10.333333333333334 -4.333333333333333 5000003.79219
10.126406333333334 -14.5 -4.333333333333333 5000003.79219
10.126406333333334 -16.266666666666666 -4.333333333333333 5000003.79219
10.126406333333334 -17.533333333333335 -4.333333333333333 5000003.79219
10.117536333333334 3.033333333333333 -4.366666666666666 5000003.52609
10.12181 2.9 -4.366666666666666 5000003.6543
10.126406333333334 -1.0333333333333334 -4.366666666666666 5000003.79219
10.126406333333334 -1.0666666666666667 -4.366666666666666 5000003.79219
10.126406333333334 -1.1 -4.366666666666666 5000003.79219
10.126406333333334 -1.3333333333333333 -4.366666666666666 5000003.79219
10.126406333333334 -1.3666666666666667 -4.366666666666666 5000003.79219
10.126406333333334 -2.7 -4.366666666666666 5000003.79219
10.126406333333334 -2.7666666666666666 -4.366666666666666 5000003.79219
10.126406333333334 -12.8 -4.366666666666666 5000003.79219
10.126406333333334 -13.6 -4.366666666666666 5000003.79219
10.126406333333334 -13.633333333333333 -4.366666666666666 5000003.79219
10.126406333333334 -13.666666666666666 -4.366666666666666 5000003.79219
10.126406333333334 -13.7 -4.366666666666666 5000003.79219
10.131363 -15.066666666666666 -4.366666666666666 5000003.94089
10.126406333333334 -16.233333333333334 -4.366666666666666 5000003.79219
10.12181 -16.733333333333334 -4.366666666666666 5000003.6543
10.117536333333334 2.9 -4.4 5000003.52609
10.126406333333334 -1.1333333333333333 -4.4 5000003.79219
10.126406333333334 -1.1666666666666667 -4.4 5000003.79219
10.126406333333334 -7.9 -4.4 5000003.79219
10.126406333333334 -7.933333333333334 -4.4 5000003.79219
10.126406333333334 -9.8 -4.4 5000003.79219
10.126406333333334 -15.166666666666666 -4.4 5000003.79219
10.117536333333334 3.0 -4.433333333333334 5000003.52609
10.126406333333334 -1.2 -4.433333333333334 5000003.79219
10.126406333333334 -1.6 -4.433333333333334 5000003.79219
10.126406333333334 -7.266666666666667 -4.433333333333334 5000003.79219
10.126406333333334 -7.3 -4.433333333333334 5000003.79219
10.126406333333334 -7.533333333333333 -4.433333333333334 5000003.79219
10.126406333333334 -7.733333333333333 -4.433333333333334 5000003.79219
10.126406333333334 -7.766666666666667 -4.433333333333334 5000003.79219
10.126406333333334 -7.933333333333334 -4.433333333333334 5000003.79219
10.126406333333334 -10.333333333333334 -4.433333333333334 5000003.79219
10.12181 -15.333333333333334 -4.433333333333334 5000003.6543
10.126406333333334 -1.2333333333333334 -4.466666666666667 5000003.79219
10.126406333333334 -1.2666666666666666 -4.466666666666667 5000003.79219
10.126406333333334 -1.6666666666666667 -4.466666666666667 5000003.79219
10.126406333333334 -1.7333333333333334 -4.466666666666667 5000003.79219
10.126406333333334 -7.866666666666666 -4.466666666666667 5000003.79219
10.126406333333334 -13.433333333333334 -4.466666666666667 5000003.79219
10.126406333333334 -13.466666666666667 -4.466666666666667 5000003.79219
10.126406333333334 -13.5 -4.466666666666667 5000003.79219
10.126406333333334 -14.533333333333333 -4.466666666666667 5000003.79219
10.126406333333334 -16.233333333333334 -4.466666666666667 5000003.79219
10.126406333333334 -1.6 -4.5 5000003.79219
10.126406333333334 -1.6333333333333333 -4.5 5000003.79219
10.126406333333334 -6.233333333333333 -4.5 5000003.79219
10.126406333333334 -1.6666666666666667 -4.533333333333333 5000003.79219
10.126406333333334 -8.366666666666667 -4.566666666666666 5000003.79219
10.126406333333334 -8.4 -4.566666666666666 5000003.79219
10.117536333333334 2.8333333333333335 -4.6 5000003.52609
10.12181 -8.433333333333334 -4.6 5000003.6543
10.12181 -8.466666666666667 -4.6 5000003.6543
10.12181 -8.5 -4.6 5000003.6543
10.126406333333334 0.7 -4.633333333333334 5000003.79219
10.126406333333334 0.6666666666666666 -4.633333333333334 5000003.79219
10.126406333333334 0.6 -4.633333333333334 5000003.79219
10.126406333333334 -2.1333333333333333 -4.633333333333334 5000003.79219
10.12181 -4.133333333333334 -4.633333333333334 5000003.6543
10.12181 -4.166666666666667 -4.633333333333334 5000003.6543
10.12181 -9.433333333333334 -4.633333333333334 5000003.6543
10.12181 -9.466666666666667 -4.633333333333334 5000003.6543
10.12181 -9.5 -4.633333333333334 5000003.6543
10.12181 1.8666666666666667 -4.666666666666667 5000003.6543
10.12181 1.8 -4.666666666666667 5000003.6543
10.12181 1.7666666666666666 -4.666666666666667 5000003.6543
10.126406333333334 0.7 -4.666666666666667 5000003.79219
10.126406333333334 0.6666666666666666 -4.666666666666667 5000003.79219
10.12181 0.5666666666666667 -4.666666666666667 5000003.6543
10.12181 0.5333333333333333 -4.666666666666667 5000003.6543
10.12181 -0.8666666666666667 -4.666666666666667 5000003.6543
10.126406333333334 -2.1333333333333333 -4.666666666666667 5000003.79219
10.126406333333334 -2.1666666666666665 -4.666666666666667 5000003.79219
10.126406333333334 -2.2333333333333334 -4.666666666666667 5000003.79219
10.12181 -5.833333333333333 -4.666666666666667 5000003.6543
10.12181 1.8333333333333333 -4.7 5000003.6543
10.12181 0.7666666666666667 -4.7 5000003.6543
10.126406333333334 0.7333333333333333 -4.7 5000003.79219
10.12181 0.6 -4.7 5000003.6543
10.117536333333334 0.5 -4.7 5000003.52609
10.12181 -0.43333333333333335 -4.7 5000003.6543
10.12181 -0.4666666666666667 -4.7 5000003.6543
10.12181 -0.5 -4.7 5000003.6543
10.12181 -0.5333333333333333 -4.7 5000003.6543
10.126406333333334 -2.1 -4.7 5000003.79219
10.12181 -3.2 -4.7 5000003.6543
10.12181 -3.7666666666666666 -4.7 5000003.6543
10.12181 -5.5 -4.7 5000003.6543
10.12181 -5.833333333333333 -4.7 5000003.6543
10.12181 -5.866666666666666 -4.7 5000003.6543
10.12181 -5.9 -4.7 5000003.6543
10.12181 -5.933333333333334 -4.7 5000003.6543
10.12181 -7.5 -4.7 5000003.6543
10.12181 -7.933333333333334 -4.7 5000003.6543
10.12181 -8.466666666666667 -4.7 5000003.6543
10.113552333333333 2.7 -4.733333333333333 5000003.40657
10.12181 1.8666666666666667 -4.733333333333333 5000003.6543
10.12181 1.8333333333333333 -4.733333333333333 5000003.6543
10.12181 1.8 -4.733333333333333 5000003.6543
10.12181 1.7666666666666666 -4.733333333333333 5000003.6543
10.12181 0.7 -4.733333333333333 5000003.6543
10.12181 0.5666666666666667 -4.733333333333333 5000003.6543
10.117536333333334 0.4666666666666667 -4.733333333333333 5000003.52609
10.12181 -0.5666666666666667 -4.733333333333333 5000003.6543
10.12181 -5.533333333333333 -4.733333333333333 5000003.6543
10.12181 -7.933333333333334 -4.733333333333333 5000003.6543
10.12181 -9.433333333333334 -4.733333333333333 5000003.6543
10.12181 -9.466666666666667 -4.733333333333333 5000003.6543
10.12181 -16.666666666666668 -4.733333333333333 5000003.6543
10.126406333333334 2.0 -4.766666666666667 5000003.79219
10.131363 1.9666666666666666 -4.766666666666667 5000003.94089
10.12181 0.6666666666666666 -4.766666666666667 5000003.6543
10.117536333333334 0.5333333333333333 -4.766666666666667 5000003.52609
10.12181 -0.6 -4.766666666666667 5000003.6543
10.12181 -0.6333333333333333 -4.766666666666667 5000003.6543
10.12181 -1.3666666666666667 -4.766666666666667 5000003.6543
10.12181 -2.3 -4.766666666666667 5000003.6543
10.12181 -2.3333333333333335 -4.766666666666667 5000003.6543
10.12181 -2.6 -4.766666666666667 5000003.6543
10.12181 -5.566666666666666 -4.766666666666667 5000003.6543
10.117536333333334 -5.666666666666667 -4.766666666666667 5000003.52609
10.12181 -10.8 -4.766666666666667 5000003.6543
10.126406333333334 2.066666666666667 -4.8 5000003.79219
10.126406333333334 2.033333333333333 -4.8 5000003.79219
10.117536333333334 0.7333333333333333 -4.8 5000003.52609
10.12181 -2.3333333333333335 -4.8 5000003.6543
10.113552333333333 -5.766666666666667 -4.8 5000003.40657
10.12181 -10.166666666666666 -4.8 5000003.6543
10.126406333333334 2.066666666666667 -4.833333333333333 5000003.79219
10.126406333333334 2.0 -4.833333333333333 5000003.79219
10.117536333333334 0.7333333333333333 -4.833333333333333 5000003.52609
10.117536333333334 0.7 -4.833333333333333 5000003.52609
10.117536333333334 0.6666666666666666 -4.833333333333333 5000003.52609
10.117536333333334 0.6333333333333333 -4.833333333333333 5000003.52609
10.12181 -2.4 -4.833333333333333 5000003.6543
10.117536333333334 -2.433333333333333 -4.833333333333333 5000003.52609
10.131363 -4.3 -4.833333333333333 5000003.94089
10.117536333333334 -4.466666666666667 -4.833333333333333 5000003.52609
10.117536333333334 -6.2 -4.833333333333333 5000003.52609
10.117536333333334 -10.233333333333333 -4.833333333333333 5000003.52609
10.117536333333334 -10.266666666666667 -4.833333333333333 5000003.52609
10.12181 2.1333333333333333 -4.866666666666666 5000003.6543
10.117536333333334 0.7 -4.866666666666666 5000003.52609
10.117536333333334 0.6666666666666666 -4.866666666666666 5000003.52609
10.117536333333334 0.6333333333333333 -4.866666666666666 5000003.52609
10.117536333333334 0.6 -4.866666666666666 5000003.52609
10.117536333333334 0.5666666666666667 -4.866666666666666 5000003.52609
10.117536333333334 -2.8 -4.866666666666666 5000003.52609
10.131363 -4.266666666666667 -4.866666666666666 5000003.94089
10.131363 -4.3 -4.866666666666666 5000003.94089
10.117536333333334 -4.5 -4.866666666666666 5000003.52609
10.117536333333334 -4.566666666666666 -4.866666666666666 5000003.52609
10.117536333333334 -5.066666666666666 -4.866666666666666 5000003.52609
10.117536333333334 -5.1 -4.866666666666666 5000003.52609
10.117536333333334 -7.466666666666667 -4.866666666666666 5000003.52609
10.117536333333334 -7.5 -4.866666666666666 5000003.52609
10.117536333333334 -7.866666666666666 -4.866666666666666 5000003.52609
