VERSION .7
FIELDS x y z rgb
SIZE 4 4 4 4
TYPE F F F F
COUNT 1 1 1 1
WIDTH 1640
HEIGHT 1
VIEWPOINT 0 0 0 1 0 0 0
POINTS 1640
DATA ascii
28.29636 -0.78 2.48 40.1606
17.592840000000002 -1.14 2.48 22.3214
28.29636 -1.92 2.48 40.1606
21.41664 -2.86 2.48 28.6944
44.33376 -3.0 2.48 66.8896
28.29636 5.82 2.46 40.1606
28.29636 5.8 2.46 40.1606
44.33376 5.56 2.46 66.8896
44.33376 5.54 2.46 66.8896
44.33376 5.42 2.46 66.8896
17.592840000000002 5.12 2.46 22.3214
21.41664 5.08 2.46 28.6944
28.29636 4.68 2.46 40.1606
17.592840000000002 4.6 2.46 22.3214
28.29636 4.28 2.46 40.1606
28.29636 4.22 2.46 40.1606
28.29636 3.12 2.46 40.1606
28.29636 2.8 2.46 40.1606
28.29636 2.78 2.46 40.1606
17.592840000000002 -0.44 2.46 22.3214
124.19999999999999 -0.66 2.46 200.0
124.19999999999999 -0.9 2.46 200.0
17.592840000000002 -1.12 2.46 22.3214
17.592840000000002 -1.14 2.46 22.3214
28.29636 -1.9 2.46 40.1606
17.592840000000002 -1.98 2.46 22.3214
21.41664 -2.84 2.46 28.6944
44.33376 -3.0 2.46 66.8896
28.29636 5.9 2.44 40.1606
28.29636 5.82 2.44 40.1606
28.29636 5.8 2.44 40.1606
28.29636 5.78 2.44 40.1606
44.33376 5.54 2.44 66.8896
17.592840000000002 5.14 2.44 22.3214
17.592840000000002 5.12 2.44 22.3214
21.41664 5.06 2.44 28.6944
17.592840000000002 4.62 2.44 22.3214
17.592840000000002 4.6 2.44 22.3214
28.29636 4.28 2.44 40.1606
28.29636 4.22 2.44 40.1606
28.29636 2.8 2.44 40.1606
28.29636 2.76 2.44 40.1606
21.41664 1.42 2.44 28.6944
21.41664 0.4 2.44 28.6944
21.41664 0.38 2.44 28.6944
124.19999999999999 -0.66 2.44 200.0
124.19999999999999 -0.9 2.44 200.0
17.592840000000002 -1.12 2.44 22.3214
13.4736 -1.22 2.44 15.456
28.29636 -1.88 2.44 40.1606
21.41664 -1.96 2.44 28.6944
28.29636 5.9 2.42 40.1606
28.29636 5.8 2.42 40.1606
28.29636 5.78 2.42 40.1606
44.33376 5.54 2.42 66.8896
17.592840000000002 5.16 2.42 22.3214
17.592840000000002 5.14 2.42 22.3214
17.592840000000002 4.6 2.42 22.3214
28.29636 4.28 2.42 40.1606
28.29636 4.22 2.42 40.1606
28.29636 3.32 2.42 40.1606
124.19999999999999 2.88 2.42 200.0
28.29636 2.78 2.42 40.1606
28.29636 2.76 2.42 40.1606
21.41664 1.44 2.42 28.6944
21.41664 1.42 2.42 28.6944
17.592840000000002 -1.12 2.42 22.3214
13.4736 -1.22 2.42 15.456
17.592840000000002 -1.96 2.42 22.3214
28.29636 5.9 2.4 40.1606
44.33376 5.28 2.4 66.8896
17.592840000000002 5.16 2.4 22.3214
17.592840000000002 5.14 2.4 22.3214
17.592840000000002 5.12 2.4 22.3214
17.592840000000002 4.54 2.4 22.3214
28.29636 4.28 2.4 40.1606
28.29636 4.22 2.4 40.1606
28.29636 3.3 2.4 40.1606
28.29636 2.78 2.4 40.1606
44.33376 0.36 2.4 66.8896
17.592840000000002 -0.56 2.4 22.3214
124.19999999999999 -0.88 2.4 200.0
17.592840000000002 -1.1 2.4 22.3214
17.592840000000002 -1.12 2.4 22.3214
28.29636 -1.82 2.4 40.1606
28.29636 5.9 2.38 40.1606
17.592840000000002 5.16 2.38 22.3214
17.592840000000002 5.14 2.38 22.3214
17.592840000000002 5.12 2.38 22.3214
17.592840000000002 5.0 2.38 22.3214
17.592840000000002 4.62 2.38 22.3214
28.29636 4.28 2.38 40.1606
28.29636 4.22 2.38 40.1606
28.29636 3.3 2.38 40.1606
28.29636 2.72 2.38 40.1606
44.33376 0.36 2.38 66.8896
21.41664 0.28 2.38 28.6944
21.41664 -0.48 2.38 28.6944
17.592840000000002 -0.54 2.38 22.3214
11.29218 -0.8 2.38 11.8203
17.592840000000002 -1.1 2.38 22.3214
17.592840000000002 -2.76 2.38 22.3214
44.33376 -3.02 2.38 66.8896
28.29636 5.88 2.36 40.1606
17.592840000000002 5.36 2.36 22.3214
17.592840000000002 5.14 2.36 22.3214
21.41664 4.64 2.36 28.6944
21.41664 4.54 2.36 28.6944
21.41664 4.52 2.36 28.6944
28.29636 4.28 2.36 40.1606
28.29636 4.22 2.36 40.1606
28.29636 3.0 2.36 40.1606
21.41664 -0.48 2.36 28.6944
17.592840000000002 -0.54 2.36 22.3214
17.592840000000002 -1.9 2.36 22.3214
17.592840000000002 -1.92 2.36 22.3214
15.15888 -2.1 2.36 18.2648
21.41664 4.52 2.34 28.6944
28.29636 4.28 2.34 40.1606
28.29636 4.22 2.34 40.1606
28.29636 3.0 2.34 40.1606
17.592840000000002 2.9 2.34 22.3214
28.29636 2.78 2.34 40.1606
28.29636 2.76 2.34 40.1606
21.41664 0.2 2.34 28.6944
21.41664 0.1 2.34 28.6944
21.41664 -0.04 2.34 28.6944
21.41664 -0.48 2.34 28.6944
17.592840000000002 -0.54 2.34 22.3214
17.592840000000002 -1.92 2.34 22.3214
28.29636 -6.72 2.34 40.1606
17.592840000000002 5.62 2.32 22.3214
21.41664 4.54 2.32 28.6944
21.41664 4.52 2.32 28.6944
28.29636 4.28 2.32 40.1606
28.29636 4.22 2.32 40.1606
28.29636 2.82 2.32 40.1606
28.29636 2.78 2.32 40.1606
28.29636 2.76 2.32 40.1606
21.41664 -0.04 2.32 28.6944
28.29636 -0.4 2.32 40.1606
17.592840000000002 -0.52 2.32 22.3214
17.592840000000002 -0.54 2.32 22.3214
11.29218 -0.8 2.32 11.8203
28.29636 -1.74 2.32 40.1606
17.592840000000002 -1.88 2.32 22.3214
28.29636 -2.7 2.32 40.1606
44.33376 -3.06 2.32 66.8896
44.33376 4.7 2.3 66.8896
21.41664 4.54 2.3 28.6944
28.29636 4.28 2.3 40.1606
28.29636 4.22 2.3 40.1606
28.29636 3.28 2.3 40.1606
28.29636 3.16 2.3 40.1606
28.29636 2.82 2.3 40.1606
28.29636 2.8 2.3 40.1606
21.41664 0.58 2.3 28.6944
28.29636 -0.4 2.3 40.1606
17.592840000000002 -0.54 2.3 22.3214
17.592840000000002 -1.12 2.3 22.3214
17.592840000000002 -1.8 2.3 22.3214
28.29636 -1.88 2.3 40.1606
124.19999999999999 -2.46 2.3 200.0
44.33376 5.94 2.28 66.8896
44.33376 5.92 2.28 66.8896
44.33376 5.88 2.28 66.8896
44.33376 5.12 2.28 66.8896
17.592840000000002 4.96 2.28 22.3214
17.592840000000002 4.94 2.28 22.3214
21.41664 4.58 2.28 28.6944
28.29636 4.22 2.28 40.1606
28.29636 3.28 2.28 40.1606
28.29636 3.26 2.28 40.1606
28.29636 3.18 2.28 40.1606
28.29636 3.08 2.28 40.1606
28.29636 2.98 2.28 40.1606
28.29636 2.82 2.28 40.1606
28.29636 2.8 2.28 40.1606
28.29636 -0.4 2.28 40.1606
17.592840000000002 -1.1 2.28 22.3214
17.592840000000002 -1.12 2.28 22.3214
17.592840000000002 -1.78 2.28 22.3214
17.592840000000002 -1.8 2.28 22.3214
44.33376 5.94 2.26 66.8896
44.33376 5.92 2.26 66.8896
17.592840000000002 4.96 2.26 22.3214
17.592840000000002 4.94 2.26 22.3214
28.29636 4.22 2.26 40.1606
28.29636 3.26 2.26 40.1606
28.29636 3.12 2.26 40.1606
28.29636 2.82 2.26 40.1606
28.29636 2.8 2.26 40.1606
17.592840000000002 -0.56 2.26 22.3214
17.592840000000002 -1.1 2.26 22.3214
28.29636 -1.66 2.26 40.1606
17.592840000000002 -1.76 2.26 22.3214
15.15888 -2.06 2.26 18.2648
21.41664 -2.58 2.26 28.6944
13.4736 -5.06 2.26 15.456
17.592840000000002 5.0 2.24 22.3214
17.592840000000002 4.98 2.24 22.3214
28.29636 4.22 2.24 40.1606
28.29636 3.26 2.24 40.1606
28.29636 2.82 2.24 40.1606
17.592840000000002 -0.56 2.24 22.3214
15.15888 -1.2 2.24 18.2648
17.592840000000002 -1.28 2.24 22.3214
9.442464 -1.58 2.24 8.73744
28.29636 -1.64 2.24 40.1606
17.592840000000002 -1.78 2.24 22.3214
15.15888 -2.06 2.24 18.2648
21.41664 -2.56 2.24 28.6944
12.23748 -5.4 2.24 13.3958
17.592840000000002 5.0 2.22 22.3214
17.592840000000002 4.98 2.22 22.3214
124.19999999999999 4.78 2.22 200.0
17.592840000000002 4.56 2.22 22.3214
28.29636 4.22 2.22 40.1606
28.29636 3.26 2.22 40.1606
28.29636 3.0 2.22 40.1606
28.29636 2.84 2.22 40.1606
28.29636 2.82 2.22 40.1606
17.592840000000002 -1.1 2.22 22.3214
15.15888 -1.18 2.22 18.2648
44.33376 -1.76 2.22 66.8896
44.33376 5.86 2.2 66.8896
44.33376 5.46 2.2 66.8896
44.33376 4.7 2.2 66.8896
44.33376 4.68 2.2 66.8896
17.592840000000002 4.56 2.2 22.3214
28.29636 4.24 2.2 40.1606
28.29636 4.22 2.2 40.1606
28.29636 3.0 2.2 40.1606
28.29636 2.86 2.2 40.1606
28.29636 2.84 2.2 40.1606
21.41664 -0.12 2.2 28.6944
17.592840000000002 -0.58 2.2 22.3214
17.592840000000002 -0.6 2.2 22.3214
44.33376 -1.12 2.2 66.8896
15.15888 -1.18 2.2 18.2648
17.592840000000002 -1.7 2.2 22.3214
21.41664 -2.5 2.2 28.6944
21.41664 -2.52 2.2 28.6944
44.33376 5.84 2.18 66.8896
21.41664 5.64 2.18 28.6944
28.29636 4.24 2.18 40.1606
28.29636 4.22 2.18 40.1606
28.29636 2.88 2.18 40.1606
28.29636 2.86 2.18 40.1606
21.41664 -0.12 2.18 28.6944
44.33376 -0.42 2.18 66.8896
17.592840000000002 -0.6 2.18 22.3214
15.15888 -1.18 2.18 18.2648
17.592840000000002 -1.68 2.18 22.3214
21.41664 -2.5 2.18 28.6944
28.29636 4.24 2.16 40.1606
28.29636 4.22 2.16 40.1606
28.29636 3.28 2.16 40.1606
28.29636 2.98 2.16 40.1606
28.29636 2.94 2.16 40.1606
28.29636 2.88 2.16 40.1606
15.15888 -0.72 2.16 18.2648
17.592840000000002 -1.66 2.16 22.3214
21.41664 -2.48 2.16 28.6944
44.33376 -3.1 2.16 66.8896
17.592840000000002 5.0 2.14 22.3214
44.33376 4.42 2.14 66.8896
28.29636 4.24 2.14 40.1606
28.29636 4.22 2.14 40.1606
28.29636 2.98 2.14 40.1606
44.33376 -0.42 2.14 66.8896
15.15888 -1.14 2.14 18.2648
15.15888 -1.18 2.14 18.2648
17.592840000000002 -1.62 2.14 22.3214
17.592840000000002 -1.64 2.14 22.3214
21.41664 -2.48 2.14 28.6944
44.33376 -3.1 2.14 66.8896
28.29636 4.24 2.12 40.1606
28.29636 4.22 2.12 40.1606
28.29636 3.26 2.12 40.1606
28.29636 2.98 2.12 40.1606
28.29636 2.86 2.12 40.1606
28.29636 2.84 2.12 40.1606
44.33376 -0.24 2.12 66.8896
44.33376 -0.42 2.12 66.8896
17.592840000000002 -0.64 2.12 22.3214
15.15888 -1.16 2.12 18.2648
17.592840000000002 -1.6 2.12 22.3214
17.592840000000002 -1.62 2.12 22.3214
124.19999999999999 -1.84 2.12 200.0
21.41664 -2.46 2.12 28.6944
44.33376 -3.08 2.12 66.8896
17.592840000000002 5.18 2.1 22.3214
17.592840000000002 5.16 2.1 22.3214
17.592840000000002 4.98 2.1 22.3214
44.33376 4.58 2.1 66.8896
28.29636 4.24 2.1 40.1606
28.29636 4.22 2.1 40.1606
28.29636 3.26 2.1 40.1606
28.29636 3.0 2.1 40.1606
44.33376 2.94 2.1 66.8896
28.29636 2.88 2.1 40.1606
21.41664 -0.3 2.1 28.6944
17.592840000000002 -0.64 2.1 22.3214
15.15888 -1.16 2.1 18.2648
17.592840000000002 -1.58 2.1 22.3214
17.592840000000002 -1.6 2.1 22.3214
124.19999999999999 -1.84 2.1 200.0
44.33376 -3.08 2.1 66.8896
17.592840000000002 5.2 2.08 22.3214
17.592840000000002 5.16 2.08 22.3214
44.33376 4.56 2.08 66.8896
44.33376 4.38 2.08 66.8896
28.29636 4.24 2.08 40.1606
28.29636 4.22 2.08 40.1606
28.29636 3.0 2.08 40.1606
44.33376 2.94 2.08 66.8896
28.29636 2.88 2.08 40.1606
28.29636 2.8 2.08 40.1606
17.592840000000002 -0.66 2.08 22.3214
13.4736 -0.8 2.08 15.456
15.15888 -1.16 2.08 18.2648
17.592840000000002 -1.56 2.08 22.3214
17.592840000000002 5.14 2.06 22.3214
17.592840000000002 4.98 2.06 22.3214
17.592840000000002 4.7 2.06 22.3214
17.592840000000002 4.68 2.06 22.3214
44.33376 4.38 2.06 66.8896
28.29636 4.24 2.06 40.1606
28.29636 3.2 2.06 40.1606
28.29636 2.8 2.06 40.1606
124.19999999999999 -0.42 2.06 200.0
17.592840000000002 -1.1 2.06 22.3214
15.15888 -1.16 2.06 18.2648
28.29636 -1.44 2.06 40.1606
17.592840000000002 -1.56 2.06 22.3214
17.592840000000002 5.14 2.04 22.3214
17.592840000000002 4.7 2.04 22.3214
28.29636 4.24 2.04 40.1606
28.29636 3.2 2.04 40.1606
28.29636 2.82 2.04 40.1606
124.19999999999999 -0.42 2.04 200.0
13.4736 -1.22 2.04 15.456
28.29636 -1.42 2.04 40.1606
17.592840000000002 -1.52 2.04 22.3214
17.592840000000002 -1.54 2.04 22.3214
44.33376 -2.38 2.04 66.8896
44.33376 -3.14 2.04 66.8896
17.592840000000002 4.72 2.02 22.3214
28.29636 4.24 2.02 40.1606
28.29636 2.88 2.02 40.1606
28.29636 2.82 2.02 40.1606
124.19999999999999 -0.42 2.02 200.0
17.592840000000002 -0.7 2.02 22.3214
15.15888 -0.78 2.02 18.2648
17.592840000000002 -1.1 2.02 22.3214
13.4736 -1.22 2.02 15.456
28.29636 -1.42 2.02 40.1606
17.592840000000002 -1.52 2.02 22.3214
17.592840000000002 -1.54 2.02 22.3214
44.33376 -3.14 2.02 66.8896
17.592840000000002 4.72 2.0 22.3214
44.33376 4.44 2.0 66.8896
44.33376 4.16 2.0 66.8896
28.29636 2.88 2.0 40.1606
28.29636 2.82 2.0 40.1606
28.29636 2.8 2.0 40.1606
17.592840000000002 -0.7 2.0 22.3214
15.15888 -0.78 2.0 18.2648
17.592840000000002 -1.1 2.0 22.3214
13.4736 -1.22 2.0 15.456
28.29636 -1.4 2.0 40.1606
17.592840000000002 -1.5 2.0 22.3214
17.592840000000002 -1.52 2.0 22.3214
44.33376 -1.82 2.0 66.8896
44.33376 -3.14 2.0 66.8896
44.33376 -3.2 2.0 66.8896
28.29636 5.82 1.98 40.1606
28.29636 5.14 1.98 40.1606
44.33376 4.56 1.98 66.8896
44.33376 4.36 1.98 66.8896
44.33376 4.16 1.98 66.8896
28.29636 4.1 1.98 40.1606
17.592840000000002 -0.72 1.98 22.3214
17.592840000000002 -1.1 1.98 22.3214
13.4736 -1.22 1.98 15.456
28.29636 -1.38 1.98 40.1606
28.29636 -1.4 1.98 40.1606
17.592840000000002 -1.5 1.98 22.3214
44.33376 5.82 1.96 66.8896
44.33376 5.8 1.96 66.8896
17.592840000000002 4.74 1.96 22.3214
44.33376 4.58 1.96 66.8896
44.33376 4.16 1.96 66.8896
44.33376 4.04 1.96 66.8896
28.29636 2.82 1.96 40.1606
124.19999999999999 -0.16 1.96 200.0
17.592840000000002 -1.1 1.96 22.3214
28.29636 -1.38 1.96 40.1606
17.592840000000002 -1.48 1.96 22.3214
21.41664 -2.28 1.96 28.6944
44.33376 -3.16 1.96 66.8896
17.592840000000002 4.74 1.94 22.3214
44.33376 4.16 1.94 66.8896
44.33376 4.04 1.94 66.8896
28.29636 3.24 1.94 40.1606
28.29636 3.22 1.94 40.1606
28.29636 2.82 1.94 40.1606
124.19999999999999 -0.16 1.94 200.0
17.592840000000002 -1.1 1.94 22.3214
28.29636 -1.36 1.94 40.1606
17.592840000000002 -1.46 1.94 22.3214
21.41664 -2.24 1.94 28.6944
44.33376 -3.14 1.94 66.8896
44.33376 -3.16 1.94 66.8896
44.33376 5.8 1.92 66.8896
17.592840000000002 4.72 1.92 22.3214
44.33376 4.48 1.92 66.8896
28.29636 3.38 1.92 40.1606
28.29636 3.16 1.92 40.1606
28.29636 2.82 1.92 40.1606
21.41664 -0.1 1.92 28.6944
17.592840000000002 -1.1 1.92 22.3214
124.19999999999999 -1.22 1.92 200.0
124.19999999999999 -1.24 1.92 200.0
17.592840000000002 -1.46 1.92 22.3214
21.41664 -2.22 1.92 28.6944
44.33376 -3.12 1.92 66.8896
44.33376 -3.14 1.92 66.8896
28.29636 3.38 1.9 40.1606
28.29636 3.16 1.9 40.1606
28.29636 2.84 1.9 40.1606
44.33376 -0.3 1.9 66.8896
17.592840000000002 -1.08 1.9 22.3214
17.592840000000002 -1.1 1.9 22.3214
124.19999999999999 -1.22 1.9 200.0
28.29636 -1.34 1.9 40.1606
17.592840000000002 -1.44 1.9 22.3214
44.33376 -3.12 1.9 66.8896
17.592840000000002 5.64 1.88 22.3214
44.33376 4.04 1.88 66.8896
28.29636 2.86 1.88 40.1606
28.29636 2.84 1.88 40.1606
28.29636 2.8 1.88 40.1606
17.592840000000002 -1.08 1.88 22.3214
124.19999999999999 -1.22 1.88 200.0
28.29636 -1.32 1.88 40.1606
17.592840000000002 -1.42 1.88 22.3214
44.33376 4.42 1.86 66.8896
44.33376 4.4 1.86 66.8896
44.33376 4.04 1.86 66.8896
44.33376 4.02 1.86 66.8896
28.29636 3.12 1.86 40.1606
28.29636 3.1 1.86 40.1606
28.29636 2.8 1.86 40.1606
17.592840000000002 -1.06 1.86 22.3214
28.29636 -1.3 1.86 40.1606
17.592840000000002 -1.4 1.86 22.3214
17.592840000000002 -1.42 1.86 22.3214
44.33376 -3.14 1.86 66.8896
44.33376 4.42 1.84 66.8896
44.33376 4.2 1.84 66.8896
44.33376 4.02 1.84 66.8896
28.29636 2.88 1.84 40.1606
28.29636 2.76 1.84 40.1606
17.592840000000002 -1.06 1.84 22.3214
28.29636 -1.28 1.84 40.1606
17.592840000000002 -1.38 1.84 22.3214
17.592840000000002 -1.4 1.84 22.3214
17.592840000000002 -2.16 1.84 22.3214
44.33376 -3.14 1.84 66.8896
44.33376 4.06 1.82 66.8896
28.29636 3.2 1.82 40.1606
28.29636 2.88 1.82 40.1606
28.29636 2.76 1.82 40.1606
17.592840000000002 -1.06 1.82 22.3214
28.29636 -1.28 1.82 40.1606
17.592840000000002 -1.38 1.82 22.3214
44.33376 -3.12 1.82 66.8896
17.592840000000002 5.22 1.8 22.3214
28.29636 4.7 1.8 40.1606
44.33376 4.5 1.8 66.8896
44.33376 4.06 1.8 66.8896
28.29636 3.14 1.8 40.1606
28.29636 2.76 1.8 40.1606
15.15888 -0.52 1.8 18.2648
17.592840000000002 -1.06 1.8 22.3214
44.33376 -1.2 1.8 66.8896
28.29636 -1.26 1.8 40.1606
17.592840000000002 -1.36 1.8 22.3214
17.592840000000002 -2.14 1.8 22.3214
44.33376 -3.1 1.8 66.8896
28.29636 4.7 1.78 40.1606
21.41664 4.64 1.78 28.6944
28.29636 4.22 1.78 40.1606
44.33376 4.08 1.78 66.8896
28.29636 2.86 1.78 40.1606
28.29636 2.82 1.78 40.1606
28.29636 2.76 1.78 40.1606
17.592840000000002 -1.06 1.78 22.3214
17.592840000000002 -1.36 1.78 22.3214
21.41664 -2.04 1.78 28.6944
17.592840000000002 -2.12 1.78 22.3214
44.33376 -3.16 1.78 66.8896
44.33376 4.08 1.76 66.8896
44.33376 3.98 1.76 66.8896
28.29636 3.44 1.76 40.1606
28.29636 3.34 1.76 40.1606
21.41664 -1.3 1.76 28.6944
21.41664 -2.04 1.76 28.6944
17.592840000000002 -2.12 1.76 22.3214
28.29636 -2.26 1.76 40.1606
44.33376 -3.16 1.76 66.8896
44.33376 4.1 1.74 66.8896
44.33376 4.08 1.74 66.8896
44.33376 3.98 1.74 66.8896
28.29636 3.44 1.74 40.1606
28.29636 2.84 1.74 40.1606
28.29636 2.76 1.74 40.1606
21.41664 -0.62 1.74 28.6944
17.592840000000002 -0.64 1.74 22.3214
17.592840000000002 -1.04 1.74 22.3214
21.41664 -1.3 1.74 28.6944
21.41664 -2.04 1.74 28.6944
17.592840000000002 -2.1 1.74 22.3214
17.592840000000002 -2.12 1.74 22.3214
44.33376 -3.14 1.74 66.8896
44.33376 4.54 1.72 66.8896
44.33376 4.1 1.72 66.8896
44.33376 3.98 1.72 66.8896
28.29636 3.44 1.72 40.1606
44.33376 2.9 1.72 66.8896
28.29636 2.84 1.72 40.1606
28.29636 2.76 1.72 40.1606
21.41664 -0.4 1.72 28.6944
21.41664 -0.6 1.72 28.6944
21.41664 -0.62 1.72 28.6944
15.15888 -0.7 1.72 18.2648
17.592840000000002 -1.0 1.72 22.3214
17.592840000000002 -1.02 1.72 22.3214
21.41664 -1.28 1.72 28.6944
21.41664 -1.3 1.72 28.6944
28.29636 -1.94 1.72 40.1606
15.15888 -2.26 1.72 18.2648
44.33376 -3.14 1.72 66.8896
44.33376 -3.22 1.72 66.8896
17.592840000000002 4.94 1.7 22.3214
28.29636 3.44 1.7 40.1606
44.33376 2.9 1.7 66.8896
28.29636 2.84 1.7 40.1606
21.41664 -0.58 1.7 28.6944
21.41664 -0.6 1.7 28.6944
17.592840000000002 -1.0 1.7 22.3214
17.592840000000002 -1.28 1.7 22.3214
28.29636 -1.92 1.7 40.1606
15.15888 -2.1 1.7 18.2648
15.15888 -2.26 1.7 18.2648
44.33376 -3.2 1.7 66.8896
44.33376 4.02 1.68 66.8896
28.29636 3.44 1.68 40.1606
28.29636 3.12 1.68 40.1606
28.29636 2.88 1.68 40.1606
28.29636 2.84 1.68 40.1606
28.29636 2.7 1.68 40.1606
28.29636 -0.52 1.68 40.1606
17.592840000000002 -0.98 1.68 22.3214
17.592840000000002 -1.0 1.68 22.3214
17.592840000000002 -1.16 1.68 22.3214
17.592840000000002 -1.32 1.68 22.3214
44.33376 -1.84 1.68 66.8896
44.33376 -3.1 1.68 66.8896
44.33376 -3.18 1.68 66.8896
44.33376 4.02 1.66 66.8896
28.29636 2.84 1.66 40.1606
28.29636 2.72 1.66 40.1606
17.592840000000002 -0.12 1.66 22.3214
124.19999999999999 -0.4 1.66 200.0
124.19999999999999 -0.42 1.66 200.0
17.592840000000002 -0.98 1.66 22.3214
17.592840000000002 -1.02 1.66 22.3214
15.15888 -2.24 1.66 18.2648
44.33376 -3.16 1.66 66.8896
44.33376 3.92 1.64 66.8896
28.29636 3.42 1.64 40.1606
28.29636 3.3 1.64 40.1606
28.29636 2.72 1.64 40.1606
17.592840000000002 -0.12 1.64 22.3214
124.19999999999999 -0.4 1.64 200.0
17.592840000000002 -0.96 1.64 22.3214
17.592840000000002 -0.98 1.64 22.3214
17.592840000000002 -1.18 1.64 22.3214
21.41664 -1.8 1.64 28.6944
21.41664 -1.82 1.64 28.6944
21.41664 -1.84 1.64 28.6944
124.19999999999999 -1.9 1.64 200.0
21.41664 -1.96 1.64 28.6944
15.15888 -2.24 1.64 18.2648
44.33376 -3.14 1.64 66.8896
44.33376 4.5 1.62 66.8896
44.33376 3.94 1.62 66.8896
28.29636 3.42 1.62 40.1606
28.29636 3.3 1.62 40.1606
28.29636 2.78 1.62 40.1606
28.29636 2.72 1.62 40.1606
124.19999999999999 -0.72 1.62 200.0
17.592840000000002 -0.96 1.62 22.3214
17.592840000000002 -1.16 1.62 22.3214
17.592840000000002 -1.18 1.62 22.3214
44.33376 -1.84 1.62 66.8896
44.33376 -3.14 1.62 66.8896
28.29636 3.42 1.6 40.1606
28.29636 3.06 1.6 40.1606
28.29636 2.78 1.6 40.1606
28.29636 2.76 1.6 40.1606
124.19999999999999 -0.72 1.6 200.0
44.33376 -0.98 1.6 66.8896
17.592840000000002 -1.14 1.6 22.3214
44.33376 -3.12 1.6 66.8896
28.29636 3.42 1.58 40.1606
28.29636 3.06 1.58 40.1606
28.29636 3.04 1.58 40.1606
28.29636 2.82 1.58 40.1606
28.29636 2.76 1.58 40.1606
28.29636 2.74 1.58 40.1606
124.19999999999999 -0.72 1.58 200.0
44.33376 -0.96 1.58 66.8896
17.592840000000002 -1.12 1.58 22.3214
21.41664 -1.7 1.58 28.6944
21.41664 -1.96 1.58 28.6944
44.33376 -3.12 1.58 66.8896
44.33376 -3.2 1.58 66.8896
17.592840000000002 5.7 1.56 22.3214
28.29636 4.68 1.56 40.1606
28.29636 4.32 1.56 40.1606
44.33376 4.0 1.56 66.8896
28.29636 3.4 1.56 40.1606
28.29636 3.06 1.56 40.1606
28.29636 3.04 1.56 40.1606
28.29636 2.74 1.56 40.1606
44.33376 -0.96 1.56 66.8896
17.592840000000002 -1.08 1.56 22.3214
17.592840000000002 -1.1 1.56 22.3214
21.41664 -1.68 1.56 28.6944
21.41664 -1.96 1.56 28.6944
17.592840000000002 -2.04 1.56 22.3214
15.15888 -2.22 1.56 18.2648
44.33376 -3.08 1.56 66.8896
17.592840000000002 5.7 1.54 22.3214
17.592840000000002 5.68 1.54 22.3214
28.29636 4.32 1.54 40.1606
44.33376 4.0 1.54 66.8896
44.33376 3.86 1.54 66.8896
28.29636 3.4 1.54 40.1606
28.29636 3.18 1.54 40.1606
28.29636 2.74 1.54 40.1606
17.592840000000002 -1.06 1.54 22.3214
17.592840000000002 -1.08 1.54 22.3214
17.592840000000002 -2.04 1.54 22.3214
17.592840000000002 -2.14 1.54 22.3214
15.15888 -2.2 1.54 18.2648
44.33376 -3.16 1.54 66.8896
44.33376 -3.18 1.54 66.8896
28.29636 4.7 1.52 40.1606
44.33376 4.54 1.52 66.8896
44.33376 4.14 1.52 66.8896
44.33376 3.86 1.52 66.8896
28.29636 3.4 1.52 40.1606
28.29636 3.28 1.52 40.1606
28.29636 2.74 1.52 40.1606
17.592840000000002 -1.04 1.52 22.3214
17.592840000000002 -1.06 1.52 22.3214
21.41664 -1.62 1.52 28.6944
21.41664 -1.64 1.52 28.6944
124.19999999999999 -1.74 1.52 200.0
17.592840000000002 -2.04 1.52 22.3214
15.15888 -2.2 1.52 18.2648
44.33376 -3.16 1.52 66.8896
44.33376 -3.18 1.52 66.8896
17.592840000000002 5.16 1.5 22.3214
44.33376 3.86 1.5 66.8896
28.29636 2.74 1.5 40.1606
17.592840000000002 -1.02 1.5 22.3214
17.592840000000002 -1.04 1.5 22.3214
21.41664 -1.62 1.5 28.6944
124.19999999999999 -1.74 1.5 200.0
15.15888 -2.2 1.5 18.2648
44.33376 -3.16 1.5 66.8896
44.33376 -3.18 1.5 66.8896
28.29636 3.36 1.48 40.1606
28.29636 2.74 1.48 40.1606
28.29636 2.72 1.48 40.1606
17.592840000000002 -1.04 1.48 22.3214
21.41664 -1.58 1.48 28.6944
124.19999999999999 -2.0 1.48 200.0
44.33376 -3.18 1.48 66.8896
28.29636 4.32 1.46 40.1606
44.33376 3.94 1.46 66.8896
28.29636 3.36 1.46 40.1606
28.29636 3.04 1.46 40.1606
28.29636 2.74 1.46 40.1606
17.592840000000002 -1.02 1.46 22.3214
124.19999999999999 -2.0 1.46 200.0
17.592840000000002 -2.12 1.46 22.3214
15.15888 -2.18 1.46 18.2648
44.33376 -3.18 1.46 66.8896
28.29636 4.32 1.44 40.1606
44.33376 3.82 1.44 66.8896
28.29636 3.34 1.44 40.1606
28.29636 3.16 1.44 40.1606
28.29636 3.06 1.44 40.1606
124.19999999999999 2.84 1.44 200.0
28.29636 2.76 1.44 40.1606
28.29636 2.74 1.44 40.1606
17.592840000000002 -1.02 1.44 22.3214
21.41664 -1.54 1.44 28.6944
15.15888 -2.18 1.44 18.2648
44.33376 -3.26 1.44 66.8896
44.33376 4.7 1.42 66.8896
28.29636 4.34 1.42 40.1606
28.29636 3.32 1.42 40.1606
28.29636 2.76 1.42 40.1606
28.29636 2.74 1.42 40.1606
17.592840000000002 -1.02 1.42 22.3214
21.41664 -2.02 1.42 28.6944
15.15888 -2.18 1.42 18.2648
44.33376 -3.24 1.42 66.8896
44.33376 4.7 1.4 66.8896
44.33376 4.62 1.4 66.8896
44.33376 4.48 1.4 66.8896
28.29636 4.34 1.4 40.1606
44.33376 3.98 1.4 66.8896
21.41664 2.96 1.4 28.6944
28.29636 2.76 1.4 40.1606
28.29636 2.74 1.4 40.1606
21.41664 -2.02 1.4 28.6944
15.15888 -2.18 1.4 18.2648
44.33376 -3.22 1.4 66.8896
44.33376 4.62 1.38 66.8896
28.29636 4.34 1.38 40.1606
44.33376 4.02 1.38 66.8896
28.29636 2.76 1.38 40.1606
28.29636 2.74 1.38 40.1606
28.29636 -0.36 1.38 40.1606
28.29636 -0.4 1.38 40.1606
44.33376 4.62 1.36 66.8896
28.29636 4.34 1.36 40.1606
28.29636 3.3 1.36 40.1606
28.29636 2.76 1.36 40.1606
28.29636 2.74 1.36 40.1606
28.29636 -0.36 1.36 40.1606
21.41664 -1.46 1.36 28.6944
21.41664 -1.48 1.36 28.6944
28.29636 4.34 1.34 40.1606
28.29636 4.32 1.34 40.1606
28.29636 3.3 1.34 40.1606
124.19999999999999 2.86 1.34 200.0
124.19999999999999 2.84 1.34 200.0
28.29636 2.74 1.34 40.1606
17.592840000000002 -1.02 1.34 22.3214
21.41664 -2.0 1.34 28.6944
15.15888 -2.16 1.34 18.2648
28.29636 4.34 1.32 40.1606
28.29636 3.3 1.32 40.1606
28.29636 2.74 1.32 40.1606
28.29636 2.72 1.32 40.1606
28.29636 2.7 1.32 40.1606
44.33376 -0.58 1.32 66.8896
21.41664 -1.44 1.32 28.6944
21.41664 -1.98 1.32 28.6944
21.41664 -2.0 1.32 28.6944
15.15888 -2.16 1.32 18.2648
28.29636 4.34 1.3 40.1606
28.29636 3.3 1.3 40.1606
28.29636 3.0 1.3 40.1606
28.29636 2.72 1.3 40.1606
21.41664 -0.4 1.3 28.6944
124.19999999999999 -0.76 1.3 200.0
17.592840000000002 -1.02 1.3 22.3214
44.33376 -1.22 1.3 66.8896
21.41664 -2.0 1.3 28.6944
15.15888 -2.16 1.3 18.2648
28.29636 4.34 1.28 40.1606
28.29636 3.32 1.28 40.1606
28.29636 2.7 1.28 40.1606
28.29636 2.66 1.28 40.1606
21.41664 -0.4 1.28 28.6944
124.19999999999999 -0.76 1.28 200.0
17.592840000000002 -1.02 1.28 22.3214
44.33376 -1.16 1.28 66.8896
44.33376 -1.2 1.28 66.8896
17.592840000000002 -1.3 1.28 22.3214
17.592840000000002 -1.36 1.28 22.3214
21.41664 -2.0 1.28 28.6944
44.33376 4.62 1.26 66.8896
28.29636 4.34 1.26 40.1606
124.19999999999999 -0.76 1.26 200.0
17.592840000000002 -1.02 1.26 22.3214
44.33376 -1.18 1.26 66.8896
17.592840000000002 -1.34 1.26 22.3214
17.592840000000002 -1.36 1.26 22.3214
21.41664 -2.0 1.26 28.6944
15.15888 -2.14 1.26 18.2648
44.33376 -2.8 1.26 66.8896
17.592840000000002 5.14 1.24 22.3214
44.33376 4.62 1.24 66.8896
44.33376 3.72 1.24 66.8896
28.29636 2.64 1.24 40.1606
17.592840000000002 -1.02 1.24 22.3214
44.33376 -1.16 1.24 66.8896
17.592840000000002 -1.3 1.24 22.3214
12.23748 -1.52 1.24 13.3958
124.19999999999999 -1.98 1.24 200.0
124.19999999999999 -2.0 1.24 200.0
28.29636 -2.16 1.24 40.1606
44.33376 4.62 1.22 66.8896
44.33376 4.6 1.22 66.8896
28.29636 4.34 1.22 40.1606
28.29636 3.2 1.22 40.1606
28.29636 2.66 1.22 40.1606
28.29636 2.64 1.22 40.1606
21.41664 -0.4 1.22 28.6944
44.33376 -1.16 1.22 66.8896
17.592840000000002 -1.3 1.22 22.3214
17.592840000000002 -1.34 1.22 22.3214
28.29636 4.34 1.2 40.1606
28.29636 2.66 1.2 40.1606
44.33376 1.66 1.2 66.8896
17.592840000000002 -1.3 1.2 22.3214
28.29636 -2.12 1.2 40.1606
44.33376 -3.24 1.2 66.8896
44.33376 4.64 1.18 66.8896
28.29636 4.34 1.18 40.1606
44.33376 3.7 1.18 66.8896
28.29636 2.66 1.18 40.1606
124.19999999999999 2.06 1.18 200.0
44.33376 1.66 1.18 66.8896
44.33376 1.5 1.18 66.8896
124.19999999999999 -1.02 1.18 200.0
124.19999999999999 -1.98 1.18 200.0
28.29636 -2.12 1.18 40.1606
44.33376 -3.26 1.18 66.8896
44.33376 4.64 1.16 66.8896
44.33376 4.62 1.16 66.8896
28.29636 4.34 1.16 40.1606
28.29636 4.24 1.16 40.1606
44.33376 3.72 1.16 66.8896
28.29636 3.3 1.16 40.1606
28.29636 3.06 1.16 40.1606
44.33376 1.66 1.16 66.8896
44.33376 1.5 1.16 66.8896
28.29636 -0.64 1.16 40.1606
124.19999999999999 -1.02 1.16 200.0
44.33376 -1.1 1.16 66.8896
28.29636 -2.14 1.16 40.1606
44.33376 -3.26 1.16 66.8896
44.33376 4.64 1.14 66.8896
44.33376 4.42 1.14 66.8896
28.29636 4.24 1.14 40.1606
44.33376 3.72 1.14 66.8896
28.29636 3.3 1.14 40.1606
28.29636 3.16 1.14 40.1606
28.29636 2.8 1.14 40.1606
44.33376 2.46 1.14 66.8896
44.33376 1.5 1.14 66.8896
44.33376 1.38 1.14 66.8896
17.592840000000002 -1.26 1.14 22.3214
15.15888 -2.14 1.14 18.2648
44.33376 4.64 1.12 66.8896
28.29636 4.34 1.12 40.1606
28.29636 4.24 1.12 40.1606
44.33376 3.72 1.12 66.8896
28.29636 3.28 1.12 40.1606
28.29636 3.22 1.12 40.1606
28.29636 3.16 1.12 40.1606
44.33376 2.48 1.12 66.8896
21.41664 -0.4 1.12 28.6944
124.19999999999999 -0.76 1.12 200.0
124.19999999999999 -1.0 1.12 200.0
44.33376 -1.06 1.12 66.8896
44.33376 4.64 1.1 66.8896
44.33376 4.62 1.1 66.8896
44.33376 4.56 1.1 66.8896
28.29636 4.34 1.1 40.1606
28.29636 4.24 1.1 40.1606
28.29636 3.28 1.1 40.1606
28.29636 3.16 1.1 40.1606
28.29636 2.82 1.1 40.1606
28.29636 2.58 1.1 40.1606
44.33376 2.48 1.1 66.8896
44.33376 1.48 1.1 66.8896
124.19999999999999 -0.76 1.1 200.0
44.33376 -1.42 1.1 66.8896
44.33376 -1.86 1.1 66.8896
15.15888 -2.14 1.1 18.2648
44.33376 -3.3 1.1 66.8896
44.33376 4.64 1.08 66.8896
44.33376 4.62 1.08 66.8896
44.33376 4.58 1.08 66.8896
28.29636 4.34 1.08 40.1606
28.29636 4.24 1.08 40.1606
44.33376 3.78 1.08 66.8896
28.29636 3.32 1.08 40.1606
28.29636 2.82 1.08 40.1606
28.29636 2.62 1.08 40.1606
44.33376 2.48 1.08 66.8896
21.41664 -0.4 1.08 28.6944
44.33376 -0.58 1.08 66.8896
17.592840000000002 -1.18 1.08 22.3214
44.33376 -1.5 1.08 66.8896
44.33376 -1.86 1.08 66.8896
21.41664 -2.0 1.08 28.6944
15.15888 -2.14 1.08 18.2648
44.33376 -3.3 1.08 66.8896
44.33376 4.64 1.06 66.8896
44.33376 4.58 1.06 66.8896
28.29636 4.34 1.06 40.1606
28.29636 3.32 1.06 40.1606
28.29636 2.64 1.06 40.1606
28.29636 2.62 1.06 40.1606
44.33376 2.48 1.06 66.8896
21.41664 -0.4 1.06 28.6944
17.592840000000002 -1.18 1.06 22.3214
44.33376 -1.86 1.06 66.8896
44.33376 -3.28 1.06 66.8896
21.41664 5.66 1.04 28.6944
44.33376 4.64 1.04 66.8896
44.33376 4.58 1.04 66.8896
28.29636 4.34 1.04 40.1606
28.29636 2.64 1.04 40.1606
44.33376 2.48 1.04 66.8896
44.33376 -3.28 1.04 66.8896
44.33376 4.64 1.02 66.8896
28.29636 4.34 1.02 40.1606
28.29636 4.24 1.02 40.1606
44.33376 3.72 1.02 66.8896
28.29636 3.0 1.02 40.1606
28.29636 2.64 1.02 40.1606
44.33376 0.6 1.02 66.8896
21.41664 -0.4 1.02 28.6944
28.29636 -1.52 1.02 40.1606
17.592840000000002 -1.66 1.02 22.3214
28.29636 4.36 1.0 40.1606
28.29636 4.34 1.0 40.1606
28.29636 4.24 1.0 40.1606
28.29636 2.66 1.0 40.1606
44.33376 2.48 1.0 66.8896
21.41664 -0.4 1.0 28.6944
17.592840000000002 -1.14 1.0 22.3214
17.592840000000002 -1.66 1.0 22.3214
28.29636 -2.08 1.0 40.1606
44.33376 -3.26 1.0 66.8896
44.33376 4.64 0.98 66.8896
28.29636 4.36 0.98 40.1606
28.29636 4.34 0.98 40.1606
44.33376 4.06 0.98 66.8896
28.29636 2.74 0.98 40.1606
28.29636 2.72 0.98 40.1606
21.41664 -0.4 0.98 28.6944
17.592840000000002 -1.14 0.98 22.3214
44.33376 -3.24 0.98 66.8896
44.33376 -3.26 0.98 66.8896
28.29636 4.36 0.96 40.1606
28.29636 4.34 0.96 40.1606
28.29636 3.54 0.96 40.1606
28.29636 2.74 0.96 40.1606
21.41664 -0.4 0.96 28.6944
17.592840000000002 -0.76 0.96 22.3214
44.33376 -1.56 0.96 66.8896
28.29636 -1.66 0.96 40.1606
28.29636 4.36 0.94 40.1606
28.29636 4.34 0.94 40.1606
44.33376 3.66 0.94 66.8896
44.33376 2.8 0.94 66.8896
28.29636 2.78 0.94 40.1606
28.29636 2.74 0.94 40.1606
21.41664 -0.4 0.94 28.6944
17.592840000000002 -1.12 0.94 22.3214
17.592840000000002 5.32 0.92 22.3214
28.29636 4.36 0.92 40.1606
44.33376 4.1 0.92 66.8896
44.33376 3.64 0.92 66.8896
28.29636 3.26 0.92 40.1606
28.29636 2.74 0.92 40.1606
28.29636 2.72 0.92 40.1606
28.29636 2.7 0.92 40.1606
44.33376 0.92 0.92 66.8896
21.41664 -0.4 0.92 28.6944
17.592840000000002 -1.1 0.92 22.3214
17.592840000000002 -1.12 0.92 22.3214
15.15888 -2.14 0.92 18.2648
17.592840000000002 5.32 0.9 22.3214
28.29636 4.36 0.9 40.1606
44.33376 3.98 0.9 66.8896
44.33376 3.64 0.9 66.8896
28.29636 3.16 0.9 40.1606
28.29636 2.74 0.9 40.1606
28.29636 2.72 0.9 40.1606
44.33376 0.92 0.9 66.8896
21.41664 -0.4 0.9 28.6944
17.592840000000002 -1.1 0.9 22.3214
44.33376 -1.58 0.9 66.8896
21.41664 -1.72 0.9 28.6944
17.592840000000002 5.32 0.88 22.3214
28.29636 4.36 0.88 40.1606
44.33376 3.98 0.88 66.8896
44.33376 3.92 0.88 66.8896
44.33376 3.64 0.88 66.8896
28.29636 3.16 0.88 40.1606
21.41664 -0.4 0.88 28.6944
17.592840000000002 -1.08 0.88 22.3214
17.592840000000002 -1.1 0.88 22.3214
44.33376 -3.24 0.88 66.8896
17.592840000000002 5.32 0.86 22.3214
28.29636 4.36 0.86 40.1606
44.33376 3.6 0.86 66.8896
28.29636 3.16 0.86 40.1606
28.29636 3.14 0.86 40.1606
28.29636 2.74 0.86 40.1606
28.29636 2.72 0.86 40.1606
44.33376 1.66 0.86 66.8896
21.41664 -0.4 0.86 28.6944
17.592840000000002 -0.72 0.86 22.3214
17.592840000000002 -1.08 0.86 22.3214
17.592840000000002 -1.1 0.86 22.3214
21.41664 -1.74 0.86 28.6944
44.33376 -3.24 0.86 66.8896
17.592840000000002 5.32 0.84 22.3214
28.29636 4.36 0.84 40.1606
44.33376 3.7 0.84 66.8896
28.29636 3.16 0.84 40.1606
44.33376 1.66 0.84 66.8896
21.41664 -0.4 0.84 28.6944
17.592840000000002 -0.72 0.84 22.3214
17.592840000000002 -1.08 0.84 22.3214
13.4736 -1.22 0.84 15.456
28.29636 -1.7 0.84 40.1606
15.15888 -1.9 0.84 18.2648
44.33376 -3.22 0.84 66.8896
17.592840000000002 5.32 0.82 22.3214
28.29636 4.36 0.82 40.1606
44.33376 3.82 0.82 66.8896
28.29636 3.16 0.82 40.1606
28.29636 2.8 0.82 40.1606
28.29636 2.78 0.82 40.1606
44.33376 1.86 0.82 66.8896
44.33376 1.66 0.82 66.8896
21.41664 -0.4 0.82 28.6944
17.592840000000002 -1.08 0.82 22.3214
44.33376 -1.62 0.82 66.8896
17.592840000000002 -2.1 0.82 22.3214
28.29636 4.36 0.8 40.1606
28.29636 3.16 0.8 40.1606
28.29636 2.82 0.8 40.1606
28.29636 2.8 0.8 40.1606
28.29636 2.78 0.8 40.1606
44.33376 1.86 0.8 66.8896
44.33376 1.66 0.8 66.8896
44.33376 1.18 0.8 66.8896
124.19999999999999 0.12 0.8 200.0
124.19999999999999 0.06 0.8 200.0
21.41664 -0.4 0.8 28.6944
17.592840000000002 -1.06 0.8 22.3214
17.592840000000002 -1.08 0.8 22.3214
13.4736 -1.2 0.8 15.456
13.4736 -1.22 0.8 15.456
44.33376 -1.64 0.8 66.8896
21.41664 -1.76 0.8 28.6944
17.592840000000002 5.34 0.78 22.3214
28.29636 4.36 0.78 40.1606
44.33376 4.04 0.78 66.8896
28.29636 3.16 0.78 40.1606
28.29636 2.84 0.78 40.1606
28.29636 2.82 0.78 40.1606
44.33376 2.3 0.78 66.8896
44.33376 1.86 0.78 66.8896
44.33376 1.66 0.78 66.8896
44.33376 1.18 0.78 66.8896
124.19999999999999 0.12 0.78 200.0
124.19999999999999 0.06 0.78 200.0
21.41664 -0.4 0.78 28.6944
17.592840000000002 -1.06 0.78 22.3214
17.592840000000002 -1.08 0.78 22.3214
44.33376 -1.64 0.78 66.8896
17.592840000000002 5.34 0.76 22.3214
28.29636 4.36 0.76 40.1606
44.33376 4.06 0.76 66.8896
28.29636 3.16 0.76 40.1606
28.29636 3.0 0.76 40.1606
28.29636 2.86 0.76 40.1606
44.33376 2.3 0.76 66.8896
44.33376 1.86 0.76 66.8896
44.33376 1.66 0.76 66.8896
44.33376 1.0 0.76 66.8896
124.19999999999999 0.12 0.76 200.0
124.19999999999999 0.06 0.76 200.0
124.19999999999999 -0.22 0.76 200.0
17.592840000000002 -1.06 0.76 22.3214
44.33376 -1.66 0.76 66.8896
21.41664 -1.78 0.76 28.6944
17.592840000000002 5.34 0.74 22.3214
28.29636 4.36 0.74 40.1606
28.29636 3.5 0.74 40.1606
28.29636 3.16 0.74 40.1606
28.29636 2.86 0.74 40.1606
44.33376 2.46 0.74 66.8896
44.33376 2.3 0.74 66.8896
44.33376 1.86 0.74 66.8896
44.33376 1.66 0.74 66.8896
44.33376 1.0 0.74 66.8896
124.19999999999999 0.12 0.74 200.0
124.19999999999999 0.06 0.74 200.0
124.19999999999999 -0.26 0.74 200.0
44.33376 -0.4 0.74 66.8896
17.592840000000002 -1.06 0.74 22.3214
44.33376 -1.66 0.74 66.8896
44.33376 -3.26 0.74 66.8896
28.29636 4.36 0.72 40.1606
28.29636 3.58 0.72 40.1606
28.29636 3.16 0.72 40.1606
28.29636 3.06 0.72 40.1606
44.33376 2.46 0.72 66.8896
44.33376 2.3 0.72 66.8896
44.33376 1.86 0.72 66.8896
44.33376 1.66 0.72 66.8896
44.33376 1.18 0.72 66.8896
124.19999999999999 0.12 0.72 200.0
124.19999999999999 -0.28 0.72 200.0
17.592840000000002 -1.06 0.72 22.3214
44.33376 -1.68 0.72 66.8896
21.41664 -1.8 0.72 28.6944
44.33376 -3.26 0.72 66.8896
17.592840000000002 5.36 0.7 22.3214
28.29636 4.36 0.7 40.1606
28.29636 4.24 0.7 40.1606
28.29636 3.62 0.7 40.1606
28.29636 3.58 0.7 40.1606
28.29636 3.16 0.7 40.1606
28.29636 3.06 0.7 40.1606
44.33376 2.82 0.7 66.8896
44.33376 2.3 0.7 66.8896
44.33376 1.86 0.7 66.8896
44.33376 1.66 0.7 66.8896
44.33376 1.02 0.7 66.8896
44.33376 -0.38 0.7 66.8896
44.33376 -0.4 0.7 66.8896
17.592840000000002 -1.06 0.7 22.3214
44.33376 -1.68 0.7 66.8896
17.592840000000002 -1.9 0.7 22.3214
17.592840000000002 5.36 0.68 22.3214
44.33376 4.42 0.68 66.8896
28.29636 4.36 0.68 40.1606
28.29636 4.24 0.68 40.1606
28.29636 3.62 0.68 40.1606
28.29636 3.6 0.68 40.1606
28.29636 3.58 0.68 40.1606
28.29636 3.16 0.68 40.1606
28.29636 3.08 0.68 40.1606
28.29636 3.06 0.68 40.1606
44.33376 2.82 0.68 66.8896
44.33376 2.3 0.68 66.8896
44.33376 1.86 0.68 66.8896
44.33376 1.66 0.68 66.8896
44.33376 1.02 0.68 66.8896
44.33376 -0.4 0.68 66.8896
17.592840000000002 -1.06 0.68 22.3214
44.33376 -1.7 0.68 66.8896
17.592840000000002 5.36 0.66 22.3214
28.29636 4.36 0.66 40.1606
28.29636 4.24 0.66 40.1606
28.29636 3.58 0.66 40.1606
28.29636 3.16 0.66 40.1606
28.29636 3.08 0.66 40.1606
28.29636 3.06 0.66 40.1606
44.33376 2.82 0.66 66.8896
44.33376 2.3 0.66 66.8896
44.33376 1.86 0.66 66.8896
44.33376 1.66 0.66 66.8896
44.33376 1.02 0.66 66.8896
44.33376 0.66 0.66 66.8896
44.33376 -0.4 0.66 66.8896
44.33376 -0.44 0.66 66.8896
17.592840000000002 -1.06 0.66 22.3214
44.33376 -2.72 0.66 66.8896
28.29636 -3.34 0.66 40.1606
17.592840000000002 5.36 0.64 22.3214
28.29636 4.36 0.64 40.1606
28.29636 4.24 0.64 40.1606
28.29636 3.16 0.64 40.1606
28.29636 3.08 0.64 40.1606
28.29636 3.06 0.64 40.1606
44.33376 2.82 0.64 66.8896
44.33376 2.3 0.64 66.8896
44.33376 1.02 0.64 66.8896
44.33376 0.66 0.64 66.8896
44.33376 0.52 0.64 66.8896
44.33376 -0.48 0.64 66.8896
17.592840000000002 -1.04 0.64 22.3214
44.33376 -2.72 0.64 66.8896
28.29636 4.36 0.62 40.1606
21.41664 4.18 0.62 28.6944
44.33376 3.48 0.62 66.8896
28.29636 3.16 0.62 40.1606
28.29636 3.08 0.62 40.1606
28.29636 3.06 0.62 40.1606
44.33376 2.82 0.62 66.8896
44.33376 2.3 0.62 66.8896
44.33376 1.02 0.62 66.8896
17.592840000000002 -1.04 0.62 22.3214
44.33376 -2.74 0.62 66.8896
28.29636 4.36 0.6 40.1606
21.41664 4.2 0.6 28.6944
21.41664 4.18 0.6 28.6944
21.41664 4.12 0.6 28.6944
44.33376 3.66 0.6 66.8896
44.33376 3.48 0.6 66.8896
44.33376 3.46 0.6 66.8896
28.29636 3.16 0.6 40.1606
28.29636 3.08 0.6 40.1606
28.29636 3.06 0.6 40.1606
44.33376 2.82 0.6 66.8896
44.33376 2.3 0.6 66.8896
44.33376 1.02 0.6 66.8896
21.41664 -0.4 0.6 28.6944
17.592840000000002 -1.04 0.6 22.3214
28.29636 -1.76 0.6 40.1606
17.592840000000002 5.18 0.58 22.3214
28.29636 4.38 0.58 40.1606
28.29636 4.36 0.58 40.1606
21.41664 4.2 0.58 28.6944
21.41664 4.18 0.58 28.6944
21.41664 4.12 0.58 28.6944
21.41664 4.1 0.58 28.6944
44.33376 3.66 0.58 66.8896
28.29636 3.16 0.58 40.1606
28.29636 3.08 0.58 40.1606
44.33376 2.82 0.58 66.8896
44.33376 2.3 0.58 66.8896
44.33376 0.66 0.58 66.8896
21.41664 -0.4 0.58 28.6944
17.592840000000002 -0.46 0.58 22.3214
17.592840000000002 -1.04 0.58 22.3214
13.4736 -2.04 0.58 15.456
28.29636 4.96 0.56 40.1606
28.29636 4.38 0.56 40.1606
28.29636 4.36 0.56 40.1606
21.41664 4.24 0.56 28.6944
21.41664 4.2 0.56 28.6944
21.41664 4.18 0.56 28.6944
21.41664 4.1 0.56 28.6944
28.29636 3.08 0.56 40.1606
44.33376 2.82 0.56 66.8896
21.41664 -0.4 0.56 28.6944
17.592840000000002 -1.02 0.56 22.3214
17.592840000000002 -1.04 0.56 22.3214
17.592840000000002 5.16 0.54 22.3214
28.29636 4.36 0.54 40.1606
21.41664 4.24 0.54 28.6944
21.41664 4.2 0.54 28.6944
21.41664 4.18 0.54 28.6944
21.41664 4.1 0.54 28.6944
44.33376 4.0 0.54 66.8896
28.29636 3.48 0.54 40.1606
28.29636 3.08 0.54 40.1606
44.33376 2.82 0.54 66.8896
44.33376 0.66 0.54 66.8896
44.33376 0.2 0.54 66.8896
21.41664 -0.38 0.54 28.6944
21.41664 -0.4 0.54 28.6944
17.592840000000002 -1.04 0.54 22.3214
11.29218 -2.38 0.54 11.8203
28.29636 4.36 0.52 40.1606
28.29636 3.54 0.52 40.1606
28.29636 3.18 0.52 40.1606
28.29636 3.08 0.52 40.1606
44.33376 2.82 0.52 66.8896
44.33376 0.66 0.52 66.8896
44.33376 0.52 0.52 66.8896
44.33376 0.2 0.52 66.8896
17.592840000000002 -1.04 0.52 22.3214
44.33376 -3.28 0.52 66.8896
28.29636 4.38 0.5 40.1606
28.29636 4.36 0.5 40.1606
28.29636 3.52 0.5 40.1606
28.29636 3.3 0.5 40.1606
28.29636 3.18 0.5 40.1606
28.29636 3.08 0.5 40.1606
44.33376 0.52 0.5 66.8896
17.592840000000002 -1.04 0.5 22.3214
28.29636 4.38 0.48 40.1606
28.29636 4.36 0.48 40.1606
21.41664 4.18 0.48 28.6944
28.29636 3.5 0.48 40.1606
28.29636 3.18 0.48 40.1606
28.29636 3.08 0.48 40.1606
44.33376 0.52 0.48 66.8896
28.29636 -0.58 0.48 40.1606
17.592840000000002 -1.04 0.48 22.3214
21.41664 -4.62 0.48 28.6944
21.41664 -4.64 0.48 28.6944
21.41664 -4.66 0.48 28.6944
17.592840000000002 -4.72 0.48 22.3214
15.15888 -4.8 0.48 18.2648
13.4736 -4.86 0.48 15.456
28.29636 4.38 0.46 40.1606
28.29636 4.36 0.46 40.1606
21.41664 4.18 0.46 28.6944
21.41664 4.06 0.46 28.6944
28.29636 3.18 0.46 40.1606
28.29636 3.1 0.46 40.1606
28.29636 3.08 0.46 40.1606
44.33376 1.58 0.46 66.8896
28.29636 -1.94 0.46 40.1606
28.29636 -4.58 0.46 40.1606
21.41664 -4.64 0.46 28.6944
21.41664 -4.66 0.46 28.6944
17.592840000000002 -4.74 0.46 22.3214
17.592840000000002 -4.76 0.46 22.3214
15.15888 -4.8 0.46 18.2648
13.4736 -4.86 0.46 15.456
28.29636 4.36 0.44 40.1606
28.29636 4.24 0.44 40.1606
21.41664 4.18 0.44 28.6944
21.41664 4.06 0.44 28.6944
21.41664 3.94 0.44 28.6944
28.29636 3.18 0.44 40.1606
28.29636 3.08 0.44 40.1606
44.33376 1.58 0.44 66.8896
44.33376 -3.36 0.44 66.8896
28.29636 -4.58 0.44 40.1606
21.41664 -4.66 0.44 28.6944
21.41664 -4.68 0.44 28.6944
17.592840000000002 -4.74 0.44 22.3214
17.592840000000002 -4.76 0.44 22.3214
15.15888 -4.8 0.44 18.2648
13.4736 -4.86 0.44 15.456
28.29636 4.36 0.42 40.1606
28.29636 4.24 0.42 40.1606
21.41664 4.18 0.42 28.6944
21.41664 4.06 0.42 28.6944
28.29636 3.2 0.42 40.1606
28.29636 3.08 0.42 40.1606
28.29636 3.06 0.42 40.1606
44.33376 1.58 0.42 66.8896
17.592840000000002 -1.04 0.42 22.3214
44.33376 -3.36 0.42 66.8896
28.29636 -4.6 0.42 40.1606
21.41664 -4.68 0.42 28.6944
17.592840000000002 -4.76 0.42 22.3214
15.15888 -4.8 0.42 18.2648
11.29218 -5.0 0.42 11.8203
28.29636 4.38 0.4 40.1606
28.29636 4.36 0.4 40.1606
28.29636 4.24 0.4 40.1606
21.41664 4.18 0.4 28.6944
21.41664 4.06 0.4 28.6944
44.33376 3.8 0.4 66.8896
44.33376 3.58 0.4 66.8896
44.33376 3.56 0.4 66.8896
44.33376 1.58 0.4 66.8896
44.33376 1.14 0.4 66.8896
44.33376 -3.36 0.4 66.8896
28.29636 -4.6 0.4 40.1606
21.41664 5.54 0.38 28.6944
28.29636 4.38 0.38 40.1606
28.29636 4.36 0.38 40.1606
28.29636 4.24 0.38 40.1606
21.41664 4.18 0.38 28.6944
21.41664 4.06 0.38 28.6944
44.33376 3.56 0.38 66.8896
44.33376 2.98 0.38 66.8896
44.33376 2.96 0.38 66.8896
44.33376 2.3 0.38 66.8896
44.33376 1.58 0.38 66.8896
44.33376 1.14 0.38 66.8896
15.15888 -4.8 0.38 18.2648
28.29636 4.84 0.36 40.1606
28.29636 4.36 0.36 40.1606
28.29636 4.24 0.36 40.1606
21.41664 4.18 0.36 28.6944
21.41664 4.06 0.36 28.6944
21.41664 3.94 0.36 28.6944
44.33376 3.6 0.36 66.8896
44.33376 3.56 0.36 66.8896
44.33376 3.52 0.36 66.8896
44.33376 2.96 0.36 66.8896
44.33376 2.34 0.36 66.8896
44.33376 2.3 0.36 66.8896
44.33376 1.58 0.36 66.8896
44.33376 1.14 0.36 66.8896
28.29636 -0.38 0.36 40.1606
17.592840000000002 -0.7 0.36 22.3214
15.15888 -4.8 0.36 18.2648
28.29636 4.38 0.34 40.1606
28.29636 4.36 0.34 40.1606
28.29636 4.24 0.34 40.1606
21.41664 4.18 0.34 28.6944
21.41664 4.06 0.34 28.6944
21.41664 3.96 0.34 28.6944
21.41664 3.94 0.34 28.6944
44.33376 3.5 0.34 66.8896
44.33376 3.48 0.34 66.8896
44.33376 2.98 0.34 66.8896
44.33376 2.96 0.34 66.8896
44.33376 2.62 0.34 66.8896
44.33376 2.34 0.34 66.8896
44.33376 2.3 0.34 66.8896
124.19999999999999 1.64 0.34 200.0
44.33376 1.58 0.34 66.8896
44.33376 1.14 0.34 66.8896
44.33376 0.92 0.34 66.8896
124.19999999999999 -0.26 0.34 200.0
28.29636 -0.38 0.34 40.1606
17.592840000000002 -0.7 0.34 22.3214
17.592840000000002 -4.72 0.34 22.3214
17.592840000000002 -4.74 0.34 22.3214
17.592840000000002 -4.76 0.34 22.3214
15.15888 -4.8 0.34 18.2648
13.4736 -4.86 0.34 15.456
21.41664 5.76 0.32 28.6944
44.33376 4.44 0.32 66.8896
44.33376 4.42 0.32 66.8896
21.41664 4.18 0.32 28.6944
21.41664 4.06 0.32 28.6944
44.33376 2.98 0.32 66.8896
44.33376 2.96 0.32 66.8896
44.33376 2.78 0.32 66.8896
44.33376 2.62 0.32 66.8896
44.33376 2.3 0.32 66.8896
44.33376 1.58 0.32 66.8896
44.33376 1.14 0.32 66.8896
44.33376 0.92 0.32 66.8896
124.19999999999999 -0.26 0.32 200.0
17.592840000000002 -1.0 0.32 22.3214
12.23748 -1.2 0.32 13.3958
28.29636 -4.58 0.32 40.1606
28.29636 -4.6 0.32 40.1606
28.29636 -4.62 0.32 40.1606
21.41664 -4.64 0.32 28.6944
21.41664 -4.66 0.32 28.6944
21.41664 -4.68 0.32 28.6944
17.592840000000002 -4.72 0.32 22.3214
17.592840000000002 -4.74 0.32 22.3214
17.592840000000002 -4.76 0.32 22.3214
15.15888 -4.8 0.32 18.2648
13.4736 -4.86 0.32 15.456
21.41664 5.6 0.3 28.6944
44.33376 4.44 0.3 66.8896
44.33376 4.42 0.3 66.8896
28.29636 4.38 0.3 40.1606
21.41664 4.18 0.3 28.6944
21.41664 4.06 0.3 28.6944
44.33376 2.98 0.3 66.8896
44.33376 2.78 0.3 66.8896
44.33376 2.62 0.3 66.8896
44.33376 2.3 0.3 66.8896
124.19999999999999 1.64 0.3 200.0
44.33376 1.58 0.3 66.8896
44.33376 1.24 0.3 66.8896
44.33376 1.14 0.3 66.8896
44.33376 0.92 0.3 66.8896
17.592840000000002 -1.0 0.3 22.3214
17.592840000000002 -1.02 0.3 22.3214
12.23748 -1.2 0.3 13.3958
124.19999999999999 -4.46 0.3 200.0
44.33376 -4.52 0.3 66.8896
28.29636 -4.58 0.3 40.1606
28.29636 -4.6 0.3 40.1606
21.41664 -4.66 0.3 28.6944
17.592840000000002 -4.76 0.3 22.3214
15.15888 -4.8 0.3 18.2648
13.4736 -4.86 0.3 15.456
28.29636 4.38 0.28 40.1606
28.29636 4.36 0.28 40.1606
21.41664 4.18 0.28 28.6944
21.41664 4.06 0.28 28.6944
44.33376 2.98 0.28 66.8896
44.33376 2.96 0.28 66.8896
44.33376 2.78 0.28 66.8896
44.33376 2.3 0.28 66.8896
124.19999999999999 1.64 0.28 200.0
44.33376 1.58 0.28 66.8896
44.33376 1.14 0.28 66.8896
44.33376 0.92 0.28 66.8896
17.592840000000002 -1.0 0.28 22.3214
17.592840000000002 -1.02 0.28 22.3214
12.23748 -1.2 0.28 13.3958
44.33376 -3.44 0.28 66.8896
28.29636 -4.58 0.28 40.1606
21.41664 -4.68 0.28 28.6944
17.592840000000002 -4.76 0.28 22.3214
15.15888 -4.8 0.28 18.2648
28.29636 4.38 0.26 40.1606
21.41664 4.18 0.26 28.6944
21.41664 4.06 0.26 28.6944
21.41664 3.94 0.26 28.6944
44.33376 3.02 0.26 66.8896
44.33376 2.98 0.26 66.8896
44.33376 2.96 0.26 66.8896
44.33376 2.78 0.26 66.8896
44.33376 2.62 0.26 66.8896
124.19999999999999 1.64 0.26 200.0
44.33376 1.58 0.26 66.8896
44.33376 1.24 0.26 66.8896
44.33376 1.14 0.26 66.8896
44.33376 0.92 0.26 66.8896
17.592840000000002 -1.02 0.26 22.3214
44.33376 -3.44 0.26 66.8896
124.19999999999999 -4.46 0.26 200.0
28.29636 -4.58 0.26 40.1606
28.29636 -4.6 0.26 40.1606
21.41664 -4.64 0.26 28.6944
15.15888 -4.8 0.26 18.2648
28.29636 4.38 0.24 40.1606
21.41664 4.18 0.24 28.6944
21.41664 4.06 0.24 28.6944
21.41664 3.94 0.24 28.6944
44.33376 2.98 0.24 66.8896
44.33376 2.96 0.24 66.8896
44.33376 2.78 0.24 66.8896
44.33376 2.62 0.24 66.8896
44.33376 2.3 0.24 66.8896
44.33376 1.86 0.24 66.8896
44.33376 1.24 0.24 66.8896
44.33376 1.14 0.24 66.8896
44.33376 0.92 0.24 66.8896
124.19999999999999 -0.26 0.24 200.0
17.592840000000002 -1.02 0.24 22.3214
15.15888 -1.1 0.24 18.2648
15.15888 -1.14 0.24 18.2648
44.33376 -3.44 0.24 66.8896
28.29636 -4.58 0.24 40.1606
21.41664 -4.66 0.24 28.6944
21.41664 -4.68 0.24 28.6944
17.592840000000002 -4.72 0.24 22.3214
17.592840000000002 -4.74 0.24 22.3214
28.29636 4.38 0.22 40.1606
28.29636 4.36 0.22 40.1606
21.41664 4.18 0.22 28.6944
21.41664 4.06 0.22 28.6944
28.29636 3.04 0.22 40.1606
44.33376 2.98 0.22 66.8896
44.33376 2.78 0.22 66.8896
44.33376 2.62 0.22 66.8896
124.19999999999999 2.34 0.22 200.0
124.19999999999999 2.3 0.22 200.0
44.33376 1.24 0.22 66.8896
44.33376 1.14 0.22 66.8896
44.33376 0.92 0.22 66.8896
124.19999999999999 -0.26 0.22 200.0
44.33376 -0.32 0.22 66.8896
17.592840000000002 -1.02 0.22 22.3214
44.33376 -3.44 0.22 66.8896
124.19999999999999 -4.46 0.22 200.0
28.29636 -4.58 0.22 40.1606
21.41664 -4.64 0.22 28.6944
21.41664 -4.66 0.22 28.6944
21.41664 -4.68 0.22 28.6944
17.592840000000002 -4.72 0.22 22.3214
17.592840000000002 -4.74 0.22 22.3214
28.29636 4.38 0.2 40.1606
21.41664 4.18 0.2 28.6944
21.41664 4.06 0.2 28.6944
28.29636 3.22 0.2 40.1606
28.29636 3.04 0.2 40.1606
44.33376 2.98 0.2 66.8896
44.33376 2.96 0.2 66.8896
44.33376 2.78 0.2 66.8896
44.33376 2.62 0.2 66.8896
124.19999999999999 2.34 0.2 200.0
44.33376 0.92 0.2 66.8896
17.592840000000002 -1.0 0.2 22.3214
44.33376 -3.44 0.2 66.8896
124.19999999999999 -4.46 0.2 200.0
124.19999999999999 -4.48 0.2 200.0
21.41664 -4.64 0.2 28.6944
21.41664 -4.66 0.2 28.6944
17.592840000000002 -4.72 0.2 22.3214
28.29636 4.38 0.18 40.1606
21.41664 4.18 0.18 28.6944
21.41664 4.06 0.18 28.6944
28.29636 3.22 0.18 40.1606
44.33376 2.98 0.18 66.8896
44.33376 2.78 0.18 66.8896
44.33376 2.62 0.18 66.8896
44.33376 0.92 0.18 66.8896
44.33376 -3.42 0.18 66.8896
124.19999999999999 -4.48 0.18 200.0
21.41664 -4.64 0.18 28.6944
21.41664 -4.66 0.18 28.6944
17.592840000000002 -4.72 0.18 22.3214
28.29636 4.38 0.16 40.1606
28.29636 4.36 0.16 40.1606
28.29636 3.08 0.16 40.1606
44.33376 2.98 0.16 66.8896
17.592840000000002 -4.72 0.16 22.3214
28.29636 5.66 0.14 40.1606
28.29636 5.64 0.14 40.1606
28.29636 4.38 0.14 40.1606
44.33376 2.98 0.14 66.8896
44.33376 2.76 0.14 66.8896
28.29636 5.64 0.12 40.1606
28.29636 4.38 0.12 40.1606
21.41664 4.18 0.12 28.6944
21.41664 4.12 0.12 28.6944
44.33376 2.98 0.12 66.8896
44.33376 2.76 0.12 66.8896
44.33376 0.56 0.12 66.8896
11.29218 -1.26 0.12 11.8203
44.33376 -3.46 0.12 66.8896
28.29636 4.38 0.1 40.1606
21.41664 4.18 0.1 28.6944
21.41664 4.12 0.1 28.6944
44.33376 2.98 0.1 66.8896
44.33376 2.76 0.1 66.8896
15.15888 -1.06 0.1 18.2648
15.15888 -1.08 0.1 18.2648
11.29218 -1.26 0.1 11.8203
44.33376 -3.46 0.1 66.8896
28.29636 4.38 0.08 40.1606
21.41664 4.12 0.08 28.6944
28.29636 3.12 0.08 40.1606
124.19999999999999 0.32 0.08 200.0
15.15888 -1.06 0.08 18.2648
15.15888 -1.08 0.08 18.2648
28.29636 -1.88 0.08 40.1606
44.33376 -3.46 0.08 66.8896
21.41664 5.72 0.06 28.6944
28.29636 4.82 0.06 40.1606
28.29636 4.38 0.06 40.1606
21.41664 4.18 0.06 28.6944
21.41664 4.12 0.06 28.6944
28.29636 3.22 0.06 40.1606
28.29636 3.12 0.06 40.1606
124.19999999999999 0.32 0.06 200.0
15.15888 -1.06 0.06 18.2648
15.15888 -1.08 0.06 18.2648
44.33376 -3.46 0.06 66.8896
28.29636 4.38 0.04 40.1606
21.41664 4.18 0.04 28.6944
21.41664 4.12 0.04 28.6944
