VERSION .7
FIELDS x y z rgb
SIZE 4 4 4 4
TYPE F F F F
COUNT 1 1 1 1
WIDTH 1560
HEIGHT 1
VIEWPOINT 0 0 0 1 0 0 0
POINTS 1560
DATA ascii
28.29636 -2.94 2.78 40.1606
21.41664 -3.02 2.78 28.6944
11.29218 -6.46 2.78 11.8203
17.592840000000002 5.72 2.76 22.3214
17.592840000000002 5.7 2.76 22.3214
17.592840000000002 5.26 2.76 22.3214
28.29636 4.7 2.76 40.1606
21.41664 3.38 2.76 28.6944
28.29636 3.2 2.76 40.1606
28.29636 3.18 2.76 40.1606
28.29636 0.94 2.76 40.1606
21.41664 -0.02 2.76 28.6944
17.592840000000002 -0.1 2.76 22.3214
15.15888 -0.16 2.76 18.2648
10.54584 -0.42 2.76 10.5764
17.592840000000002 -0.64 2.76 22.3214
44.33376 -0.9 2.76 66.8896
17.592840000000002 -1.06 2.76 22.3214
28.29636 -1.96 2.76 40.1606
17.592840000000002 -2.08 2.76 22.3214
17.592840000000002 -2.1 2.76 22.3214
11.29218 -6.46 2.76 11.8203
17.592840000000002 5.72 2.74 22.3214
17.592840000000002 5.7 2.74 22.3214
17.592840000000002 5.66 2.74 22.3214
17.592840000000002 5.36 2.74 22.3214
17.592840000000002 5.34 2.74 22.3214
17.592840000000002 5.24 2.74 22.3214
17.592840000000002 5.22 2.74 22.3214
28.29636 4.7 2.74 40.1606
28.29636 3.74 2.74 40.1606
21.41664 3.52 2.74 28.6944
21.41664 3.38 2.74 28.6944
28.29636 3.24 2.74 40.1606
28.29636 3.18 2.74 40.1606
17.592840000000002 1.3 2.74 22.3214
21.41664 1.14 2.74 28.6944
28.29636 0.9 2.74 40.1606
17.592840000000002 -0.12 2.74 22.3214
15.15888 -0.16 2.74 18.2648
15.15888 -0.18 2.74 18.2648
17.592840000000002 -0.64 2.74 22.3214
44.33376 -0.9 2.74 66.8896
17.592840000000002 -1.04 2.74 22.3214
17.592840000000002 -2.04 2.74 22.3214
21.41664 -2.98 2.74 28.6944
17.592840000000002 5.36 2.72 22.3214
17.592840000000002 5.24 2.72 22.3214
17.592840000000002 5.22 2.72 22.3214
28.29636 4.7 2.72 40.1606
28.29636 3.74 2.72 40.1606
28.29636 3.22 2.72 40.1606
28.29636 3.18 2.72 40.1606
28.29636 3.16 2.72 40.1606
17.592840000000002 1.32 2.72 22.3214
17.592840000000002 1.3 2.72 22.3214
21.41664 1.16 2.72 28.6944
10.54584 0.44 2.72 10.5764
28.29636 0.02 2.72 40.1606
21.41664 -0.04 2.72 28.6944
17.592840000000002 -0.12 2.72 22.3214
15.15888 -0.18 2.72 18.2648
17.592840000000002 -1.04 2.72 22.3214
28.29636 -1.94 2.72 40.1606
17.592840000000002 -2.02 2.72 22.3214
21.41664 -2.96 2.72 28.6944
17.592840000000002 5.72 2.7 22.3214
17.592840000000002 5.62 2.7 22.3214
17.592840000000002 5.24 2.7 22.3214
17.592840000000002 5.22 2.7 22.3214
28.29636 4.7 2.7 40.1606
28.29636 3.74 2.7 40.1606
21.41664 3.4 2.7 28.6944
28.29636 3.16 2.7 40.1606
21.41664 -0.04 2.7 28.6944
17.592840000000002 -0.12 2.7 22.3214
15.15888 -0.44 2.7 18.2648
28.29636 -0.54 2.7 40.1606
17.592840000000002 -0.66 2.7 22.3214
11.29218 -0.94 2.7 11.8203
17.592840000000002 -1.02 2.7 22.3214
124.19999999999999 -1.8 2.7 200.0
28.29636 -1.9 2.7 40.1606
17.592840000000002 -2.0 2.7 22.3214
17.592840000000002 -2.02 2.7 22.3214
21.41664 -2.96 2.7 28.6944
17.592840000000002 5.74 2.68 22.3214
17.592840000000002 5.72 2.68 22.3214
17.592840000000002 5.7 2.68 22.3214
17.592840000000002 5.62 2.68 22.3214
17.592840000000002 5.4 2.68 22.3214
17.592840000000002 5.36 2.68 22.3214
17.592840000000002 5.28 2.68 22.3214
17.592840000000002 5.24 2.68 22.3214
17.592840000000002 5.22 2.68 22.3214
28.29636 4.7 2.68 40.1606
21.41664 3.4 2.68 28.6944
21.41664 3.38 2.68 28.6944
28.29636 3.18 2.68 40.1606
28.29636 3.16 2.68 40.1606
17.592840000000002 0.94 2.68 22.3214
17.592840000000002 0.66 2.68 22.3214
21.41664 -0.06 2.68 28.6944
17.592840000000002 -0.14 2.68 22.3214
15.15888 -0.42 2.68 18.2648
15.15888 -0.44 2.68 18.2648
28.29636 -0.54 2.68 40.1606
17.592840000000002 -0.66 2.68 22.3214
15.15888 -0.74 2.68 18.2648
11.29218 -0.94 2.68 11.8203
17.592840000000002 -1.0 2.68 22.3214
17.592840000000002 -1.98 2.68 22.3214
21.41664 -2.92 2.68 28.6944
17.592840000000002 5.72 2.66 22.3214
17.592840000000002 5.62 2.66 22.3214
17.592840000000002 5.58 2.66 22.3214
21.41664 5.3 2.66 28.6944
17.592840000000002 5.24 2.66 22.3214
17.592840000000002 5.22 2.66 22.3214
28.29636 4.7 2.66 40.1606
28.29636 3.74 2.66 40.1606
21.41664 3.38 2.66 28.6944
28.29636 3.18 2.66 40.1606
28.29636 3.16 2.66 40.1606
21.41664 1.22 2.66 28.6944
21.41664 1.2 2.66 28.6944
17.592840000000002 0.42 2.66 22.3214
21.41664 -0.06 2.66 28.6944
17.592840000000002 -0.14 2.66 22.3214
13.4736 -0.28 2.66 15.456
15.15888 -0.42 2.66 18.2648
28.29636 -0.54 2.66 40.1606
17.592840000000002 -0.68 2.66 22.3214
15.15888 -0.74 2.66 18.2648
11.29218 -0.94 2.66 11.8203
17.592840000000002 -1.0 2.66 22.3214
17.592840000000002 -1.98 2.66 22.3214
17.592840000000002 5.62 2.64 22.3214
17.592840000000002 5.58 2.64 22.3214
17.592840000000002 5.24 2.64 22.3214
17.592840000000002 5.22 2.64 22.3214
28.29636 4.7 2.64 40.1606
28.29636 3.74 2.64 40.1606
21.41664 3.42 2.64 28.6944
21.41664 3.36 2.64 28.6944
28.29636 3.16 2.64 40.1606
15.15888 1.44 2.64 18.2648
21.41664 -0.06 2.64 28.6944
21.41664 -0.08 2.64 28.6944
13.4736 -0.28 2.64 15.456
15.15888 -0.4 2.64 18.2648
17.592840000000002 -0.68 2.64 22.3214
15.15888 -0.74 2.64 18.2648
17.592840000000002 -1.98 2.64 22.3214
8.665944 -2.5 2.64 7.44324
17.592840000000002 5.74 2.62 22.3214
17.592840000000002 5.64 2.62 22.3214
17.592840000000002 5.62 2.62 22.3214
17.592840000000002 5.58 2.62 22.3214
17.592840000000002 5.42 2.62 22.3214
17.592840000000002 5.4 2.62 22.3214
17.592840000000002 5.24 2.62 22.3214
17.592840000000002 5.22 2.62 22.3214
28.29636 4.7 2.62 40.1606
28.29636 3.74 2.62 40.1606
28.29636 3.16 2.62 40.1606
15.15888 1.44 2.62 18.2648
13.4736 0.58 2.62 15.456
17.592840000000002 0.4 2.62 22.3214
21.41664 -0.08 2.62 28.6944
17.592840000000002 -0.16 2.62 22.3214
17.592840000000002 -0.18 2.62 22.3214
28.29636 -0.56 2.62 40.1606
17.592840000000002 -0.68 2.62 22.3214
17.592840000000002 -0.96 2.62 22.3214
15.15888 -1.02 2.62 18.2648
17.592840000000002 -1.92 2.62 22.3214
15.15888 -1.98 2.62 18.2648
28.29636 5.86 2.6 40.1606
17.592840000000002 5.78 2.6 22.3214
17.592840000000002 5.64 2.6 22.3214
17.592840000000002 5.62 2.6 22.3214
17.592840000000002 5.6 2.6 22.3214
17.592840000000002 5.4 2.6 22.3214
17.592840000000002 5.24 2.6 22.3214
17.592840000000002 5.22 2.6 22.3214
28.29636 4.7 2.6 40.1606
28.29636 3.74 2.6 40.1606
28.29636 3.42 2.6 40.1606
124.19999999999999 3.28 2.6 200.0
28.29636 3.16 2.6 40.1606
124.19999999999999 1.16 2.6 200.0
13.4736 0.56 2.6 15.456
21.41664 -0.08 2.6 28.6944
17.592840000000002 -0.16 2.6 22.3214
17.592840000000002 -0.68 2.6 22.3214
44.33376 -0.76 2.6 66.8896
17.592840000000002 -0.94 2.6 22.3214
17.592840000000002 -0.96 2.6 22.3214
15.15888 -1.02 2.6 18.2648
17.592840000000002 -1.88 2.6 22.3214
17.592840000000002 -1.9 2.6 22.3214
21.41664 -2.3 2.6 28.6944
9.023147999999999 -2.42 2.6 8.03858
17.592840000000002 5.8 2.58 22.3214
17.592840000000002 5.42 2.58 22.3214
17.592840000000002 5.24 2.58 22.3214
28.29636 4.7 2.58 40.1606
28.29636 3.76 2.58 40.1606
28.29636 3.16 2.58 40.1606
17.592840000000002 1.48 2.58 22.3214
21.41664 0.24 2.58 28.6944
17.592840000000002 -0.18 2.58 22.3214
28.29636 -0.56 2.58 40.1606
17.592840000000002 -0.68 2.58 22.3214
17.592840000000002 -0.7 2.58 22.3214
44.33376 -0.76 2.58 66.8896
17.592840000000002 -0.94 2.58 22.3214
28.29636 -1.76 2.58 40.1606
17.592840000000002 -1.86 2.58 22.3214
17.592840000000002 -1.88 2.58 22.3214
21.41664 -2.3 2.58 28.6944
28.29636 5.88 2.56 40.1606
17.592840000000002 5.8 2.56 22.3214
17.592840000000002 5.74 2.56 22.3214
17.592840000000002 5.44 2.56 22.3214
17.592840000000002 5.42 2.56 22.3214
17.592840000000002 5.24 2.56 22.3214
28.29636 4.7 2.56 40.1606
28.29636 3.76 2.56 40.1606
21.41664 3.4 2.56 28.6944
124.19999999999999 3.26 2.56 200.0
28.29636 3.16 2.56 40.1606
17.592840000000002 1.52 2.56 22.3214
17.592840000000002 1.48 2.56 22.3214
21.41664 0.68 2.56 28.6944
13.4736 0.54 2.56 15.456
21.41664 -0.1 2.56 28.6944
17.592840000000002 -0.18 2.56 22.3214
28.29636 -0.56 2.56 40.1606
44.33376 -0.7 2.56 66.8896
44.33376 -0.76 2.56 66.8896
17.592840000000002 -0.92 2.56 22.3214
17.592840000000002 -0.94 2.56 22.3214
13.4736 -1.02 2.56 15.456
13.4736 -1.04 2.56 15.456
28.29636 -1.74 2.56 40.1606
17.592840000000002 -1.86 2.56 22.3214
17.592840000000002 5.82 2.54 22.3214
17.592840000000002 5.8 2.54 22.3214
17.592840000000002 5.76 2.54 22.3214
17.592840000000002 5.44 2.54 22.3214
17.592840000000002 5.34 2.54 22.3214
17.592840000000002 5.32 2.54 22.3214
17.592840000000002 5.26 2.54 22.3214
17.592840000000002 5.24 2.54 22.3214
17.592840000000002 5.16 2.54 22.3214
28.29636 4.7 2.54 40.1606
28.29636 3.76 2.54 40.1606
21.41664 3.38 2.54 28.6944
28.29636 3.18 2.54 40.1606
28.29636 3.16 2.54 40.1606
21.41664 1.3 2.54 28.6944
21.41664 0.72 2.54 28.6944
21.41664 0.66 2.54 28.6944
15.15888 0.58 2.54 18.2648
13.4736 0.52 2.54 15.456
124.19999999999999 0.1 2.54 200.0
28.29636 -0.2 2.54 40.1606
28.29636 -0.56 2.54 40.1606
124.19999999999999 -0.68 2.54 200.0
44.33376 -0.7 2.54 66.8896
44.33376 -0.74 2.54 66.8896
17.592840000000002 -0.92 2.54 22.3214
13.4736 -1.02 2.54 15.456
13.4736 -1.04 2.54 15.456
28.29636 -1.74 2.54 40.1606
17.592840000000002 -1.86 2.54 22.3214
9.023147999999999 -2.4 2.54 8.03858
8.358006 -2.54 2.54 6.93001
44.33376 -2.82 2.54 66.8896
44.33376 -6.02 2.54 66.8896
17.592840000000002 5.82 2.52 22.3214
17.592840000000002 5.8 2.52 22.3214
17.592840000000002 5.7 2.52 22.3214
17.592840000000002 5.44 2.52 22.3214
17.592840000000002 5.32 2.52 22.3214
17.592840000000002 5.24 2.52 22.3214
17.592840000000002 5.16 2.52 22.3214
28.29636 4.7 2.52 40.1606
28.29636 3.18 2.52 40.1606
21.41664 0.72 2.52 28.6944
21.41664 0.68 2.52 28.6944
21.41664 -0.12 2.52 28.6944
28.29636 -0.2 2.52 40.1606
21.41664 -0.26 2.52 28.6944
17.592840000000002 -0.32 2.52 22.3214
28.29636 -0.56 2.52 40.1606
124.19999999999999 -0.68 2.52 200.0
44.33376 -0.74 2.52 66.8896
17.592840000000002 -0.9 2.52 22.3214
17.592840000000002 -0.92 2.52 22.3214
13.4736 -1.02 2.52 15.456
21.41664 -1.8 2.52 28.6944
8.358006 -2.54 2.52 6.93001
21.41664 -2.72 2.52 28.6944
44.33376 -6.02 2.52 66.8896
44.33376 5.94 2.5 66.8896
17.592840000000002 5.82 2.5 22.3214
17.592840000000002 5.68 2.5 22.3214
17.592840000000002 5.44 2.5 22.3214
17.592840000000002 5.24 2.5 22.3214
17.592840000000002 5.16 2.5 22.3214
28.29636 4.7 2.5 40.1606
28.29636 3.18 2.5 40.1606
124.19999999999999 0.88 2.5 200.0
28.29636 0.66 2.5 40.1606
17.592840000000002 0.5 2.5 22.3214
124.19999999999999 0.08 2.5 200.0
28.29636 -0.2 2.5 40.1606
17.592840000000002 -0.3 2.5 22.3214
28.29636 -0.58 2.5 40.1606
124.19999999999999 -0.68 2.5 200.0
17.592840000000002 -0.9 2.5 22.3214
13.4736 -1.02 2.5 15.456
21.41664 -1.2 2.5 28.6944
44.33376 -1.66 2.5 66.8896
21.41664 -1.78 2.5 28.6944
17.592840000000002 -1.8 2.5 22.3214
17.592840000000002 -2.7 2.5 22.3214
17.592840000000002 5.82 2.48 22.3214
17.592840000000002 5.5 2.48 22.3214
17.592840000000002 5.44 2.48 22.3214
17.592840000000002 5.42 2.48 22.3214
17.592840000000002 5.3 2.48 22.3214
17.592840000000002 5.24 2.48 22.3214
17.592840000000002 5.16 2.48 22.3214
28.29636 4.7 2.48 40.1606
28.29636 3.2 2.48 40.1606
28.29636 3.18 2.48 40.1606
44.33376 0.6 2.48 66.8896
21.41664 0.54 2.48 28.6944
17.592840000000002 0.5 2.48 22.3214
17.592840000000002 0.48 2.48 22.3214
15.15888 0.42 2.48 18.2648
21.41664 -0.24 2.48 28.6944
17.592840000000002 -0.3 2.48 22.3214
10.54584 -0.58 2.48 10.5764
124.19999999999999 -0.68 2.48 200.0
17.592840000000002 -0.9 2.48 22.3214
13.4736 -1.02 2.48 15.456
17.592840000000002 -1.78 2.48 22.3214
17.592840000000002 -2.68 2.48 22.3214
17.592840000000002 5.84 2.46 22.3214
17.592840000000002 5.82 2.46 22.3214
28.29636 5.76 2.46 40.1606
28.29636 5.74 2.46 40.1606
17.592840000000002 5.66 2.46 22.3214
17.592840000000002 5.6 2.46 22.3214
17.592840000000002 5.5 2.46 22.3214
17.592840000000002 5.48 2.46 22.3214
17.592840000000002 5.3 2.46 22.3214
17.592840000000002 5.28 2.46 22.3214
17.592840000000002 5.16 2.46 22.3214
17.592840000000002 5.14 2.46 22.3214
28.29636 4.7 2.46 40.1606
28.29636 3.74 2.46 40.1606
28.29636 3.2 2.46 40.1606
28.29636 3.18 2.46 40.1606
28.29636 3.16 2.46 40.1606
44.33376 0.64 2.46 66.8896
21.41664 0.54 2.46 28.6944
15.15888 0.4 2.46 18.2648
21.41664 0.26 2.46 28.6944
21.41664 -0.24 2.46 28.6944
17.592840000000002 -0.3 2.46 22.3214
124.19999999999999 -0.68 2.46 200.0
17.592840000000002 -0.9 2.46 22.3214
13.4736 -1.02 2.46 15.456
44.33376 -1.64 2.46 66.8896
17.592840000000002 -1.78 2.46 22.3214
17.592840000000002 -2.66 2.46 22.3214
17.592840000000002 -2.68 2.46 22.3214
44.33376 -2.84 2.46 66.8896
11.29218 -5.72 2.46 11.8203
17.592840000000002 5.66 2.44 22.3214
17.592840000000002 5.6 2.44 22.3214
17.592840000000002 5.16 2.44 22.3214
28.29636 4.7 2.44 40.1606
28.29636 3.74 2.44 40.1606
28.29636 3.2 2.44 40.1606
44.33376 0.64 2.44 66.8896
15.15888 0.4 2.44 18.2648
21.41664 0.26 2.44 28.6944
17.592840000000002 -0.28 2.44 22.3214
17.592840000000002 -1.76 2.44 22.3214
13.4736 -1.96 2.44 15.456
17.592840000000002 -2.66 2.44 22.3214
44.33376 -2.84 2.44 66.8896
12.23748 -5.3 2.44 13.3958
11.29218 -5.72 2.44 11.8203
11.29218 -5.74 2.44 11.8203
17.592840000000002 5.82 2.42 22.3214
17.592840000000002 5.4 2.42 22.3214
17.592840000000002 5.2 2.42 22.3214
17.592840000000002 5.18 2.42 22.3214
28.29636 4.7 2.42 40.1606
28.29636 3.72 2.42 40.1606
21.41664 0.5 2.42 28.6944
21.41664 0.38 2.42 28.6944
21.41664 0.24 2.42 28.6944
28.29636 -0.16 2.42 40.1606
17.592840000000002 -0.28 2.42 22.3214
15.15888 -0.94 2.42 18.2648
17.592840000000002 -1.7 2.42 22.3214
13.4736 -1.96 2.42 15.456
12.23748 -2.04 2.42 13.3958
12.23748 -5.3 2.42 13.3958
17.592840000000002 5.62 2.4 22.3214
17.592840000000002 5.24 2.4 22.3214
17.592840000000002 5.18 2.4 22.3214
28.29636 4.7 2.4 40.1606
28.29636 3.72 2.4 40.1606
21.41664 3.42 2.4 28.6944
21.41664 3.4 2.4 28.6944
28.29636 -0.16 2.4 40.1606
17.592840000000002 -0.28 2.4 22.3214
17.592840000000002 -0.3 2.4 22.3214
15.15888 -0.92 2.4 18.2648
15.15888 -0.94 2.4 18.2648
15.15888 -1.9 2.4 18.2648
13.4736 -1.96 2.4 15.456
12.23748 -2.04 2.4 13.3958
44.33376 -2.86 2.4 66.8896
44.33376 5.76 2.38 66.8896
17.592840000000002 5.64 2.38 22.3214
17.592840000000002 5.62 2.38 22.3214
17.592840000000002 5.46 2.38 22.3214
17.592840000000002 5.3 2.38 22.3214
17.592840000000002 5.18 2.38 22.3214
28.29636 4.7 2.38 40.1606
28.29636 3.72 2.38 40.1606
21.41664 3.38 2.38 28.6944
28.29636 3.16 2.38 40.1606
21.41664 0.9 2.38 28.6944
44.33376 0.36 2.38 66.8896
28.29636 -0.16 2.38 40.1606
17.592840000000002 -0.28 2.38 22.3214
17.592840000000002 -0.3 2.38 22.3214
11.29218 -0.56 2.38 11.8203
15.15888 -0.92 2.38 18.2648
13.4736 -1.0 2.38 15.456
17.592840000000002 -1.64 2.38 22.3214
21.41664 -1.74 2.38 28.6944
21.41664 -1.76 2.38 28.6944
15.15888 -1.9 2.38 18.2648
44.33376 -2.84 2.38 66.8896
44.33376 -2.86 2.38 66.8896
17.592840000000002 5.66 2.36 22.3214
17.592840000000002 5.64 2.36 22.3214
17.592840000000002 5.3 2.36 22.3214
17.592840000000002 5.18 2.36 22.3214
28.29636 4.7 2.36 40.1606
28.29636 3.72 2.36 40.1606
21.41664 3.6 2.36 28.6944
28.29636 3.22 2.36 40.1606
28.29636 3.18 2.36 40.1606
21.41664 0.9 2.36 28.6944
44.33376 0.36 2.36 66.8896
17.592840000000002 0.2 2.36 22.3214
28.29636 -0.16 2.36 40.1606
13.4736 -1.0 2.36 15.456
28.29636 -1.52 2.36 40.1606
17.592840000000002 -1.62 2.36 22.3214
21.41664 -1.76 2.36 28.6944
15.15888 -1.94 2.36 18.2648
12.23748 -2.02 2.36 13.3958
15.15888 -2.58 2.36 18.2648
44.33376 -2.84 2.36 66.8896
44.33376 5.78 2.34 66.8896
17.592840000000002 5.66 2.34 22.3214
17.592840000000002 5.46 2.34 22.3214
17.592840000000002 5.2 2.34 22.3214
17.592840000000002 5.18 2.34 22.3214
28.29636 4.7 2.34 40.1606
28.29636 3.72 2.34 40.1606
28.29636 3.7 2.34 40.1606
21.41664 3.6 2.34 28.6944
21.41664 3.58 2.34 28.6944
28.29636 3.5 2.34 40.1606
28.29636 3.22 2.34 40.1606
28.29636 3.2 2.34 40.1606
44.33376 0.34 2.34 66.8896
44.33376 0.3 2.34 66.8896
44.33376 -0.92 2.34 66.8896
17.592840000000002 -1.1 2.34 22.3214
44.33376 -1.62 2.34 66.8896
21.41664 -1.74 2.34 28.6944
15.15888 -1.88 2.34 18.2648
21.41664 -1.94 2.34 28.6944
17.592840000000002 -2.5 2.34 22.3214
15.15888 -2.56 2.34 18.2648
15.15888 -2.58 2.34 18.2648
44.33376 -2.84 2.34 66.8896
44.33376 -2.86 2.34 66.8896
17.592840000000002 5.66 2.32 22.3214
17.592840000000002 5.42 2.32 22.3214
17.592840000000002 5.38 2.32 22.3214
17.592840000000002 5.2 2.32 22.3214
17.592840000000002 5.18 2.32 22.3214
28.29636 4.72 2.32 40.1606
28.29636 4.7 2.32 40.1606
28.29636 3.7 2.32 40.1606
21.41664 3.6 2.32 28.6944
21.41664 3.58 2.32 28.6944
28.29636 3.38 2.32 40.1606
28.29636 3.22 2.32 40.1606
28.29636 3.2 2.32 40.1606
44.33376 0.34 2.32 66.8896
17.592840000000002 -0.32 2.32 22.3214
17.592840000000002 -0.34 2.32 22.3214
44.33376 -0.92 2.32 66.8896
17.592840000000002 -1.1 2.32 22.3214
44.33376 -1.58 2.32 66.8896
44.33376 -1.62 2.32 66.8896
21.41664 -1.74 2.32 28.6944
28.29636 -2.38 2.32 40.1606
17.592840000000002 -2.48 2.32 22.3214
44.33376 -2.86 2.32 66.8896
44.33376 -6.1 2.32 66.8896
44.33376 5.78 2.3 66.8896
17.592840000000002 5.66 2.3 22.3214
44.33376 5.56 2.3 66.8896
44.33376 5.54 2.3 66.8896
17.592840000000002 5.4 2.3 22.3214
17.592840000000002 5.38 2.3 22.3214
17.592840000000002 5.22 2.3 22.3214
17.592840000000002 5.2 2.3 22.3214
17.592840000000002 5.18 2.3 22.3214
28.29636 4.72 2.3 40.1606
28.29636 4.7 2.3 40.1606
28.29636 3.7 2.3 40.1606
28.29636 3.22 2.3 40.1606
15.15888 0.06 2.3 18.2648
124.19999999999999 -0.06 2.3 200.0
17.592840000000002 -0.34 2.3 22.3214
17.592840000000002 -1.56 2.3 22.3214
44.33376 -1.6 2.3 66.8896
44.33376 -2.3 2.3 66.8896
17.592840000000002 -2.46 2.3 22.3214
44.33376 -2.88 2.3 66.8896
17.592840000000002 5.9 2.28 22.3214
17.592840000000002 5.66 2.28 22.3214
17.592840000000002 5.4 2.28 22.3214
17.592840000000002 5.32 2.28 22.3214
17.592840000000002 5.22 2.28 22.3214
28.29636 4.72 2.28 40.1606
28.29636 4.7 2.28 40.1606
44.33376 3.64 2.28 66.8896
44.33376 3.62 2.28 66.8896
21.41664 3.56 2.28 28.6944
28.29636 3.22 2.28 40.1606
17.592840000000002 -0.34 2.28 22.3214
13.4736 -0.48 2.28 15.456
12.23748 -0.56 2.28 13.3958
15.15888 -0.98 2.28 18.2648
28.29636 -1.42 2.28 40.1606
17.592840000000002 -1.52 2.28 22.3214
44.33376 -1.6 2.28 66.8896
124.19999999999999 -1.72 2.28 200.0
44.33376 -2.28 2.28 66.8896
17.592840000000002 -2.44 2.28 22.3214
44.33376 -6.04 2.28 66.8896
17.592840000000002 5.28 2.26 22.3214
17.592840000000002 5.22 2.26 22.3214
44.33376 4.98 2.26 66.8896
28.29636 4.72 2.26 40.1606
28.29636 4.7 2.26 40.1606
28.29636 3.72 2.26 40.1606
28.29636 3.42 2.26 40.1606
28.29636 3.26 2.26 40.1606
28.29636 3.24 2.26 40.1606
28.29636 3.22 2.26 40.1606
21.41664 0.16 2.26 28.6944
15.15888 0.02 2.26 18.2648
44.33376 -0.16 2.26 66.8896
17.592840000000002 -0.34 2.26 22.3214
17.592840000000002 -0.36 2.26 22.3214
13.4736 -0.48 2.26 15.456
12.23748 -0.56 2.26 13.3958
12.23748 -0.58 2.26 13.3958
15.15888 -0.96 2.26 18.2648
15.15888 -0.98 2.26 18.2648
28.29636 -1.38 2.26 40.1606
17.592840000000002 -1.5 2.26 22.3214
17.592840000000002 -1.52 2.26 22.3214
17.592840000000002 -1.54 2.26 22.3214
15.15888 -2.04 2.26 18.2648
44.33376 -2.72 2.26 66.8896
44.33376 -2.88 2.26 66.8896
44.33376 -6.04 2.26 66.8896
17.592840000000002 5.94 2.24 22.3214
17.592840000000002 5.28 2.24 22.3214
44.33376 4.98 2.24 66.8896
44.33376 4.96 2.24 66.8896
28.29636 4.72 2.24 40.1606
28.29636 4.7 2.24 40.1606
28.29636 3.7 2.24 40.1606
28.29636 3.4 2.24 40.1606
28.29636 3.26 2.24 40.1606
28.29636 3.24 2.24 40.1606
21.41664 0.16 2.24 28.6944
15.15888 0.02 2.24 18.2648
15.15888 0.0 2.24 18.2648
124.19999999999999 -0.08 2.24 200.0
44.33376 -0.16 2.24 66.8896
44.33376 -0.18 2.24 66.8896
17.592840000000002 -0.36 2.24 22.3214
12.23748 -0.58 2.24 13.3958
15.15888 -0.96 2.24 18.2648
15.15888 -0.98 2.24 18.2648
17.592840000000002 -1.48 2.24 22.3214
21.41664 -1.9 2.24 28.6944
124.19999999999999 -2.18 2.24 200.0
15.15888 -2.48 2.24 18.2648
44.33376 -2.88 2.24 66.8896
44.33376 -2.9 2.24 66.8896
10.54584 -5.46 2.24 10.5764
17.592840000000002 5.94 2.22 22.3214
17.592840000000002 5.86 2.22 22.3214
17.592840000000002 5.78 2.22 22.3214
17.592840000000002 5.68 2.22 22.3214
17.592840000000002 5.32 2.22 22.3214
17.592840000000002 5.3 2.22 22.3214
44.33376 5.14 2.22 66.8896
44.33376 4.92 2.22 66.8896
28.29636 4.7 2.22 40.1606
28.29636 3.28 2.22 40.1606
124.19999999999999 -0.08 2.22 200.0
44.33376 -0.18 2.22 66.8896
17.592840000000002 -0.38 2.22 22.3214
12.23748 -0.58 2.22 13.3958
15.15888 -0.96 2.22 18.2648
17.592840000000002 -1.46 2.22 22.3214
17.592840000000002 -1.48 2.22 22.3214
124.19999999999999 -1.7 2.22 200.0
21.41664 -1.9 2.22 28.6944
21.41664 -2.36 2.22 28.6944
21.41664 -2.38 2.22 28.6944
15.15888 -2.48 2.22 18.2648
44.33376 -2.9 2.22 66.8896
44.33376 -2.96 2.22 66.8896
11.29218 -5.38 2.22 11.8203
10.54584 -5.46 2.22 10.5764
44.33376 -6.44 2.22 66.8896
17.592840000000002 5.94 2.2 22.3214
17.592840000000002 5.88 2.2 22.3214
17.592840000000002 5.86 2.2 22.3214
17.592840000000002 5.68 2.2 22.3214
17.592840000000002 5.66 2.2 22.3214
17.592840000000002 5.32 2.2 22.3214
17.592840000000002 5.3 2.2 22.3214
44.33376 5.12 2.2 66.8896
44.33376 5.02 2.2 66.8896
44.33376 4.9 2.2 66.8896
28.29636 4.72 2.2 40.1606
28.29636 4.7 2.2 40.1606
28.29636 3.28 2.2 40.1606
44.33376 -0.16 2.2 66.8896
44.33376 -0.18 2.2 66.8896
28.29636 -0.26 2.2 40.1606
17.592840000000002 -0.4 2.2 22.3214
15.15888 -0.94 2.2 18.2648
15.15888 -0.96 2.2 18.2648
17.592840000000002 -1.44 2.2 22.3214
17.592840000000002 -1.46 2.2 22.3214
17.592840000000002 -1.52 2.2 22.3214
124.19999999999999 -1.7 2.2 200.0
21.41664 -2.34 2.2 28.6944
15.15888 -2.46 2.2 18.2648
11.29218 -5.38 2.2 11.8203
44.33376 -6.28 2.2 66.8896
44.33376 -6.44 2.2 66.8896
17.592840000000002 5.94 2.18 22.3214
17.592840000000002 5.88 2.18 22.3214
17.592840000000002 5.86 2.18 22.3214
17.592840000000002 5.26 2.18 22.3214
44.33376 5.2 2.18 66.8896
44.33376 5.04 2.18 66.8896
28.29636 4.72 2.18 40.1606
28.29636 4.7 2.18 40.1606
21.41664 3.68 2.18 28.6944
28.29636 3.32 2.18 40.1606
28.29636 3.22 2.18 40.1606
17.592840000000002 0.94 2.18 22.3214
124.19999999999999 -0.1 2.18 200.0
44.33376 -0.18 2.18 66.8896
28.29636 -0.26 2.18 40.1606
17.592840000000002 -0.4 2.18 22.3214
13.4736 -0.58 2.18 15.456
15.15888 -0.94 2.18 18.2648
15.15888 -0.96 2.18 18.2648
17.592840000000002 -1.42 2.18 22.3214
17.592840000000002 -1.44 2.18 22.3214
21.41664 -1.86 2.18 28.6944
21.41664 -2.34 2.18 28.6944
15.15888 -2.46 2.18 18.2648
44.33376 -2.92 2.18 66.8896
44.33376 -5.72 2.18 66.8896
44.33376 -6.14 2.18 66.8896
44.33376 -6.28 2.18 66.8896
17.592840000000002 5.94 2.16 22.3214
17.592840000000002 5.86 2.16 22.3214
17.592840000000002 5.34 2.16 22.3214
17.592840000000002 5.26 2.16 22.3214
44.33376 5.2 2.16 66.8896
28.29636 4.72 2.16 40.1606
28.29636 4.7 2.16 40.1606
21.41664 3.4 2.16 28.6944
28.29636 3.26 2.16 40.1606
17.592840000000002 0.96 2.16 22.3214
28.29636 0.16 2.16 40.1606
44.33376 -0.18 2.16 66.8896
17.592840000000002 -0.42 2.16 22.3214
13.4736 -0.56 2.16 15.456
15.15888 -0.94 2.16 18.2648
15.15888 -0.96 2.16 18.2648
8.665944 -1.04 2.16 7.44324
17.592840000000002 -1.38 2.16 22.3214
17.592840000000002 -1.4 2.16 22.3214
124.19999999999999 -1.68 2.16 200.0
21.41664 -2.3 2.16 28.6944
21.41664 -2.32 2.16 28.6944
17.592840000000002 5.86 2.14 22.3214
17.592840000000002 5.66 2.14 22.3214
17.592840000000002 5.34 2.14 22.3214
124.19999999999999 4.82 2.14 200.0
28.29636 4.72 2.14 40.1606
28.29636 4.7 2.14 40.1606
21.41664 3.4 2.14 28.6944
28.29636 3.28 2.14 40.1606
28.29636 3.26 2.14 40.1606
17.592840000000002 0.98 2.14 22.3214
28.29636 -0.32 2.14 40.1606
17.592840000000002 -0.42 2.14 22.3214
13.4736 -0.56 2.14 15.456
15.15888 -0.94 2.14 18.2648
17.592840000000002 -1.38 2.14 22.3214
44.33376 -1.72 2.14 66.8896
17.592840000000002 5.66 2.12 22.3214
17.592840000000002 5.38 2.12 22.3214
17.592840000000002 5.36 2.12 22.3214
17.592840000000002 5.34 2.12 22.3214
124.19999999999999 4.78 2.12 200.0
28.29636 4.72 2.12 40.1606
21.41664 3.4 2.12 28.6944
44.33376 3.34 2.12 66.8896
28.29636 3.28 2.12 40.1606
28.29636 3.26 2.12 40.1606
124.19999999999999 -0.18 2.12 200.0
17.592840000000002 -0.44 2.12 22.3214
13.4736 -0.56 2.12 15.456
15.15888 -0.94 2.12 18.2648
17.592840000000002 -1.36 2.12 22.3214
17.592840000000002 -1.38 2.12 22.3214
44.33376 -1.72 2.12 66.8896
17.592840000000002 -2.26 2.12 22.3214
44.33376 -2.94 2.12 66.8896
44.33376 -6.1 2.12 66.8896
44.33376 -6.5 2.12 66.8896
17.592840000000002 5.9 2.1 22.3214
17.592840000000002 5.82 2.1 22.3214
17.592840000000002 5.8 2.1 22.3214
17.592840000000002 5.72 2.1 22.3214
17.592840000000002 5.38 2.1 22.3214
17.592840000000002 5.36 2.1 22.3214
44.33376 4.98 2.1 66.8896
124.19999999999999 4.82 2.1 200.0
28.29636 4.72 2.1 40.1606
44.33376 3.34 2.1 66.8896
44.33376 3.32 2.1 66.8896
17.592840000000002 -0.1 2.1 22.3214
124.19999999999999 -0.18 2.1 200.0
28.29636 -0.32 2.1 40.1606
17.592840000000002 -0.44 2.1 22.3214
17.592840000000002 -0.46 2.1 22.3214
15.15888 -0.94 2.1 18.2648
28.29636 -1.24 2.1 40.1606
17.592840000000002 -1.34 2.1 22.3214
17.592840000000002 -1.36 2.1 22.3214
44.33376 -1.7 2.1 66.8896
17.592840000000002 -2.26 2.1 22.3214
44.33376 -2.7 2.1 66.8896
17.592840000000002 5.94 2.08 22.3214
17.592840000000002 5.82 2.08 22.3214
17.592840000000002 5.72 2.08 22.3214
17.592840000000002 5.38 2.08 22.3214
17.592840000000002 5.36 2.08 22.3214
44.33376 4.98 2.08 66.8896
28.29636 4.72 2.08 40.1606
21.41664 3.62 2.08 28.6944
28.29636 3.54 2.08 40.1606
28.29636 3.22 2.08 40.1606
124.19999999999999 -0.18 2.08 200.0
17.592840000000002 -0.46 2.08 22.3214
15.15888 -0.94 2.08 18.2648
15.15888 -0.98 2.08 18.2648
28.29636 -1.22 2.08 40.1606
28.29636 -1.24 2.08 40.1606
17.592840000000002 -1.34 2.08 22.3214
44.33376 -1.7 2.08 66.8896
44.33376 -2.7 2.08 66.8896
44.33376 -2.92 2.08 66.8896
28.29636 -3.04 2.08 40.1606
17.592840000000002 5.82 2.06 22.3214
44.33376 5.52 2.06 66.8896
17.592840000000002 5.36 2.06 22.3214
124.19999999999999 4.78 2.06 200.0
28.29636 4.72 2.06 40.1606
28.29636 3.22 2.06 40.1606
28.29636 0.0 2.06 40.1606
124.19999999999999 -0.2 2.06 200.0
28.29636 -0.34 2.06 40.1606
17.592840000000002 -0.48 2.06 22.3214
15.15888 -0.94 2.06 18.2648
28.29636 -1.22 2.06 40.1606
17.592840000000002 -1.32 2.06 22.3214
17.592840000000002 -1.34 2.06 22.3214
44.33376 -2.24 2.06 66.8896
44.33376 -2.9 2.06 66.8896
44.33376 -2.92 2.06 66.8896
28.29636 -3.0 2.06 40.1606
44.33376 -6.36 2.06 66.8896
17.592840000000002 5.82 2.04 22.3214
17.592840000000002 5.36 2.04 22.3214
28.29636 4.72 2.04 40.1606
28.29636 4.7 2.04 40.1606
44.33376 3.3 2.04 66.8896
44.33376 3.28 2.04 66.8896
28.29636 3.22 2.04 40.1606
28.29636 0.0 2.04 40.1606
124.19999999999999 -0.2 2.04 200.0
28.29636 -0.34 2.04 40.1606
17.592840000000002 -0.48 2.04 22.3214
21.41664 -0.56 2.04 28.6944
21.41664 -1.02 2.04 28.6944
28.29636 -1.2 2.04 40.1606
17.592840000000002 -1.3 2.04 22.3214
17.592840000000002 -1.32 2.04 22.3214
44.33376 -2.9 2.04 66.8896
44.33376 -2.92 2.04 66.8896
17.592840000000002 5.7 2.02 22.3214
124.19999999999999 5.58 2.02 200.0
17.592840000000002 5.36 2.02 22.3214
124.19999999999999 -0.2 2.02 200.0
17.592840000000002 -0.5 2.02 22.3214
17.592840000000002 -0.52 2.02 22.3214
17.592840000000002 -1.3 2.02 22.3214
17.592840000000002 -1.32 2.02 22.3214
21.41664 -1.76 2.02 28.6944
15.15888 -1.9 2.02 18.2648
44.33376 -2.98 2.02 66.8896
17.592840000000002 5.36 2.0 22.3214
28.29636 5.3 2.0 40.1606
28.29636 5.22 2.0 40.1606
28.29636 4.72 2.0 40.1606
28.29636 3.22 2.0 40.1606
28.29636 -0.36 2.0 40.1606
17.592840000000002 -0.52 2.0 22.3214
21.41664 -1.02 2.0 28.6944
28.29636 -1.18 2.0 40.1606
17.592840000000002 -1.28 2.0 22.3214
21.41664 -1.76 2.0 28.6944
15.15888 -1.9 2.0 18.2648
17.592840000000002 -2.14 2.0 22.3214
44.33376 -2.98 2.0 66.8896
44.33376 -5.82 2.0 66.8896
17.592840000000002 5.7 1.98 22.3214
28.29636 5.24 1.98 40.1606
28.29636 5.22 1.98 40.1606
28.29636 4.76 1.98 40.1606
28.29636 4.72 1.98 40.1606
44.33376 4.56 1.98 66.8896
44.33376 4.54 1.98 66.8896
28.29636 3.68 1.98 40.1606
28.29636 3.66 1.98 40.1606
28.29636 3.22 1.98 40.1606
15.15888 0.0 1.98 18.2648
17.592840000000002 -0.22 1.98 22.3214
17.592840000000002 -0.24 1.98 22.3214
17.592840000000002 -0.88 1.98 22.3214
17.592840000000002 -0.9 1.98 22.3214
21.41664 -1.02 1.98 28.6944
28.29636 -1.16 1.98 40.1606
17.592840000000002 -1.26 1.98 22.3214
17.592840000000002 -1.28 1.98 22.3214
44.33376 -1.64 1.98 66.8896
21.41664 -1.76 1.98 28.6944
15.15888 -1.9 1.98 18.2648
17.592840000000002 -2.12 1.98 22.3214
44.33376 -2.96 1.98 66.8896
44.33376 -2.98 1.98 66.8896
17.592840000000002 5.52 1.96 22.3214
28.29636 5.24 1.96 40.1606
44.33376 4.56 1.96 66.8896
44.33376 4.54 1.96 66.8896
44.33376 4.42 1.96 66.8896
28.29636 3.66 1.96 40.1606
28.29636 3.24 1.96 40.1606
28.29636 3.22 1.96 40.1606
17.592840000000002 -0.42 1.96 22.3214
17.592840000000002 -0.86 1.96 22.3214
17.592840000000002 -0.9 1.96 22.3214
21.41664 -1.02 1.96 28.6944
28.29636 -1.14 1.96 40.1606
17.592840000000002 -1.26 1.96 22.3214
21.41664 -1.76 1.96 28.6944
44.33376 -2.98 1.96 66.8896
44.33376 -3.04 1.96 66.8896
17.592840000000002 5.8 1.94 22.3214
17.592840000000002 5.62 1.94 22.3214
28.29636 5.28 1.94 40.1606
44.33376 4.54 1.94 66.8896
44.33376 4.42 1.94 66.8896
28.29636 3.58 1.94 40.1606
28.29636 3.24 1.94 40.1606
21.41664 0.64 1.94 28.6944
124.19999999999999 -0.06 1.94 200.0
17.592840000000002 -0.42 1.94 22.3214
124.19999999999999 -0.58 1.94 200.0
17.592840000000002 -0.86 1.94 22.3214
17.592840000000002 -0.9 1.94 22.3214
44.33376 -1.02 1.94 66.8896
28.29636 -1.14 1.94 40.1606
17.592840000000002 -1.24 1.94 22.3214
21.41664 -1.76 1.94 28.6944
21.41664 -2.04 1.94 28.6944
21.41664 -2.06 1.94 28.6944
44.33376 -2.98 1.94 66.8896
44.33376 -5.46 1.94 66.8896
17.592840000000002 5.82 1.92 22.3214
17.592840000000002 5.7 1.92 22.3214
28.29636 5.34 1.92 40.1606
17.592840000000002 5.32 1.92 22.3214
17.592840000000002 5.28 1.92 22.3214
28.29636 5.14 1.92 40.1606
44.33376 4.58 1.92 66.8896
28.29636 3.56 1.92 40.1606
28.29636 3.54 1.92 40.1606
28.29636 3.24 1.92 40.1606
124.19999999999999 -0.08 1.92 200.0
17.592840000000002 -0.34 1.92 22.3214
17.592840000000002 -0.44 1.92 22.3214
17.592840000000002 -0.88 1.92 22.3214
44.33376 -1.02 1.92 66.8896
28.29636 -1.12 1.92 40.1606
17.592840000000002 -1.22 1.92 22.3214
28.29636 -1.68 1.92 40.1606
21.41664 -2.04 1.92 28.6944
12.23748 -2.2 1.92 13.3958
44.33376 -2.7 1.92 66.8896
44.33376 -3.0 1.92 66.8896
28.29636 5.14 1.9 40.1606
28.29636 3.54 1.9 40.1606
28.29636 3.24 1.9 40.1606
44.33376 -0.24 1.9 66.8896
17.592840000000002 -0.44 1.9 22.3214
15.15888 -0.88 1.9 18.2648
13.4736 -0.96 1.9 15.456
44.33376 -1.04 1.9 66.8896
28.29636 -1.1 1.9 40.1606
17.592840000000002 -1.2 1.9 22.3214
17.592840000000002 -1.22 1.9 22.3214
44.33376 -2.98 1.9 66.8896
17.592840000000002 5.94 1.88 22.3214
17.592840000000002 5.64 1.88 22.3214
17.592840000000002 5.54 1.88 22.3214
17.592840000000002 5.28 1.88 22.3214
28.29636 5.14 1.88 40.1606
44.33376 4.98 1.88 66.8896
44.33376 4.6 1.88 66.8896
44.33376 4.44 1.88 66.8896
44.33376 4.42 1.88 66.8896
28.29636 3.54 1.88 40.1606
28.29636 3.3 1.88 40.1606
28.29636 3.2 1.88 40.1606
124.19999999999999 0.12 1.88 200.0
15.15888 -0.88 1.88 18.2648
44.33376 -1.02 1.88 66.8896
28.29636 -1.08 1.88 40.1606
17.592840000000002 -1.18 1.88 22.3214
17.592840000000002 -1.2 1.88 22.3214
12.23748 -2.18 1.88 13.3958
44.33376 -2.96 1.88 66.8896
17.592840000000002 5.94 1.86 22.3214
17.592840000000002 5.88 1.86 22.3214
17.592840000000002 5.54 1.86 22.3214
28.29636 5.18 1.86 40.1606
28.29636 5.16 1.86 40.1606
44.33376 4.98 1.86 66.8896
44.33376 4.62 1.86 66.8896
44.33376 4.42 1.86 66.8896
44.33376 4.4 1.86 66.8896
28.29636 3.3 1.86 40.1606
28.29636 3.16 1.86 40.1606
17.592840000000002 -0.28 1.86 22.3214
15.15888 -0.88 1.86 18.2648
17.592840000000002 -1.18 1.86 22.3214
12.23748 -1.34 1.86 13.3958
124.19999999999999 -1.72 1.86 200.0
44.33376 -2.96 1.86 66.8896
44.33376 -5.08 1.86 66.8896
44.33376 -5.1 1.86 66.8896
44.33376 4.62 1.84 66.8896
44.33376 4.6 1.84 66.8896
44.33376 4.42 1.84 66.8896
44.33376 4.4 1.84 66.8896
21.41664 3.48 1.84 28.6944
21.41664 3.46 1.84 28.6944
28.29636 3.16 1.84 40.1606
17.592840000000002 -0.28 1.84 22.3214
17.592840000000002 -0.84 1.84 22.3214
17.592840000000002 -1.14 1.84 22.3214
17.592840000000002 -1.16 1.84 22.3214
12.23748 -1.34 1.84 13.3958
28.29636 -2.16 1.84 40.1606
44.33376 -2.96 1.84 66.8896
44.33376 -2.98 1.84 66.8896
17.592840000000002 5.84 1.82 22.3214
44.33376 5.04 1.82 66.8896
44.33376 4.58 1.82 66.8896
21.41664 3.46 1.82 28.6944
28.29636 3.16 1.82 40.1606
28.29636 3.14 1.82 40.1606
17.592840000000002 -0.84 1.82 22.3214
17.592840000000002 -1.14 1.82 22.3214
13.4736 -1.98 1.82 15.456
44.33376 -2.98 1.82 66.8896
28.29636 5.2 1.8 40.1606
28.29636 5.18 1.8 40.1606
44.33376 5.08 1.8 66.8896
44.33376 4.9 1.8 66.8896
44.33376 4.78 1.8 66.8896
44.33376 4.44 1.8 66.8896
21.41664 3.44 1.8 28.6944
28.29636 3.26 1.8 40.1606
17.592840000000002 -0.34 1.8 22.3214
17.592840000000002 -0.88 1.8 22.3214
17.592840000000002 -1.14 1.8 22.3214
17.592840000000002 -1.98 1.8 22.3214
44.33376 -2.96 1.8 66.8896
17.592840000000002 5.84 1.78 22.3214
17.592840000000002 5.62 1.78 22.3214
28.29636 5.3 1.78 40.1606
28.29636 5.2 1.78 40.1606
28.29636 5.18 1.78 40.1606
44.33376 4.96 1.78 66.8896
44.33376 4.9 1.78 66.8896
44.33376 4.46 1.78 66.8896
28.29636 3.8 1.78 40.1606
28.29636 3.78 1.78 40.1606
28.29636 3.26 1.78 40.1606
28.29636 3.16 1.78 40.1606
17.592840000000002 -0.38 1.78 22.3214
15.15888 -0.46 1.78 18.2648
15.15888 -0.82 1.78 18.2648
21.41664 -1.88 1.78 28.6944
17.592840000000002 -1.96 1.78 22.3214
11.29218 -2.14 1.78 11.8203
44.33376 -2.94 1.78 66.8896
44.33376 -2.96 1.78 66.8896
21.41664 -5.46 1.78 28.6944
17.592840000000002 5.84 1.76 22.3214
17.592840000000002 5.64 1.76 22.3214
17.592840000000002 5.62 1.76 22.3214
28.29636 5.3 1.76 40.1606
28.29636 5.2 1.76 40.1606
28.29636 5.18 1.76 40.1606
44.33376 4.46 1.76 66.8896
44.33376 4.36 1.76 66.8896
28.29636 3.24 1.76 40.1606
28.29636 3.16 1.76 40.1606
21.41664 -0.16 1.76 28.6944
17.592840000000002 -0.38 1.76 22.3214
15.15888 -0.46 1.76 18.2648
15.15888 -0.82 1.76 18.2648
21.41664 -1.08 1.76 28.6944
21.41664 -1.1 1.76 28.6944
15.15888 -1.8 1.76 18.2648
21.41664 -1.88 1.76 28.6944
17.592840000000002 -1.96 1.76 22.3214
44.33376 -2.92 1.76 66.8896
44.33376 -2.94 1.76 66.8896
17.592840000000002 5.84 1.74 22.3214
17.592840000000002 5.78 1.74 22.3214
28.29636 5.2 1.74 40.1606
44.33376 4.62 1.74 66.8896
44.33376 4.48 1.74 66.8896
44.33376 4.36 1.74 66.8896
28.29636 3.88 1.74 40.1606
21.41664 3.64 1.74 28.6944
28.29636 3.24 1.74 40.1606
28.29636 3.16 1.74 40.1606
15.15888 0.12 1.74 18.2648
21.41664 -0.16 1.74 28.6944
28.29636 -0.26 1.74 40.1606
28.29636 -0.28 1.74 40.1606
17.592840000000002 -0.38 1.74 22.3214
17.592840000000002 -0.78 1.74 22.3214
17.592840000000002 -0.8 1.74 22.3214
15.15888 -0.86 1.74 18.2648
21.41664 -1.08 1.74 28.6944
21.41664 -1.1 1.74 28.6944
15.15888 -1.8 1.74 18.2648
21.41664 -1.88 1.74 28.6944
17.592840000000002 -1.94 1.74 22.3214
11.29218 -2.14 1.74 11.8203
44.33376 -2.92 1.74 66.8896
44.33376 -3.0 1.74 66.8896
44.33376 -5.38 1.74 66.8896
17.592840000000002 5.9 1.72 22.3214
28.29636 5.2 1.72 40.1606
44.33376 5.08 1.72 66.8896
44.33376 4.94 1.72 66.8896
44.33376 4.48 1.72 66.8896
44.33376 4.36 1.72 66.8896
21.41664 3.88 1.72 28.6944
21.41664 3.6 1.72 28.6944
44.33376 3.3 1.72 66.8896
28.29636 3.28 1.72 40.1606
28.29636 3.24 1.72 40.1606
28.29636 3.16 1.72 40.1606
21.41664 -0.16 1.72 28.6944
28.29636 -0.28 1.72 40.1606
17.592840000000002 -0.5 1.72 22.3214
17.592840000000002 -0.76 1.72 22.3214
17.592840000000002 -0.78 1.72 22.3214
15.15888 -1.78 1.72 18.2648
15.15888 -1.94 1.72 18.2648
11.29218 -2.14 1.72 11.8203
44.33376 -2.68 1.72 66.8896
44.33376 -2.9 1.72 66.8896
44.33376 -2.92 1.72 66.8896
44.33376 -2.98 1.72 66.8896
17.592840000000002 5.64 1.7 22.3214
17.592840000000002 5.56 1.7 22.3214
28.29636 5.2 1.7 40.1606
44.33376 5.08 1.7 66.8896
44.33376 4.94 1.7 66.8896
44.33376 4.66 1.7 66.8896
44.33376 4.48 1.7 66.8896
28.29636 3.88 1.7 40.1606
28.29636 3.56 1.7 40.1606
28.29636 3.24 1.7 40.1606
17.592840000000002 0.18 1.7 22.3214
21.41664 -0.16 1.7 28.6944
28.29636 -0.28 1.7 40.1606
28.29636 -0.38 1.7 40.1606
124.19999999999999 -0.5 1.7 200.0
17.592840000000002 -0.76 1.7 22.3214
21.41664 -1.1 1.7 28.6944
44.33376 -1.66 1.7 66.8896
21.41664 -1.78 1.7 28.6944
15.15888 -1.94 1.7 18.2648
15.15888 -2.1 1.7 18.2648
124.19999999999999 -2.9 1.7 200.0
44.33376 -2.96 1.7 66.8896
44.33376 -2.98 1.7 66.8896
44.33376 -5.44 1.7 66.8896
17.592840000000002 5.82 1.68 22.3214
17.592840000000002 5.38 1.68 22.3214
21.41664 3.88 1.68 28.6944
21.41664 3.86 1.68 28.6944
28.29636 3.12 1.68 40.1606
28.29636 3.1 1.68 40.1606
124.19999999999999 -0.46 1.68 200.0
124.19999999999999 -0.5 1.68 200.0
17.592840000000002 -0.74 1.68 22.3214
17.592840000000002 -0.76 1.68 22.3214
44.33376 -0.88 1.68 66.8896
21.41664 -1.1 1.68 28.6944
21.41664 -1.12 1.68 28.6944
44.33376 -1.66 1.68 66.8896
21.41664 -1.78 1.68 28.6944
15.15888 -1.92 1.68 18.2648
15.15888 -1.94 1.68 18.2648
44.33376 -2.96 1.68 66.8896
17.592840000000002 5.82 1.66 22.3214
28.29636 5.22 1.66 40.1606
44.33376 5.04 1.66 66.8896
44.33376 4.4 1.66 66.8896
28.29636 3.88 1.66 40.1606
28.29636 3.74 1.66 40.1606
28.29636 3.12 1.66 40.1606
124.19999999999999 -0.5 1.66 200.0
17.592840000000002 -0.74 1.66 22.3214
17.592840000000002 -0.96 1.66 22.3214
21.41664 -1.12 1.66 28.6944
28.29636 -1.6 1.66 40.1606
44.33376 -1.64 1.66 66.8896
21.41664 -1.78 1.66 28.6944
17.592840000000002 -1.86 1.66 22.3214
15.15888 -2.08 1.66 18.2648
17.592840000000002 5.82 1.64 22.3214
28.29636 5.22 1.64 40.1606
44.33376 4.46 1.64 66.8896
28.29636 3.74 1.64 40.1606
28.29636 3.12 1.64 40.1606
124.19999999999999 -0.18 1.64 200.0
124.19999999999999 -0.5 1.64 200.0
44.33376 -0.76 1.64 66.8896
17.592840000000002 -0.92 1.64 22.3214
17.592840000000002 -0.94 1.64 22.3214
17.592840000000002 -0.96 1.64 22.3214
28.29636 -1.58 1.64 40.1606
44.33376 -1.64 1.64 66.8896
21.41664 -1.78 1.64 28.6944
12.23748 -2.08 1.64 13.3958
44.33376 -2.68 1.64 66.8896
44.33376 -3.0 1.64 66.8896
44.33376 -3.02 1.64 66.8896
17.592840000000002 5.82 1.62 22.3214
17.592840000000002 5.42 1.62 22.3214
124.19999999999999 5.28 1.62 200.0
28.29636 5.22 1.62 40.1606
28.29636 3.88 1.62 40.1606
28.29636 3.86 1.62 40.1606
21.41664 3.48 1.62 28.6944
28.29636 3.18 1.62 40.1606
28.29636 3.16 1.62 40.1606
124.19999999999999 -0.16 1.62 200.0
17.592840000000002 -0.4 1.62 22.3214
44.33376 -0.76 1.62 66.8896
17.592840000000002 -0.9 1.62 22.3214
17.592840000000002 -0.92 1.62 22.3214
28.29636 -1.58 1.62 40.1606
17.592840000000002 -1.86 1.62 22.3214
12.23748 -2.08 1.62 13.3958
44.33376 -2.68 1.62 66.8896
44.33376 -3.0 1.62 66.8896
17.592840000000002 5.82 1.6 22.3214
17.592840000000002 5.66 1.6 22.3214
44.33376 4.94 1.6 66.8896
44.33376 4.92 1.6 66.8896
28.29636 3.86 1.6 40.1606
21.41664 3.48 1.6 28.6944
21.41664 3.46 1.6 28.6944
28.29636 3.22 1.6 40.1606
28.29636 3.18 1.6 40.1606
28.29636 3.16 1.6 40.1606
28.29636 3.14 1.6 40.1606
17.592840000000002 -0.42 1.6 22.3214
44.33376 -0.76 1.6 66.8896
17.592840000000002 -0.88 1.6 22.3214
17.592840000000002 -0.9 1.6 22.3214
28.29636 -1.56 1.6 40.1606
44.33376 -1.64 1.6 66.8896
17.592840000000002 -1.86 1.6 22.3214
12.23748 -2.08 1.6 13.3958
44.33376 -2.98 1.6 66.8896
28.29636 5.36 1.58 40.1606
44.33376 4.92 1.58 66.8896
44.33376 4.44 1.58 66.8896
28.29636 3.86 1.58 40.1606
21.41664 3.46 1.58 28.6944
28.29636 3.14 1.58 40.1606
17.592840000000002 -0.42 1.58 22.3214
17.592840000000002 -0.86 1.58 22.3214
17.592840000000002 -0.88 1.58 22.3214
17.592840000000002 -0.94 1.58 22.3214
44.33376 -1.64 1.58 66.8896
21.41664 -1.78 1.58 28.6944
17.592840000000002 -1.86 1.58 22.3214
13.4736 -2.0 1.58 15.456
12.23748 -2.08 1.58 13.3958
44.33376 -2.96 1.58 66.8896
17.592840000000002 5.88 1.56 22.3214
28.29636 5.16 1.56 40.1606
44.33376 4.38 1.56 66.8896
44.33376 4.36 1.56 66.8896
28.29636 3.84 1.56 40.1606
21.41664 3.58 1.56 28.6944
28.29636 3.14 1.56 40.1606
124.19999999999999 -0.18 1.56 200.0
17.592840000000002 -0.84 1.56 22.3214
17.592840000000002 -0.86 1.56 22.3214
17.592840000000002 -1.5 1.56 22.3214
21.41664 -1.78 1.56 28.6944
17.592840000000002 -1.9 1.56 22.3214
15.15888 -2.0 1.56 18.2648
12.23748 -2.08 1.56 13.3958
44.33376 -2.96 1.56 66.8896
44.33376 -3.02 1.56 66.8896
17.592840000000002 5.86 1.54 22.3214
28.29636 5.18 1.54 40.1606
28.29636 5.16 1.54 40.1606
28.29636 4.82 1.54 40.1606
44.33376 4.38 1.54 66.8896
28.29636 3.84 1.54 40.1606
28.29636 3.72 1.54 40.1606
28.29636 3.18 1.54 40.1606
28.29636 3.14 1.54 40.1606
28.29636 -0.12 1.54 40.1606
124.19999999999999 -0.18 1.54 200.0
17.592840000000002 -0.82 1.54 22.3214
17.592840000000002 -0.84 1.54 22.3214
21.41664 -1.76 1.54 28.6944
17.592840000000002 -1.88 1.54 22.3214
13.4736 -2.04 1.54 15.456
44.33376 -2.96 1.54 66.8896
44.33376 -3.04 1.54 66.8896
17.592840000000002 5.62 1.52 22.3214
17.592840000000002 5.42 1.52 22.3214
44.33376 4.4 1.52 66.8896
44.33376 4.38 1.52 66.8896
44.33376 4.24 1.52 66.8896
28.29636 3.14 1.52 40.1606
28.29636 -0.12 1.52 40.1606
124.19999999999999 -0.18 1.52 200.0
17.592840000000002 -0.82 1.52 22.3214
17.592840000000002 -1.44 1.52 22.3214
17.592840000000002 -1.46 1.52 22.3214
44.33376 -1.8 1.52 66.8896
21.41664 -1.88 1.52 28.6944
15.15888 -2.04 1.52 18.2648
44.33376 -3.0 1.52 66.8896
17.592840000000002 5.94 1.5 22.3214
17.592840000000002 5.88 1.5 22.3214
44.33376 4.52 1.5 66.8896
44.33376 4.24 1.5 66.8896
44.33376 4.22 1.5 66.8896
28.29636 3.82 1.5 40.1606
28.29636 3.14 1.5 40.1606
28.29636 3.12 1.5 40.1606
17.592840000000002 -0.8 1.5 22.3214
17.592840000000002 -0.82 1.5 22.3214
124.19999999999999 -1.56 1.5 200.0
44.33376 -1.76 1.5 66.8896
17.592840000000002 -1.88 1.5 22.3214
17.592840000000002 -1.96 1.5 22.3214
15.15888 -2.04 1.5 18.2648
44.33376 -2.66 1.5 66.8896
44.33376 -3.0 1.5 66.8896
17.592840000000002 5.88 1.48 22.3214
44.33376 4.22 1.48 66.8896
28.29636 3.8 1.48 40.1606
28.29636 3.72 1.48 40.1606
28.29636 3.14 1.48 40.1606
28.29636 3.12 1.48 40.1606
17.592840000000002 -0.8 1.48 22.3214
17.592840000000002 -0.82 1.48 22.3214
17.592840000000002 -1.38 1.48 22.3214
124.19999999999999 -1.66 1.48 200.0
124.19999999999999 -1.68 1.48 200.0
21.41664 -1.86 1.48 28.6944
21.41664 -1.88 1.48 28.6944
17.592840000000002 -1.96 1.48 22.3214
15.15888 -2.02 1.48 18.2648
44.33376 -3.0 1.48 66.8896
44.33376 -4.32 1.48 66.8896
17.592840000000002 5.88 1.46 22.3214
28.29636 5.22 1.46 40.1606
44.33376 4.32 1.46 66.8896
28.29636 3.8 1.46 40.1606
28.29636 3.78 1.46 40.1606
28.29636 3.58 1.46 40.1606
28.29636 3.14 1.46 40.1606
28.29636 -0.12 1.46 40.1606
28.29636 -0.16 1.46 40.1606
17.592840000000002 -0.8 1.46 22.3214
17.592840000000002 -0.82 1.46 22.3214
15.15888 -2.02 1.46 18.2648
44.33376 -3.0 1.46 66.8896
44.33376 -3.02 1.46 66.8896
44.33376 -3.06 1.46 66.8896
17.592840000000002 5.9 1.44 22.3214
17.592840000000002 5.8 1.44 22.3214
44.33376 4.32 1.44 66.8896
28.29636 3.78 1.44 40.1606
28.29636 3.76 1.44 40.1606
124.19999999999999 3.26 1.44 200.0
124.19999999999999 3.24 1.44 200.0
124.19999999999999 3.22 1.44 200.0
28.29636 3.14 1.44 40.1606
21.41664 -0.12 1.44 28.6944
21.41664 -0.16 1.44 28.6944
17.592840000000002 -0.8 1.44 22.3214
17.592840000000002 -0.82 1.44 22.3214
17.592840000000002 -1.34 1.44 22.3214
21.41664 -1.86 1.44 28.6944
15.15888 -2.02 1.44 18.2648
44.33376 -3.0 1.44 66.8896
44.33376 -3.02 1.44 66.8896
28.29636 -3.14 1.44 40.1606
44.33376 4.34 1.42 66.8896
44.33376 4.2 1.42 66.8896
28.29636 3.76 1.42 40.1606
21.41664 3.38 1.42 28.6944
28.29636 3.16 1.42 40.1606
28.29636 3.14 1.42 40.1606
21.41664 -0.12 1.42 28.6944
21.41664 -0.16 1.42 28.6944
28.29636 -0.38 1.42 40.1606
17.592840000000002 -0.8 1.42 22.3214
17.592840000000002 -0.82 1.42 22.3214
124.19999999999999 -1.12 1.42 200.0
17.592840000000002 -1.34 1.42 22.3214
15.15888 -1.42 1.42 18.2648
21.41664 -1.86 1.42 28.6944
17.592840000000002 -1.94 1.42 22.3214
44.33376 -3.02 1.42 66.8896
28.29636 -3.1 1.42 40.1606
17.592840000000002 5.54 1.4 22.3214
44.33376 5.12 1.4 66.8896
44.33376 5.08 1.4 66.8896
44.33376 4.88 1.4 66.8896
44.33376 4.34 1.4 66.8896
44.33376 4.2 1.4 66.8896
28.29636 3.74 1.4 40.1606
21.41664 3.38 1.4 28.6944
28.29636 3.16 1.4 40.1606
28.29636 3.12 1.4 40.1606
21.41664 -0.16 1.4 28.6944
17.592840000000002 -0.82 1.4 22.3214
21.41664 -1.86 1.4 28.6944
17.592840000000002 -1.94 1.4 22.3214
15.15888 -2.0 1.4 18.2648
44.33376 -2.62 1.4 66.8896
44.33376 -3.02 1.4 66.8896
44.33376 -3.08 1.4 66.8896
44.33376 -3.1 1.4 66.8896
44.33376 4.88 1.38 66.8896
28.29636 4.82 1.38 40.1606
28.29636 3.16 1.38 40.1606
28.29636 3.14 1.38 40.1606
21.41664 -0.16 1.38 28.6944
17.592840000000002 -0.52 1.38 22.3214
17.592840000000002 -0.8 1.38 22.3214
21.41664 -1.26 1.38 28.6944
21.41664 -1.84 1.38 28.6944
17.592840000000002 -1.94 1.38 22.3214
44.33376 -3.08 1.38 66.8896
44.33376 5.02 1.36 66.8896
28.29636 4.82 1.36 40.1606
28.29636 3.76 1.36 40.1606
28.29636 3.74 1.36 40.1606
124.19999999999999 3.26 1.36 200.0
28.29636 3.16 1.36 40.1606
28.29636 3.14 1.36 40.1606
44.33376 1.96 1.36 66.8896
21.41664 -0.16 1.36 28.6944
17.592840000000002 -0.52 1.36 22.3214
17.592840000000002 -0.78 1.36 22.3214
21.41664 -1.26 1.36 28.6944
21.41664 -1.84 1.36 28.6944
15.15888 -2.0 1.36 18.2648
44.33376 -3.06 1.36 66.8896
44.33376 -3.08 1.36 66.8896
17.592840000000002 5.82 1.34 22.3214
44.33376 5.02 1.34 66.8896
44.33376 4.9 1.34 66.8896
28.29636 4.84 1.34 40.1606
28.29636 4.66 1.34 40.1606
44.33376 4.3 1.34 66.8896
28.29636 3.74 1.34 40.1606
124.19999999999999 3.26 1.34 200.0
124.19999999999999 3.24 1.34 200.0
124.19999999999999 3.22 1.34 200.0
28.29636 3.14 1.34 40.1606
21.41664 -0.16 1.34 28.6944
17.592840000000002 -0.52 1.34 22.3214
17.592840000000002 -0.8 1.34 22.3214
17.592840000000002 -0.82 1.34 22.3214
44.33376 -1.7 1.34 66.8896
21.41664 -1.84 1.34 28.6944
15.15888 -2.0 1.34 18.2648
17.592840000000002 5.82 1.32 22.3214
17.592840000000002 5.6 1.32 22.3214
44.33376 4.9 1.32 66.8896
21.41664 3.42 1.32 28.6944
44.33376 3.2 1.32 66.8896
28.29636 3.14 1.32 40.1606
28.29636 3.12 1.32 40.1606
28.29636 3.1 1.32 40.1606
44.33376 1.8 1.32 66.8896
21.41664 -0.16 1.32 28.6944
17.592840000000002 -0.52 1.32 22.3214
17.592840000000002 -0.8 1.32 22.3214
17.592840000000002 -0.82 1.32 22.3214
21.41664 -1.28 1.32 28.6944
44.33376 -1.7 1.32 66.8896
21.41664 -1.84 1.32 28.6944
28.29636 -1.94 1.32 40.1606
15.15888 -2.0 1.32 18.2648
13.4736 -2.06 1.32 15.456
17.592840000000002 5.82 1.3 22.3214
44.33376 4.92 1.3 66.8896
21.41664 3.4 1.3 28.6944
21.41664 3.38 1.3 28.6944
28.29636 3.12 1.3 40.1606
28.29636 3.1 1.3 40.1606
28.29636 3.08 1.3 40.1606
21.41664 -0.16 1.3 28.6944
124.19999999999999 -0.54 1.3 200.0
17.592840000000002 -0.8 1.3 22.3214
44.33376 -1.0 1.3 66.8896
21.41664 -1.28 1.3 28.6944
44.33376 -1.7 1.3 66.8896
21.41664 -1.84 1.3 28.6944
28.29636 -1.94 1.3 40.1606
13.4736 -2.04 1.3 15.456
44.33376 -3.06 1.3 66.8896
44.33376 -3.56 1.3 66.8896
17.592840000000002 5.94 1.28 22.3214
17.592840000000002 5.86 1.28 22.3214
28.29636 3.12 1.28 40.1606
28.29636 3.1 1.28 40.1606
21.41664 -0.16 1.28 28.6944
124.19999999999999 -0.54 1.28 200.0
17.592840000000002 -0.8 1.28 22.3214
44.33376 -1.0 1.28 66.8896
44.33376 -1.16 1.28 66.8896
44.33376 -1.7 1.28 66.8896
21.41664 -1.8 1.28 28.6944
21.41664 -1.82 1.28 28.6944
13.4736 -2.04 1.28 15.456
44.33376 -2.6 1.28 66.8896
44.33376 -3.06 1.28 66.8896
17.592840000000002 5.94 1.26 22.3214
17.592840000000002 5.86 1.26 22.3214
28.29636 4.84 1.26 40.1606
28.29636 3.08 1.26 40.1606
28.29636 3.06 1.26 40.1606
28.29636 3.04 1.26 40.1606
21.41664 -0.16 1.26 28.6944
28.29636 -0.4 1.26 40.1606
124.19999999999999 -0.54 1.26 200.0
17.592840000000002 -0.8 1.26 22.3214
44.33376 -0.98 1.26 66.8896
44.33376 -1.16 1.26 66.8896
44.33376 -1.7 1.26 66.8896
21.41664 -1.82 1.26 28.6944
44.33376 -1.92 1.26 66.8896
44.33376 -2.62 1.26 66.8896
44.33376 5.22 1.24 66.8896
44.33376 5.18 1.24 66.8896
28.29636 4.98 1.24 40.1606
28.29636 4.84 1.24 40.1606
28.29636 3.04 1.24 40.1606
21.41664 -0.16 1.24 28.6944
44.33376 -0.34 1.24 66.8896
124.19999999999999 -0.54 1.24 200.0
17.592840000000002 -0.8 1.24 22.3214
17.592840000000002 -1.1 1.24 22.3214
28.29636 -1.3 1.24 40.1606
44.33376 -1.7 1.24 66.8896
21.41664 -1.82 1.24 28.6944
44.33376 -2.62 1.24 66.8896
17.592840000000002 5.8 1.22 22.3214
17.592840000000002 5.78 1.22 22.3214
