VERSION .7
FIELDS x y z rgb
SIZE 4 4 4 4
TYPE F F F F
COUNT 1 1 1 1
WIDTH 830
HEIGHT 1
VIEWPOINT 0 0 0 1 0 0 0
POINTS 830
DATA ascii
16.666666666666668 -7.033333333333333 3.066666666666667 5000200.0
10.95648 -7.833333333333333 3.066666666666667 5000028.6944
11.338686666666668 -8.033333333333333 3.066666666666667 5000040.1606
11.338686666666668 -16.8 3.066666666666667 5000040.1606
10.95648 -16.9 3.066666666666667 5000028.6944
10.95648 2.7333333333333334 3.033333333333333 5000028.6944
10.95648 2.5 3.033333333333333 5000028.6944
10.95648 2.466666666666667 3.033333333333333 5000028.6944
11.338686666666668 1.2333333333333334 3.033333333333333 5000040.1606
11.338686666666668 1.0 3.033333333333333 5000040.1606
11.338686666666668 0.9666666666666667 3.033333333333333 5000040.1606
12.229653333333333 0.6 3.033333333333333 5000066.8896
12.229653333333333 0.5666666666666667 3.033333333333333 5000066.8896
10.608826666666667 0.3333333333333333 3.033333333333333 5000018.2648
10.608826666666667 0.3 3.033333333333333 5000018.2648
12.229653333333333 -2.033333333333333 3.033333333333333 5000066.8896
12.229653333333333 -2.2333333333333334 3.033333333333333 5000066.8896
12.229653333333333 -2.2666666666666666 3.033333333333333 5000066.8896
16.666666666666668 -2.7333333333333334 3.033333333333333 5000200.0
12.229653333333333 -2.8 3.033333333333333 5000066.8896
12.229653333333333 -3.1 3.033333333333333 5000066.8896
12.229653333333333 -3.5 3.033333333333333 5000066.8896
10.608826666666667 -6.133333333333334 3.033333333333333 5000018.2648
16.666666666666668 -6.533333333333333 3.033333333333333 5000200.0
16.666666666666668 -7.033333333333333 3.033333333333333 5000200.0
11.338686666666668 -8.3 3.033333333333333 5000040.1606
10.5152 -8.733333333333333 3.033333333333333 5000015.456
11.338686666666668 -16.8 3.033333333333333 5000040.1606
10.95648 -16.9 3.033333333333333 5000028.6944
12.229653333333333 3.1666666666666665 3.0 5000066.8896
10.95648 2.7333333333333334 3.0 5000028.6944
10.95648 2.466666666666667 3.0 5000028.6944
11.338686666666668 1.2333333333333334 3.0 5000040.1606
11.338686666666668 0.9666666666666667 3.0 5000040.1606
11.338686666666668 0.9333333333333333 3.0 5000040.1606
12.229653333333333 0.6 3.0 5000066.8896
12.229653333333333 -2.033333333333333 3.0 5000066.8896
12.229653333333333 -2.2333333333333334 3.0 5000066.8896
12.229653333333333 -2.2666666666666666 3.0 5000066.8896
16.666666666666668 -2.7333333333333334 3.0 5000200.0
12.229653333333333 -2.8 3.0 5000066.8896
12.229653333333333 -3.1 3.0 5000066.8896
12.229653333333333 -3.5 3.0 5000066.8896
10.608826666666667 -6.133333333333334 3.0 5000018.2648
16.666666666666668 -6.533333333333333 3.0 5000200.0
12.229653333333333 -6.7 3.0 5000066.8896
16.666666666666668 -7.033333333333333 3.0 5000200.0
10.95648 -7.8 3.0 5000028.6944
10.5152 -8.133333333333333 3.0 5000015.456
11.338686666666668 -14.866666666666667 3.0 5000040.1606
11.338686666666668 -16.766666666666666 3.0 5000040.1606
11.338686666666668 -16.8 3.0 5000040.1606
10.95648 -16.9 3.0 5000028.6944
12.229653333333333 3.1666666666666665 2.966666666666667 5000066.8896
10.95648 2.7333333333333334 2.966666666666667 5000028.6944
10.95648 2.466666666666667 2.966666666666667 5000028.6944
11.338686666666668 1.2333333333333334 2.966666666666667 5000040.1606
12.229653333333333 0.6 2.966666666666667 5000066.8896
12.229653333333333 -2.033333333333333 2.966666666666667 5000066.8896
12.229653333333333 -2.066666666666667 2.966666666666667 5000066.8896
12.229653333333333 -2.2333333333333334 2.966666666666667 5000066.8896
12.229653333333333 -2.2666666666666666 2.966666666666667 5000066.8896
16.666666666666668 -2.7333333333333334 2.966666666666667 5000200.0
16.666666666666668 -2.8 2.966666666666667 5000200.0
12.229653333333333 -3.1 2.966666666666667 5000066.8896
12.229653333333333 -3.5 2.966666666666667 5000066.8896
10.95648 -5.933333333333334 2.966666666666667 5000028.6944
10.608826666666667 -6.133333333333334 2.966666666666667 5000018.2648
16.666666666666668 -6.533333333333333 2.966666666666667 5000200.0
10.95648 -7.8 2.966666666666667 5000028.6944
10.5152 -8.133333333333333 2.966666666666667 5000015.456
11.338686666666668 -8.3 2.966666666666667 5000040.1606
10.744046666666666 -8.533333333333333 2.966666666666667 5000022.3214
10.95648 -9.7 2.966666666666667 5000028.6944
11.338686666666668 -11.733333333333333 2.966666666666667 5000040.1606
11.338686666666668 -14.866666666666667 2.966666666666667 5000040.1606
11.338686666666668 -16.766666666666666 2.966666666666667 5000040.1606
10.95648 -16.9 2.966666666666667 5000028.6944
10.95648 2.466666666666667 2.933333333333333 5000028.6944
11.338686666666668 1.0333333333333334 2.933333333333333 5000040.1606
11.338686666666668 1.0 2.933333333333333 5000040.1606
12.229653333333333 0.6 2.933333333333333 5000066.8896
10.608826666666667 0.36666666666666664 2.933333333333333 5000018.2648
12.229653333333333 -2.033333333333333 2.933333333333333 5000066.8896
12.229653333333333 -2.2333333333333334 2.933333333333333 5000066.8896
12.229653333333333 -2.466666666666667 2.933333333333333 5000066.8896
16.666666666666668 -2.7333333333333334 2.933333333333333 5000200.0
16.666666666666668 -2.8 2.933333333333333 5000200.0
12.229653333333333 -3.1 2.933333333333333 5000066.8896
12.229653333333333 -3.5 2.933333333333333 5000066.8896
12.229653333333333 -3.533333333333333 2.933333333333333 5000066.8896
12.229653333333333 -3.966666666666667 2.933333333333333 5000066.8896
12.229653333333333 -4.133333333333334 2.933333333333333 5000066.8896
10.95648 -5.933333333333334 2.933333333333333 5000028.6944
10.608826666666667 -6.133333333333334 2.933333333333333 5000018.2648
16.666666666666668 -7.2 2.933333333333333 5000200.0
16.666666666666668 -7.233333333333333 2.933333333333333 5000200.0
12.229653333333333 -9.5 2.933333333333333 5000066.8896
11.338686666666668 -11.733333333333333 2.933333333333333 5000040.1606
10.744046666666666 -13.966666666666667 2.933333333333333 5000022.3214
11.338686666666668 -14.866666666666667 2.933333333333333 5000040.1606
11.338686666666668 -16.766666666666666 2.933333333333333 5000040.1606
10.95648 2.7666666666666666 2.9 5000028.6944
10.95648 2.466666666666667 2.9 5000028.6944
11.338686666666668 0.9666666666666667 2.9 5000040.1606
11.338686666666668 0.9333333333333333 2.9 5000040.1606
12.229653333333333 0.6 2.9 5000066.8896
12.229653333333333 -2.033333333333333 2.9 5000066.8896
12.229653333333333 -2.2333333333333334 2.9 5000066.8896
12.229653333333333 -2.433333333333333 2.9 5000066.8896
12.229653333333333 -2.466666666666667 2.9 5000066.8896
16.666666666666668 -2.7333333333333334 2.9 5000200.0
16.666666666666668 -2.8 2.9 5000200.0
12.229653333333333 -3.5 2.9 5000066.8896
12.229653333333333 -3.966666666666667 2.9 5000066.8896
12.229653333333333 -4.133333333333334 2.9 5000066.8896
16.666666666666668 -4.266666666666667 2.9 5000200.0
12.229653333333333 -4.333333333333333 2.9 5000066.8896
12.229653333333333 -4.366666666666666 2.9 5000066.8896
16.666666666666668 -7.0 2.9 5000200.0
12.229653333333333 -7.1 2.9 5000066.8896
16.666666666666668 -7.2 2.9 5000200.0
12.229653333333333 -7.333333333333333 2.9 5000066.8896
11.338686666666668 -11.733333333333333 2.9 5000040.1606
10.744046666666666 -13.966666666666667 2.9 5000022.3214
11.338686666666668 -14.866666666666667 2.9 5000040.1606
11.338686666666668 -16.766666666666666 2.9 5000040.1606
10.95648 -16.866666666666667 2.9 5000028.6944
12.229653333333333 3.2 2.8666666666666667 5000066.8896
10.95648 2.7666666666666666 2.8666666666666667 5000028.6944
10.95648 2.7333333333333334 2.8666666666666667 5000028.6944
10.95648 2.466666666666667 2.8666666666666667 5000028.6944
16.666666666666668 1.9333333333333333 2.8666666666666667 5000200.0
12.229653333333333 1.7 2.8666666666666667 5000066.8896
11.338686666666668 0.9666666666666667 2.8666666666666667 5000040.1606
11.338686666666668 0.9333333333333333 2.8666666666666667 5000040.1606
12.229653333333333 -2.033333333333333 2.8666666666666667 5000066.8896
12.229653333333333 -2.2333333333333334 2.8666666666666667 5000066.8896
12.229653333333333 -2.433333333333333 2.8666666666666667 5000066.8896
12.229653333333333 -2.466666666666667 2.8666666666666667 5000066.8896
16.666666666666668 -2.7333333333333334 2.8666666666666667 5000200.0
16.666666666666668 -2.8 2.8666666666666667 5000200.0
12.229653333333333 -3.1 2.8666666666666667 5000066.8896
12.229653333333333 -3.5 2.8666666666666667 5000066.8896
12.229653333333333 -4.133333333333334 2.8666666666666667 5000066.8896
12.229653333333333 -4.366666666666666 2.8666666666666667 5000066.8896
16.666666666666668 -7.0 2.8666666666666667 5000200.0
12.229653333333333 -7.1 2.8666666666666667 5000066.8896
16.666666666666668 -7.2 2.8666666666666667 5000200.0
12.229653333333333 -7.3 2.8666666666666667 5000066.8896
12.229653333333333 -8.9 2.8666666666666667 5000066.8896
11.338686666666668 -11.733333333333333 2.8666666666666667 5000040.1606
10.744046666666666 -13.966666666666667 2.8666666666666667 5000022.3214
11.338686666666668 -14.866666666666667 2.8666666666666667 5000040.1606
11.338686666666668 -16.766666666666666 2.8666666666666667 5000040.1606
10.95648 2.7666666666666666 2.8333333333333335 5000028.6944
10.95648 2.466666666666667 2.8333333333333335 5000028.6944
12.229653333333333 1.7 2.8333333333333335 5000066.8896
12.229653333333333 1.6666666666666667 2.8333333333333335 5000066.8896
11.338686666666668 1.0333333333333334 2.8333333333333335 5000040.1606
11.338686666666668 1.0 2.8333333333333335 5000040.1606
12.229653333333333 -2.033333333333333 2.8333333333333335 5000066.8896
12.229653333333333 -2.433333333333333 2.8333333333333335 5000066.8896
12.229653333333333 -2.466666666666667 2.8333333333333335 5000066.8896
10.95648 -2.6333333333333333 2.8333333333333335 5000028.6944
16.666666666666668 -2.7333333333333334 2.8333333333333335 5000200.0
12.229653333333333 -2.8 2.8333333333333335 5000066.8896
12.229653333333333 -3.1 2.8333333333333335 5000066.8896
12.229653333333333 -3.5 2.8333333333333335 5000066.8896
12.229653333333333 -4.366666666666666 2.8333333333333335 5000066.8896
10.608826666666667 -6.166666666666667 2.8333333333333335 5000018.2648
10.608826666666667 -6.2 2.8333333333333335 5000018.2648
16.666666666666668 -7.0 2.8333333333333335 5000200.0
16.666666666666668 -7.2 2.8333333333333335 5000200.0
12.229653333333333 -7.3 2.8333333333333335 5000066.8896
12.229653333333333 -8.266666666666667 2.8333333333333335 5000066.8896
12.229653333333333 -8.866666666666667 2.8333333333333335 5000066.8896
12.229653333333333 -8.9 2.8333333333333335 5000066.8896
11.338686666666668 -9.0 2.8333333333333335 5000040.1606
11.338686666666668 -9.033333333333333 2.8333333333333335 5000040.1606
12.229653333333333 -9.366666666666667 2.8333333333333335 5000066.8896
11.338686666666668 -11.733333333333333 2.8333333333333335 5000040.1606
11.338686666666668 -14.866666666666667 2.8333333333333335 5000040.1606
11.338686666666668 -16.766666666666666 2.8333333333333335 5000040.1606
10.95648 -16.866666666666667 2.8333333333333335 5000028.6944
10.95648 2.7666666666666666 2.8 5000028.6944
10.95648 2.7333333333333334 2.8 5000028.6944
10.95648 2.466666666666667 2.8 5000028.6944
16.666666666666668 2.1666666666666665 2.8 5000200.0
11.338686666666668 1.0333333333333334 2.8 5000040.1606
10.318979333333333 -1.3 2.8 5000009.56938
12.229653333333333 -2.433333333333333 2.8 5000066.8896
12.229653333333333 -2.466666666666667 2.8 5000066.8896
16.666666666666668 -2.7333333333333334 2.8 5000200.0
12.229653333333333 -2.8 2.8 5000066.8896
12.229653333333333 -3.1 2.8 5000066.8896
12.229653333333333 -3.5 2.8 5000066.8896
12.229653333333333 -4.366666666666666 2.8 5000066.8896
10.608826666666667 -6.166666666666667 2.8 5000018.2648
10.608826666666667 -6.2 2.8 5000018.2648
16.666666666666668 -7.0 2.8 5000200.0
11.338686666666668 -7.2 2.8 5000040.1606
12.229653333333333 -8.533333333333333 2.8 5000066.8896
12.229653333333333 -8.866666666666667 2.8 5000066.8896
11.338686666666668 -9.0 2.8 5000040.1606
10.744046666666666 -9.233333333333333 2.8 5000022.3214
11.338686666666668 -11.733333333333333 2.8 5000040.1606
11.338686666666668 -13.433333333333334 2.8 5000040.1606
11.338686666666668 -13.466666666666667 2.8 5000040.1606
11.338686666666668 -14.133333333333333 2.8 5000040.1606
11.338686666666668 -14.866666666666667 2.8 5000040.1606
11.338686666666668 -16.766666666666666 2.8 5000040.1606
10.95648 2.7333333333333334 2.7666666666666666 5000028.6944
10.95648 2.466666666666667 2.7666666666666666 5000028.6944
16.666666666666668 2.1666666666666665 2.7666666666666666 5000200.0
11.338686666666668 1.2333333333333334 2.7666666666666666 5000040.1606
11.338686666666668 1.0666666666666667 2.7666666666666666 5000040.1606
10.744046666666666 -0.7 2.7666666666666666 5000022.3214
10.744046666666666 -0.8 2.7666666666666666 5000022.3214
10.744046666666666 -0.8666666666666667 2.7666666666666666 5000022.3214
12.229653333333333 -2.433333333333333 2.7666666666666666 5000066.8896
12.229653333333333 -2.466666666666667 2.7666666666666666 5000066.8896
16.666666666666668 -2.7333333333333334 2.7666666666666666 5000200.0
12.229653333333333 -2.8 2.7666666666666666 5000066.8896
12.229653333333333 -2.8333333333333335 2.7666666666666666 5000066.8896
16.666666666666668 -3.1333333333333333 2.7666666666666666 5000200.0
12.229653333333333 -3.2666666666666666 2.7666666666666666 5000066.8896
12.229653333333333 -3.3 2.7666666666666666 5000066.8896
16.666666666666668 -3.4 2.7666666666666666 5000200.0
12.229653333333333 -3.5 2.7666666666666666 5000066.8896
12.229653333333333 -4.366666666666666 2.7666666666666666 5000066.8896
11.338686666666668 -6.066666666666666 2.7666666666666666 5000040.1606
16.666666666666668 -7.0 2.7666666666666666 5000200.0
12.229653333333333 -8.2 2.7666666666666666 5000066.8896
11.338686666666668 -8.4 2.7666666666666666 5000040.1606
12.229653333333333 -8.5 2.7666666666666666 5000066.8896
12.229653333333333 -8.533333333333333 2.7666666666666666 5000066.8896
16.666666666666668 -8.766666666666667 2.7666666666666666 5000200.0
12.229653333333333 -8.866666666666667 2.7666666666666666 5000066.8896
10.744046666666666 -9.133333333333333 2.7666666666666666 5000022.3214
10.744046666666666 -9.233333333333333 2.7666666666666666 5000022.3214
10.744046666666666 -9.266666666666667 2.7666666666666666 5000022.3214
10.608826666666667 -9.3 2.7666666666666666 5000018.2648
11.338686666666668 -11.733333333333333 2.7666666666666666 5000040.1606
12.229653333333333 -13.333333333333334 2.7666666666666666 5000066.8896
11.338686666666668 -13.433333333333334 2.7666666666666666 5000040.1606
11.338686666666668 -14.133333333333333 2.7666666666666666 5000040.1606
11.338686666666668 -16.766666666666666 2.7666666666666666 5000040.1606
10.95648 -16.866666666666667 2.7666666666666666 5000028.6944
12.229653333333333 2.9 2.7333333333333334 5000066.8896
10.95648 2.7333333333333334 2.7333333333333334 5000028.6944
10.95648 2.466666666666667 2.7333333333333334 5000028.6944
12.229653333333333 -2.433333333333333 2.7333333333333334 5000066.8896
12.229653333333333 -2.466666666666667 2.7333333333333334 5000066.8896
16.666666666666668 -3.1333333333333333 2.7333333333333334 5000200.0
12.229653333333333 -3.2666666666666666 2.7333333333333334 5000066.8896
12.229653333333333 -3.3 2.7333333333333334 5000066.8896
12.229653333333333 -3.5 2.7333333333333334 5000066.8896
12.229653333333333 -4.133333333333334 2.7333333333333334 5000066.8896
12.229653333333333 -4.366666666666666 2.7333333333333334 5000066.8896
10.95648 -5.133333333333334 2.7333333333333334 5000028.6944
10.5152 -5.366666666666666 2.7333333333333334 5000015.456
16.666666666666668 -7.0 2.7333333333333334 5000200.0
11.338686666666668 -8.366666666666667 2.7333333333333334 5000040.1606
16.666666666666668 -8.733333333333333 2.7333333333333334 5000200.0
12.229653333333333 -8.8 2.7333333333333334 5000066.8896
10.744046666666666 -9.133333333333333 2.7333333333333334 5000022.3214
10.5152 -9.366666666666667 2.7333333333333334 5000015.456
11.338686666666668 -11.733333333333333 2.7333333333333334 5000040.1606
11.338686666666668 -13.433333333333334 2.7333333333333334 5000040.1606
11.338686666666668 -14.133333333333333 2.7333333333333334 5000040.1606
11.338686666666668 -14.166666666666666 2.7333333333333334 5000040.1606
11.338686666666668 -14.866666666666667 2.7333333333333334 5000040.1606
11.338686666666668 -14.9 2.7333333333333334 5000040.1606
11.338686666666668 -16.766666666666666 2.7333333333333334 5000040.1606
10.95648 -16.866666666666667 2.7333333333333334 5000028.6944
10.95648 2.7333333333333334 2.7 5000028.6944
10.95648 2.466666666666667 2.7 5000028.6944
11.338686666666668 1.2333333333333334 2.7 5000040.1606
11.338686666666668 1.0666666666666667 2.7 5000040.1606
11.338686666666668 1.0333333333333334 2.7 5000040.1606
12.229653333333333 0.5333333333333333 2.7 5000066.8896
12.229653333333333 -2.433333333333333 2.7 5000066.8896
12.229653333333333 -2.466666666666667 2.7 5000066.8896
16.666666666666668 -3.1333333333333333 2.7 5000200.0
12.229653333333333 -3.2666666666666666 2.7 5000066.8896
12.229653333333333 -3.3 2.7 5000066.8896
12.229653333333333 -3.5 2.7 5000066.8896
12.229653333333333 -4.366666666666666 2.7 5000066.8896
10.95648 -5.133333333333334 2.7 5000028.6944
10.5152 -5.333333333333333 2.7 5000015.456
11.338686666666668 -6.1 2.7 5000040.1606
10.95648 -6.2 2.7 5000028.6944
12.229653333333333 -6.533333333333333 2.7 5000066.8896
11.338686666666668 -8.366666666666667 2.7 5000040.1606
16.666666666666668 -8.733333333333333 2.7 5000200.0
16.666666666666668 -8.8 2.7 5000200.0
10.744046666666666 -9.133333333333333 2.7 5000022.3214
10.5152 -9.366666666666667 2.7 5000015.456
11.338686666666668 -11.733333333333333 2.7 5000040.1606
11.338686666666668 -13.433333333333334 2.7 5000040.1606
11.338686666666668 -14.133333333333333 2.7 5000040.1606
11.338686666666668 -14.166666666666666 2.7 5000040.1606
11.338686666666668 -14.866666666666667 2.7 5000040.1606
11.338686666666668 -16.766666666666666 2.7 5000040.1606
10.95648 2.7333333333333334 2.6666666666666665 5000028.6944
10.95648 2.466666666666667 2.6666666666666665 5000028.6944
16.666666666666668 1.7333333333333334 2.6666666666666665 5000200.0
16.666666666666668 1.7 2.6666666666666665 5000200.0
16.666666666666668 1.6666666666666667 2.6666666666666665 5000200.0
11.338686666666668 1.2333333333333334 2.6666666666666665 5000040.1606
11.338686666666668 1.0333333333333334 2.6666666666666665 5000040.1606
10.291248 -0.2 2.6666666666666665 5000008.73744
10.352546666666667 -0.3 2.6666666666666665 5000010.5764
10.95648 -0.6 2.6666666666666665 5000028.6944
10.744046666666666 -0.7 2.6666666666666665 5000022.3214
10.744046666666666 -0.7333333333333333 2.6666666666666665 5000022.3214
10.39401 -1.1 2.6666666666666665 5000011.8203
12.229653333333333 -2.433333333333333 2.6666666666666665 5000066.8896
16.666666666666668 -3.1 2.6666666666666665 5000200.0
16.666666666666668 -3.1333333333333333 2.6666666666666665 5000200.0
12.229653333333333 -3.2666666666666666 2.6666666666666665 5000066.8896
12.229653333333333 -3.3 2.6666666666666665 5000066.8896
12.229653333333333 -3.5 2.6666666666666665 5000066.8896
12.229653333333333 -4.366666666666666 2.6666666666666665 5000066.8896
10.95648 -5.1 2.6666666666666665 5000028.6944
10.5152 -5.333333333333333 2.6666666666666665 5000015.456
10.95648 -6.2 2.6666666666666665 5000028.6944
12.229653333333333 -6.433333333333334 2.6666666666666665 5000066.8896
16.666666666666668 -8.166666666666666 2.6666666666666665 5000200.0
12.229653333333333 -8.733333333333333 2.6666666666666665 5000066.8896
12.229653333333333 -8.8 2.6666666666666665 5000066.8896
10.744046666666666 -9.133333333333333 2.6666666666666665 5000022.3214
11.338686666666668 -11.733333333333333 2.6666666666666665 5000040.1606
10.744046666666666 -11.966666666666667 2.6666666666666665 5000022.3214
12.229653333333333 -13.333333333333334 2.6666666666666665 5000066.8896
11.338686666666668 -13.433333333333334 2.6666666666666665 5000040.1606
11.338686666666668 -14.133333333333333 2.6666666666666665 5000040.1606
11.338686666666668 -14.166666666666666 2.6666666666666665 5000040.1606
10.95648 -16.9 2.6666666666666665 5000028.6944
10.95648 2.7333333333333334 2.6333333333333333 5000028.6944
10.95648 2.466666666666667 2.6333333333333333 5000028.6944
16.666666666666668 1.7 2.6333333333333333 5000200.0
16.666666666666668 1.6666666666666667 2.6333333333333333 5000200.0
11.338686666666668 1.2666666666666666 2.6333333333333333 5000040.1606
11.338686666666668 1.0333333333333334 2.6333333333333333 5000040.1606
11.338686666666668 1.0 2.6333333333333333 5000040.1606
10.744046666666666 -0.7 2.6333333333333333 5000022.3214
10.39401 -1.1 2.6333333333333333 5000011.8203
10.291248 -1.3333333333333333 2.6333333333333333 5000008.73744
10.291248 -1.3666666666666667 2.6333333333333333 5000008.73744
12.229653333333333 -2.433333333333333 2.6333333333333333 5000066.8896
16.666666666666668 -3.1 2.6333333333333333 5000200.0
16.666666666666668 -3.1333333333333333 2.6333333333333333 5000200.0
12.229653333333333 -3.2666666666666666 2.6333333333333333 5000066.8896
12.229653333333333 -3.3 2.6333333333333333 5000066.8896
12.229653333333333 -3.5 2.6333333333333333 5000066.8896
10.95648 -5.1 2.6333333333333333 5000028.6944
10.5152 -5.3 2.6333333333333333 5000015.456
10.5152 -5.333333333333333 2.6333333333333333 5000015.456
10.95648 -6.2 2.6333333333333333 5000028.6944
12.229653333333333 -6.433333333333334 2.6333333333333333 5000066.8896
12.229653333333333 -6.5 2.6333333333333333 5000066.8896
16.666666666666668 -7.833333333333333 2.6333333333333333 5000200.0
10.744046666666666 -8.333333333333334 2.6333333333333333 5000022.3214
10.5152 -8.5 2.6333333333333333 5000015.456
10.744046666666666 -9.133333333333333 2.6333333333333333 5000022.3214
11.338686666666668 -11.733333333333333 2.6333333333333333 5000040.1606
12.229653333333333 -13.333333333333334 2.6333333333333333 5000066.8896
11.338686666666668 -13.433333333333334 2.6333333333333333 5000040.1606
11.338686666666668 -14.133333333333333 2.6333333333333333 5000040.1606
11.338686666666668 -14.866666666666667 2.6333333333333333 5000040.1606
11.338686666666668 -16.8 2.6333333333333333 5000040.1606
10.95648 2.7333333333333334 2.6 5000028.6944
10.95648 2.466666666666667 2.6 5000028.6944
16.666666666666668 2.2 2.6 5000200.0
16.666666666666668 2.1666666666666665 2.6 5000200.0
11.338686666666668 1.2666666666666666 2.6 5000040.1606
11.338686666666668 1.0333333333333334 2.6 5000040.1606
10.39401 -1.1666666666666667 2.6 5000011.8203
10.352546666666667 -1.2 2.6 5000010.5764
12.229653333333333 -1.9 2.6 5000066.8896
12.229653333333333 -2.433333333333333 2.6 5000066.8896
16.666666666666668 -3.1 2.6 5000200.0
16.666666666666668 -3.1333333333333333 2.6 5000200.0
12.229653333333333 -3.2666666666666666 2.6 5000066.8896
12.229653333333333 -3.3 2.6 5000066.8896
12.229653333333333 -3.5 2.6 5000066.8896
10.95648 -5.1 2.6 5000028.6944
10.5152 -5.3 2.6 5000015.456
10.95648 -6.2 2.6 5000028.6944
10.95648 -6.233333333333333 2.6 5000028.6944
12.229653333333333 -6.5 2.6 5000066.8896
12.229653333333333 -6.7 2.6 5000066.8896
11.338686666666668 -7.1 2.6 5000040.1606
11.338686666666668 -7.166666666666667 2.6 5000040.1606
10.352546666666667 -7.433333333333334 2.6 5000010.5764
10.744046666666666 -7.466666666666667 2.6 5000022.3214
10.744046666666666 -7.5 2.6 5000022.3214
16.666666666666668 -7.8 2.6 5000200.0
16.666666666666668 -7.833333333333333 2.6 5000200.0
10.744046666666666 -8.266666666666667 2.6 5000022.3214
10.744046666666666 -8.333333333333334 2.6 5000022.3214
10.5152 -8.5 2.6 5000015.456
10.352546666666667 -8.766666666666667 2.6 5000010.5764
10.352546666666667 -8.8 2.6 5000010.5764
10.744046666666666 -9.133333333333333 2.6 5000022.3214
11.338686666666668 -11.733333333333333 2.6 5000040.1606
10.744046666666666 -12.0 2.6 5000022.3214
12.229653333333333 -13.333333333333334 2.6 5000066.8896
11.338686666666668 -13.433333333333334 2.6 5000040.1606
11.338686666666668 -14.133333333333333 2.6 5000040.1606
11.338686666666668 -14.866666666666667 2.6 5000040.1606
11.338686666666668 -14.9 2.6 5000040.1606
10.95648 -16.9 2.6 5000028.6944
10.95648 2.7333333333333334 2.566666666666667 5000028.6944
10.95648 2.466666666666667 2.566666666666667 5000028.6944
16.666666666666668 2.1666666666666665 2.566666666666667 5000200.0
11.338686666666668 1.2666666666666666 2.566666666666667 5000040.1606
11.338686666666668 1.2333333333333334 2.566666666666667 5000040.1606
11.338686666666668 1.0333333333333334 2.566666666666667 5000040.1606
10.446526666666667 0.13333333333333333 2.566666666666667 5000013.3958
10.318979333333333 -0.06666666666666667 2.566666666666667 5000009.56938
12.229653333333333 -3.5 2.566666666666667 5000066.8896
10.95648 -5.1 2.566666666666667 5000028.6944
10.5152 -5.3 2.566666666666667 5000015.456
10.95648 -6.2 2.566666666666667 5000028.6944
10.95648 -6.233333333333333 2.566666666666667 5000028.6944
12.229653333333333 -6.533333333333333 2.566666666666667 5000066.8896
12.229653333333333 -6.6 2.566666666666667 5000066.8896
12.229653333333333 -6.633333333333334 2.566666666666667 5000066.8896
12.229653333333333 -6.666666666666667 2.566666666666667 5000066.8896
12.229653333333333 -6.7 2.566666666666667 5000066.8896
10.352546666666667 -6.833333333333333 2.566666666666667 5000010.5764
10.744046666666666 -6.933333333333334 2.566666666666667 5000022.3214
10.608826666666667 -7.033333333333333 2.566666666666667 5000018.2648
10.608826666666667 -7.066666666666666 2.566666666666667 5000018.2648
11.338686666666668 -7.1 2.566666666666667 5000040.1606
11.338686666666668 -7.166666666666667 2.566666666666667 5000040.1606
10.352546666666667 -7.366666666666666 2.566666666666667 5000010.5764
10.352546666666667 -7.433333333333334 2.566666666666667 5000010.5764
10.744046666666666 -7.466666666666667 2.566666666666667 5000022.3214
10.744046666666666 -7.5 2.566666666666667 5000022.3214
16.666666666666668 -7.8 2.566666666666667 5000200.0
10.95648 -8.133333333333333 2.566666666666667 5000028.6944
10.5152 -8.5 2.566666666666667 5000015.456
10.352546666666667 -8.766666666666667 2.566666666666667 5000010.5764
10.95648 -9.033333333333333 2.566666666666667 5000028.6944
11.338686666666668 -11.733333333333333 2.566666666666667 5000040.1606
10.744046666666666 -11.966666666666667 2.566666666666667 5000022.3214
10.744046666666666 -12.0 2.566666666666667 5000022.3214
12.229653333333333 -13.333333333333334 2.566666666666667 5000066.8896
11.338686666666668 -13.433333333333334 2.566666666666667 5000040.1606
11.338686666666668 -14.133333333333333 2.566666666666667 5000040.1606
11.338686666666668 -14.9 2.566666666666667 5000040.1606
11.338686666666668 -16.766666666666666 2.566666666666667 5000040.1606
10.95648 2.7333333333333334 2.533333333333333 5000028.6944
10.95648 2.466666666666667 2.533333333333333 5000028.6944
10.95648 2.433333333333333 2.533333333333333 5000028.6944
11.338686666666668 1.2333333333333334 2.533333333333333 5000040.1606
11.338686666666668 1.0666666666666667 2.533333333333333 5000040.1606
11.338686666666668 1.0333333333333334 2.533333333333333 5000040.1606
10.267952666666666 -0.7 2.533333333333333 5000008.03858
10.267952666666666 -0.7333333333333333 2.533333333333333 5000008.03858
10.267952666666666 -0.8 2.533333333333333 5000008.03858
10.95648 -5.1 2.533333333333333 5000028.6944
10.5152 -5.3 2.533333333333333 5000015.456
10.95648 -6.2 2.533333333333333 5000028.6944
10.95648 -6.233333333333333 2.533333333333333 5000028.6944
16.666666666666668 -6.5 2.533333333333333 5000200.0
12.229653333333333 -6.533333333333333 2.533333333333333 5000066.8896
10.352546666666667 -6.833333333333333 2.533333333333333 5000010.5764
10.744046666666666 -6.933333333333334 2.533333333333333 5000022.3214
10.608826666666667 -7.033333333333333 2.533333333333333 5000018.2648
12.229653333333333 -7.233333333333333 2.533333333333333 5000066.8896
16.666666666666668 -7.8 2.533333333333333 5000200.0
10.95648 -8.133333333333333 2.533333333333333 5000028.6944
10.608826666666667 -8.366666666666667 2.533333333333333 5000018.2648
10.5152 -8.5 2.533333333333333 5000015.456
10.352546666666667 -8.766666666666667 2.533333333333333 5000010.5764
10.95648 -9.033333333333333 2.533333333333333 5000028.6944
10.318979333333333 -9.833333333333334 2.533333333333333 5000009.56938
11.338686666666668 -11.733333333333333 2.533333333333333 5000040.1606
10.744046666666666 -12.0 2.533333333333333 5000022.3214
10.608826666666667 -12.1 2.533333333333333 5000018.2648
11.338686666666668 -13.433333333333334 2.533333333333333 5000040.1606
11.338686666666668 -14.133333333333333 2.533333333333333 5000040.1606
11.338686666666668 -14.466666666666667 2.533333333333333 5000040.1606
11.338686666666668 -14.9 2.533333333333333 5000040.1606
11.338686666666668 -16.766666666666666 2.533333333333333 5000040.1606
10.95648 2.7333333333333334 2.5 5000028.6944
10.95648 2.466666666666667 2.5 5000028.6944
10.95648 2.433333333333333 2.5 5000028.6944
10.446526666666667 0.13333333333333333 2.5 5000013.3958
10.446526666666667 0.1 2.5 5000013.3958
10.267952666666666 -0.7 2.5 5000008.03858
12.229653333333333 -1.9666666666666666 2.5 5000066.8896
10.5152 -4.733333333333333 2.5 5000015.456
10.95648 -6.233333333333333 2.5 5000028.6944
16.666666666666668 -7.8 2.5 5000200.0
10.95648 -8.133333333333333 2.5 5000028.6944
10.608826666666667 -8.366666666666667 2.5 5000018.2648
10.5152 -8.5 2.5 5000015.456
10.352546666666667 -8.766666666666667 2.5 5000010.5764
10.352546666666667 -8.8 2.5 5000010.5764
10.95648 -9.033333333333333 2.5 5000028.6944
10.318979333333333 -9.8 2.5 5000009.56938
10.446526666666667 -10.166666666666666 2.5 5000013.3958
11.338686666666668 -11.733333333333333 2.5 5000040.1606
10.744046666666666 -12.0 2.5 5000022.3214
11.338686666666668 -13.2 2.5 5000040.1606
11.338686666666668 -13.433333333333334 2.5 5000040.1606
11.338686666666668 -14.466666666666667 2.5 5000040.1606
11.338686666666668 -14.9 2.5 5000040.1606
11.338686666666668 -16.733333333333334 2.5 5000040.1606
11.338686666666668 -16.766666666666666 2.5 5000040.1606
10.95648 2.7333333333333334 2.466666666666667 5000028.6944
10.95648 2.466666666666667 2.466666666666667 5000028.6944
10.95648 2.433333333333333 2.466666666666667 5000028.6944
11.338686666666668 1.1666666666666667 2.466666666666667 5000040.1606
12.229653333333333 1.0666666666666667 2.466666666666667 5000066.8896
12.229653333333333 -2.466666666666667 2.466666666666667 5000066.8896
10.5152 -4.766666666666667 2.466666666666667 5000015.456
10.95648 -5.1 2.466666666666667 5000028.6944
10.608826666666667 -5.333333333333333 2.466666666666667 5000018.2648
10.95648 -6.233333333333333 2.466666666666667 5000028.6944
11.338686666666668 -6.7 2.466666666666667 5000040.1606
12.229653333333333 -7.566666666666666 2.466666666666667 5000066.8896
16.666666666666668 -7.766666666666667 2.466666666666667 5000200.0
16.666666666666668 -7.8 2.466666666666667 5000200.0
10.95648 -8.133333333333333 2.466666666666667 5000028.6944
10.608826666666667 -8.366666666666667 2.466666666666667 5000018.2648
10.608826666666667 -8.4 2.466666666666667 5000018.2648
10.5152 -8.5 2.466666666666667 5000015.456
10.352546666666667 -8.766666666666667 2.466666666666667 5000010.5764
10.352546666666667 -8.8 2.466666666666667 5000010.5764
11.338686666666668 -8.933333333333334 2.466666666666667 5000040.1606
10.95648 -9.033333333333333 2.466666666666667 5000028.6944
10.95648 -9.7 2.466666666666667 5000028.6944
10.318979333333333 -9.8 2.466666666666667 5000009.56938
12.229653333333333 -13.1 2.466666666666667 5000066.8896
11.338686666666668 -13.2 2.466666666666667 5000040.1606
11.338686666666668 -14.133333333333333 2.466666666666667 5000040.1606
11.338686666666668 -14.466666666666667 2.466666666666667 5000040.1606
11.338686666666668 -14.9 2.466666666666667 5000040.1606
12.229653333333333 -16.6 2.466666666666667 5000066.8896
11.338686666666668 -16.7 2.466666666666667 5000040.1606
10.95648 -16.9 2.466666666666667 5000028.6944
10.95648 2.7333333333333334 2.433333333333333 5000028.6944
10.95648 2.466666666666667 2.433333333333333 5000028.6944
10.95648 2.433333333333333 2.433333333333333 5000028.6944
10.291248 0.43333333333333335 2.433333333333333 5000008.73744
12.229653333333333 -2.0 2.433333333333333 5000066.8896
12.229653333333333 -2.466666666666667 2.433333333333333 5000066.8896
10.39401 -3.933333333333333 2.433333333333333 5000011.8203
10.39401 -4.0 2.433333333333333 5000011.8203
11.338686666666668 -4.1 2.433333333333333 5000040.1606
11.338686666666668 -4.133333333333334 2.433333333333333 5000040.1606
11.338686666666668 -4.166666666666667 2.433333333333333 5000040.1606
10.608826666666667 -4.366666666666666 2.433333333333333 5000018.2648
10.39401 -4.7 2.433333333333333 5000011.8203
10.95648 -5.1 2.433333333333333 5000028.6944
10.608826666666667 -5.333333333333333 2.433333333333333 5000018.2648
10.95648 -6.2 2.433333333333333 5000028.6944
11.338686666666668 -6.666666666666667 2.433333333333333 5000040.1606
11.338686666666668 -6.7 2.433333333333333 5000040.1606
12.229653333333333 -7.166666666666667 2.433333333333333 5000066.8896
12.229653333333333 -7.566666666666666 2.433333333333333 5000066.8896
16.666666666666668 -7.766666666666667 2.433333333333333 5000200.0
10.95648 -8.966666666666667 2.433333333333333 5000028.6944
11.338686666666668 -9.566666666666666 2.433333333333333 5000040.1606
10.39401 -9.766666666666667 2.433333333333333 5000011.8203
10.446526666666667 -10.133333333333333 2.433333333333333 5000013.3958
11.338686666666668 -12.166666666666666 2.433333333333333 5000040.1606
11.338686666666668 -13.2 2.433333333333333 5000040.1606
11.338686666666668 -14.133333333333333 2.433333333333333 5000040.1606
11.338686666666668 -14.466666666666667 2.433333333333333 5000040.1606
11.338686666666668 -14.9 2.433333333333333 5000040.1606
11.338686666666668 -16.7 2.433333333333333 5000040.1606
10.95648 -16.9 2.433333333333333 5000028.6944
10.95648 2.7333333333333334 2.4 5000028.6944
10.95648 2.466666666666667 2.4 5000028.6944
10.95648 2.433333333333333 2.4 5000028.6944
12.229653333333333 -2.0 2.4 5000066.8896
12.229653333333333 -2.466666666666667 2.4 5000066.8896
10.39401 -3.9 2.4 5000011.8203
10.39401 -3.966666666666667 2.4 5000011.8203
10.39401 -4.0 2.4 5000011.8203
11.338686666666668 -4.1 2.4 5000040.1606
11.338686666666668 -4.133333333333334 2.4 5000040.1606
11.338686666666668 -4.166666666666667 2.4 5000040.1606
11.338686666666668 -4.2 2.4 5000040.1606
11.338686666666668 -4.233333333333333 2.4 5000040.1606
10.608826666666667 -4.4 2.4 5000018.2648
10.39401 -4.666666666666667 2.4 5000011.8203
10.39401 -4.7 2.4 5000011.8203
10.744046666666666 -6.333333333333333 2.4 5000022.3214
10.5152 -6.566666666666666 2.4 5000015.456
11.338686666666668 -6.666666666666667 2.4 5000040.1606
11.338686666666668 -6.7 2.4 5000040.1606
10.744046666666666 -6.833333333333333 2.4 5000022.3214
10.744046666666666 -6.866666666666666 2.4 5000022.3214
11.338686666666668 -9.566666666666666 2.4 5000040.1606
10.39401 -10.233333333333333 2.4 5000011.8203
11.338686666666668 -12.166666666666666 2.4 5000040.1606
11.338686666666668 -13.2 2.4 5000040.1606
11.338686666666668 -14.133333333333333 2.4 5000040.1606
11.338686666666668 -14.9 2.4 5000040.1606
11.338686666666668 -16.7 2.4 5000040.1606
10.95648 2.7333333333333334 2.3666666666666667 5000028.6944
10.95648 2.466666666666667 2.3666666666666667 5000028.6944
10.95648 2.433333333333333 2.3666666666666667 5000028.6944
12.229653333333333 1.0666666666666667 2.3666666666666667 5000066.8896
12.229653333333333 1.0333333333333334 2.3666666666666667 5000066.8896
10.291248 0.5 2.3666666666666667 5000008.73744
10.291248 0.4666666666666667 2.3666666666666667 5000008.73744
10.267952666666666 -0.7 2.3666666666666667 5000008.03858
10.267952666666666 -0.7333333333333333 2.3666666666666667 5000008.03858
10.231000333333334 -0.9 2.3666666666666667 5000006.93001
10.39401 -3.9 2.3666666666666667 5000011.8203
10.608826666666667 -4.4 2.3666666666666667 5000018.2648
10.39401 -4.666666666666667 2.3666666666666667 5000011.8203
11.338686666666668 -6.2 2.3666666666666667 5000040.1606
11.338686666666668 -6.666666666666667 2.3666666666666667 5000040.1606
10.39401 -6.766666666666667 2.3666666666666667 5000011.8203
10.744046666666666 -6.833333333333333 2.3666666666666667 5000022.3214
10.744046666666666 -6.866666666666666 2.3666666666666667 5000022.3214
10.744046666666666 -6.9 2.3666666666666667 5000022.3214
10.744046666666666 -6.933333333333334 2.3666666666666667 5000022.3214
10.95648 -8.133333333333333 2.3666666666666667 5000028.6944
10.608826666666667 -8.333333333333334 2.3666666666666667 5000018.2648
10.744046666666666 -9.233333333333333 2.3666666666666667 5000022.3214
11.338686666666668 -14.133333333333333 2.3666666666666667 5000040.1606
11.338686666666668 -14.466666666666667 2.3666666666666667 5000040.1606
11.338686666666668 -14.9 2.3666666666666667 5000040.1606
11.338686666666668 -16.7 2.3666666666666667 5000040.1606
10.95648 2.7333333333333334 2.3333333333333335 5000028.6944
10.95648 2.466666666666667 2.3333333333333335 5000028.6944
10.95648 2.433333333333333 2.3333333333333335 5000028.6944
16.666666666666668 1.4333333333333333 2.3333333333333335 5000200.0
12.229653333333333 0.8 2.3333333333333335 5000066.8896
12.229653333333333 0.7666666666666667 2.3333333333333335 5000066.8896
10.291248 0.5666666666666667 2.3333333333333335 5000008.73744
10.291248 0.5333333333333333 2.3333333333333335 5000008.73744
10.291248 0.5 2.3333333333333335 5000008.73744
10.744046666666666 0.13333333333333333 2.3333333333333335 5000022.3214
10.608826666666667 0.0 2.3333333333333335 5000018.2648
10.267952666666666 -0.7 2.3333333333333335 5000008.03858
12.229653333333333 -1.9666666666666666 2.3333333333333335 5000066.8896
10.39401 -3.8666666666666667 2.3333333333333335 5000011.8203
10.608826666666667 -4.4 2.3333333333333335 5000018.2648
10.608826666666667 -4.466666666666667 2.3333333333333335 5000018.2648
11.338686666666668 -6.2 2.3333333333333335 5000040.1606
11.338686666666668 -6.233333333333333 2.3333333333333335 5000040.1606
10.39401 -6.733333333333333 2.3333333333333335 5000011.8203
10.39401 -6.766666666666667 2.3333333333333335 5000011.8203
10.744046666666666 -6.833333333333333 2.3333333333333335 5000022.3214
10.744046666666666 -6.866666666666666 2.3333333333333335 5000022.3214
12.229653333333333 -7.1 2.3333333333333335 5000066.8896
11.338686666666668 -7.133333333333334 2.3333333333333335 5000040.1606
12.229653333333333 -7.2 2.3333333333333335 5000066.8896
10.95648 -7.666666666666667 2.3333333333333335 5000028.6944
10.95648 -8.133333333333333 2.3333333333333335 5000028.6944
10.608826666666667 -8.333333333333334 2.3333333333333335 5000018.2648
10.318979333333333 -8.866666666666667 2.3333333333333335 5000009.56938
10.744046666666666 -9.233333333333333 2.3333333333333335 5000022.3214
10.39401 -9.8 2.3333333333333335 5000011.8203
11.338686666666668 -13.433333333333334 2.3333333333333335 5000040.1606
11.338686666666668 -14.133333333333333 2.3333333333333335 5000040.1606
11.338686666666668 -14.9 2.3333333333333335 5000040.1606
11.338686666666668 -16.7 2.3333333333333335 5000040.1606
10.95648 2.7333333333333334 2.3 5000028.6944
10.95648 2.466666666666667 2.3 5000028.6944
10.95648 2.433333333333333 2.3 5000028.6944
12.229653333333333 0.9666666666666667 2.3 5000066.8896
12.229653333333333 0.7666666666666667 2.3 5000066.8896
10.291248 0.6 2.3 5000008.73744
10.291248 0.5666666666666667 2.3 5000008.73744
10.267952666666666 -0.7 2.3 5000008.03858
12.229653333333333 -2.566666666666667 2.3 5000066.8896
10.39401 -3.8666666666666667 2.3 5000011.8203
12.229653333333333 -4.8 2.3 5000066.8896
12.229653333333333 -4.833333333333333 2.3 5000066.8896
12.229653333333333 -4.866666666666666 2.3 5000066.8896
12.229653333333333 -4.9 2.3 5000066.8896
12.229653333333333 -4.933333333333334 2.3 5000066.8896
11.338686666666668 -5.0 2.3 5000040.1606
11.338686666666668 -5.033333333333333 2.3 5000040.1606
10.608826666666667 -5.166666666666667 2.3 5000018.2648
10.744046666666666 -5.2 2.3 5000022.3214
11.338686666666668 -6.166666666666667 2.3 5000040.1606
11.338686666666668 -6.2 2.3 5000040.1606
10.39401 -6.733333333333333 2.3 5000011.8203
10.39401 -6.766666666666667 2.3 5000011.8203
10.291248 -7.033333333333333 2.3 5000008.73744
11.338686666666668 -7.133333333333334 2.3 5000040.1606
12.229653333333333 -7.2 2.3 5000066.8896
10.744046666666666 -7.4 2.3 5000022.3214
10.744046666666666 -7.433333333333334 2.3 5000022.3214
11.338686666666668 -7.466666666666667 2.3 5000040.1606
11.338686666666668 -7.533333333333333 2.3 5000040.1606
10.95648 -7.666666666666667 2.3 5000028.6944
10.95648 -8.133333333333333 2.3 5000028.6944
10.95648 -8.166666666666666 2.3 5000028.6944
10.318979333333333 -8.9 2.3 5000009.56938
10.744046666666666 -9.233333333333333 2.3 5000022.3214
10.39401 -9.733333333333333 2.3 5000011.8203
10.39401 -9.8 2.3 5000011.8203
11.338686666666668 -11.733333333333333 2.3 5000040.1606
11.338686666666668 -13.433333333333334 2.3 5000040.1606
11.338686666666668 -13.466666666666667 2.3 5000040.1606
11.338686666666668 -14.133333333333333 2.3 5000040.1606
11.338686666666668 -14.9 2.3 5000040.1606
11.338686666666668 -16.7 2.3 5000040.1606
10.95648 2.7333333333333334 2.2666666666666666 5000028.6944
10.95648 2.433333333333333 2.2666666666666666 5000028.6944
16.666666666666668 1.6666666666666667 2.2666666666666666 5000200.0
12.229653333333333 -1.9333333333333333 2.2666666666666666 5000066.8896
12.229653333333333 -4.8 2.2666666666666666 5000066.8896
12.229653333333333 -4.833333333333333 2.2666666666666666 5000066.8896
12.229653333333333 -4.866666666666666 2.2666666666666666 5000066.8896
12.229653333333333 -4.9 2.2666666666666666 5000066.8896
12.229653333333333 -4.933333333333334 2.2666666666666666 5000066.8896
11.338686666666668 -5.033333333333333 2.2666666666666666 5000040.1606
10.608826666666667 -5.166666666666667 2.2666666666666666 5000018.2648
10.744046666666666 -5.2 2.2666666666666666 5000022.3214
11.338686666666668 -7.133333333333334 2.2666666666666666 5000040.1606
12.229653333333333 -7.2 2.2666666666666666 5000066.8896
10.744046666666666 -7.4 2.2666666666666666 5000022.3214
10.744046666666666 -7.433333333333334 2.2666666666666666 5000022.3214
11.338686666666668 -7.5 2.2666666666666666 5000040.1606
11.338686666666668 -7.533333333333333 2.2666666666666666 5000040.1606
10.95648 -7.733333333333333 2.2666666666666666 5000028.6944
10.744046666666666 -7.766666666666667 2.2666666666666666 5000022.3214
10.95648 -8.166666666666666 2.2666666666666666 5000028.6944
10.95648 -8.2 2.2666666666666666 5000028.6944
10.318979333333333 -8.9 2.2666666666666666 5000009.56938
10.291248 -9.0 2.2666666666666666 5000008.73744
10.744046666666666 -9.233333333333333 2.2666666666666666 5000022.3214
10.608826666666667 -9.6 2.2666666666666666 5000018.2648
10.39401 -9.8 2.2666666666666666 5000011.8203
11.338686666666668 -13.433333333333334 2.2666666666666666 5000040.1606
11.338686666666668 -14.133333333333333 2.2666666666666666 5000040.1606
11.338686666666668 -14.9 2.2666666666666666 5000040.1606
11.338686666666668 -17.533333333333335 2.2666666666666666 5000040.1606
10.95648 -17.633333333333333 2.2666666666666666 5000028.6944
10.95648 2.7333333333333334 2.2333333333333334 5000028.6944
10.95648 2.433333333333333 2.2333333333333334 5000028.6944
12.229653333333333 2.2 2.2333333333333334 5000066.8896
12.229653333333333 2.1666666666666665 2.2333333333333334 5000066.8896
10.744046666666666 -0.1 2.2333333333333334 5000022.3214
10.744046666666666 -0.13333333333333333 2.2333333333333334 5000022.3214
10.744046666666666 -0.16666666666666666 2.2333333333333334 5000022.3214
10.744046666666666 -0.2 2.2333333333333334 5000022.3214
10.95648 -0.23333333333333334 2.2333333333333334 5000028.6944
10.95648 -0.26666666666666666 2.2333333333333334 5000028.6944
10.95648 -0.3 2.2333333333333334 5000028.6944
10.267952666666666 -0.6666666666666666 2.2333333333333334 5000008.03858
12.229653333333333 -2.1666666666666665 2.2333333333333334 5000066.8896
10.446526666666667 -4.333333333333333 2.2333333333333334 5000013.3958
10.95648 -4.766666666666667 2.2333333333333334 5000028.6944
10.95648 -4.8 2.2333333333333334 5000028.6944
10.608826666666667 -5.1 2.2333333333333334 5000018.2648
11.338686666666668 -6.166666666666667 2.2333333333333334 5000040.1606
11.338686666666668 -6.2 2.2333333333333334 5000040.1606
12.229653333333333 -7.066666666666666 2.2333333333333334 5000066.8896
10.231000333333334 -7.333333333333333 2.2333333333333334 5000006.93001
10.744046666666666 -7.433333333333334 2.2333333333333334 5000022.3214
11.338686666666668 -7.533333333333333 2.2333333333333334 5000040.1606
10.95648 -7.633333333333334 2.2333333333333334 5000028.6944
10.744046666666666 -7.733333333333333 2.2333333333333334 5000022.3214
10.744046666666666 -7.766666666666667 2.2333333333333334 5000022.3214
10.95648 -8.166666666666666 2.2333333333333334 5000028.6944
12.229653333333333 -13.333333333333334 2.2333333333333334 5000066.8896
11.338686666666668 -13.433333333333334 2.2333333333333334 5000040.1606
11.338686666666668 -14.9 2.2333333333333334 5000040.1606
10.95648 2.8666666666666667 2.2 5000028.6944
10.95648 2.8333333333333335 2.2 5000028.6944
10.95648 2.7333333333333334 2.2 5000028.6944
10.95648 2.433333333333333 2.2 5000028.6944
12.229653333333333 2.1666666666666665 2.2 5000066.8896
10.291248 0.5 2.2 5000008.73744
10.608826666666667 0.1 2.2 5000018.2648
10.5152 0.0 2.2 5000015.456
10.744046666666666 -0.1 2.2 5000022.3214
10.744046666666666 -0.13333333333333333 2.2 5000022.3214
10.267952666666666 -0.6666666666666666 2.2 5000008.03858
10.291248 -1.7666666666666666 2.2 5000008.73744
11.338686666666668 -6.233333333333333 2.2 5000040.1606
11.338686666666668 -6.266666666666667 2.2 5000040.1606
12.229653333333333 -7.066666666666666 2.2 5000066.8896
10.231000333333334 -7.3 2.2 5000006.93001
10.231000333333334 -7.333333333333333 2.2 5000006.93001
10.95648 -8.166666666666666 2.2 5000028.6944
11.338686666666668 -12.633333333333333 2.2 5000040.1606
11.338686666666668 -13.433333333333334 2.2 5000040.1606
11.338686666666668 -14.133333333333333 2.2 5000040.1606
11.338686666666668 -14.9 2.2 5000040.1606
11.338686666666668 -17.266666666666666 2.2 5000040.1606
11.338686666666668 -17.3 2.2 5000040.1606
11.338686666666668 -17.566666666666666 2.2 5000040.1606
10.95648 -17.666666666666668 2.2 5000028.6944
10.95648 2.8333333333333335 2.1666666666666665 5000028.6944
10.95648 2.7333333333333334 2.1666666666666665 5000028.6944
10.95648 2.433333333333333 2.1666666666666665 5000028.6944
12.229653333333333 0.8 2.1666666666666665 5000066.8896
10.248108 -0.5 2.1666666666666665 5000007.44324
10.231000333333334 -0.8666666666666667 2.1666666666666665 5000006.93001
10.203004333333332 -1.0666666666666667 2.1666666666666665 5000006.09013
11.338686666666668 -2.7 2.1666666666666665 5000040.1606
16.666666666666668 -2.8 2.1666666666666665 5000200.0
11.338686666666668 -3.2 2.1666666666666665 5000040.1606
11.338686666666668 -3.2333333333333334 2.1666666666666665 5000040.1606
10.39401 -3.566666666666667 2.1666666666666665 5000011.8203
10.39401 -3.6 2.1666666666666665 5000011.8203
11.338686666666668 -3.7333333333333334 2.1666666666666665 5000040.1606
11.338686666666668 -3.7666666666666666 2.1666666666666665 5000040.1606
11.338686666666668 -3.8 2.1666666666666665 5000040.1606
11.338686666666668 -3.8333333333333335 2.1666666666666665 5000040.1606
11.338686666666668 -3.8666666666666667 2.1666666666666665 5000040.1606
11.338686666666668 -3.9 2.1666666666666665 5000040.1606
11.338686666666668 -3.933333333333333 2.1666666666666665 5000040.1606
10.39401 -4.366666666666666 2.1666666666666665 5000011.8203
10.39401 -4.4 2.1666666666666665 5000011.8203
11.338686666666668 -4.533333333333333 2.1666666666666665 5000040.1606
11.338686666666668 -4.566666666666666 2.1666666666666665 5000040.1606
11.338686666666668 -4.6 2.1666666666666665 5000040.1606
10.608826666666667 -4.8 2.1666666666666665 5000018.2648
11.338686666666668 -6.166666666666667 2.1666666666666665 5000040.1606
10.5152 -6.666666666666667 2.1666666666666665 5000015.456
