VERSION .7
FIELDS x y z rgb
SIZE 4 4 4 4
TYPE F F F F
COUNT 1 1 1 1
WIDTH 905
HEIGHT 1
VIEWPOINT 0 0 0 1 0 0 0
POINTS 905
DATA ascii
9.7105 3.52 -4.0 5000004.27625
9.869596 2.9 -4.0 5000004.67399
9.869596 2.88 -4.0 5000004.67399
9.7105 4.72 -4.02 5000004.27625
9.640688 4.38 -4.02 5000004.10172
9.640688 4.36 -4.02 5000004.10172
9.640688 4.34 -4.02 5000004.10172
9.7105 4.3 -4.02 5000004.27625
9.7105 4.28 -4.02 5000004.27625
9.7105 4.26 -4.02 5000004.27625
9.786512 2.6 -4.02 5000004.46628
9.7105 4.74 -4.04 5000004.27625
9.7105 4.72 -4.04 5000004.27625
9.7105 4.68 -4.04 5000004.27625
9.640688 4.34 -4.04 5000004.10172
9.640688 4.32 -4.04 5000004.10172
9.640688 4.3 -4.04 5000004.10172
9.640688 4.28 -4.04 5000004.10172
9.7105 4.26 -4.04 5000004.27625
9.7105 4.24 -4.04 5000004.27625
9.786512 2.6 -4.04 5000004.46628
9.786512 2.58 -4.04 5000004.46628
9.640688 4.74 -4.08 5000004.10172
9.7105 4.72 -4.08 5000004.27625
9.7105 4.7 -4.08 5000004.27625
9.786512 -1.64 -4.12 5000004.46628
9.410436 4.18 -4.14 5000003.52609
9.786512 2.36 -4.16 5000004.46628
9.960784 -4.02 -4.16 5000004.90196
9.786512 -4.1 -4.16 5000004.46628
9.576356 4.84 -4.18 5000003.94089
9.786512 2.12 -4.18 5000004.46628
9.786512 -4.1 -4.18 5000004.46628
9.786512 -4.12 -4.18 5000004.46628
9.786512 -4.14 -4.18 5000004.46628
9.786512 -4.16 -4.18 5000004.46628
9.786512 -4.18 -4.18 5000004.46628
9.7105 3.44 -4.2 5000004.27625
9.576356 4.42 -4.22 5000003.94089
9.7105 3.48 -4.22 5000004.27625
9.7105 3.42 -4.22 5000004.27625
9.7105 3.46 -4.24 5000004.27625
9.7105 3.44 -4.24 5000004.27625
9.786512 -4.06 -4.24 5000004.46628
9.786512 -4.08 -4.24 5000004.46628
9.786512 -4.1 -4.24 5000004.46628
9.786512 -4.12 -4.24 5000004.46628
9.786512 -4.14 -4.24 5000004.46628
9.7105 -4.16 -4.24 5000004.27625
9.7105 -4.18 -4.24 5000004.27625
9.576356 4.44 -4.26 5000003.94089
9.576356 4.42 -4.26 5000003.94089
9.576356 4.4 -4.26 5000003.94089
9.7105 3.96 -4.26 5000004.27625
9.786512 3.52 -4.26 5000004.46628
9.7105 3.36 -4.26 5000004.27625
9.7105 2.98 -4.26 5000004.27625
9.7105 2.96 -4.26 5000004.27625
9.786512 -4.1 -4.26 5000004.46628
9.7105 -4.16 -4.26 5000004.27625
9.7105 -4.18 -4.26 5000004.27625
9.7105 -4.2 -4.26 5000004.27625
9.7105 -4.22 -4.26 5000004.27625
9.7105 -4.24 -4.26 5000004.27625
9.7105 -4.26 -4.26 5000004.27625
9.7105 4.08 -4.28 5000004.27625
9.7105 3.92 -4.28 5000004.27625
9.7105 3.02 -4.28 5000004.27625
9.7105 3.0 -4.28 5000004.27625
9.786512 -4.1 -4.28 5000004.46628
9.786512 -4.12 -4.28 5000004.46628
9.7105 -4.14 -4.28 5000004.27625
9.7105 -4.16 -4.28 5000004.27625
9.7105 -4.18 -4.3 5000004.27625
9.7105 -4.2 -4.3 5000004.27625
9.640688 4.94 -4.32 5000004.10172
9.640688 4.14 -4.32 5000004.10172
9.576356 4.1 -4.32 5000003.94089
9.869596 2.48 -4.32 5000004.67399
9.786512 2.48 -4.34 5000004.46628
9.7105 2.42 -4.34 5000004.27625
9.576356 4.08 -4.36 5000003.94089
9.576356 4.06 -4.36 5000003.94089
9.786512 2.52 -4.36 5000004.46628
9.786512 2.5 -4.36 5000004.46628
9.7105 2.42 -4.36 5000004.27625
9.640688 2.4 -4.36 5000004.10172
9.576356 4.16 -4.38 5000003.94089
9.786512 2.52 -4.38 5000004.46628
9.786512 2.5 -4.38 5000004.46628
9.786512 2.48 -4.38 5000004.46628
9.7105 2.42 -4.38 5000004.27625
9.640688 2.4 -4.38 5000004.10172
9.640688 2.38 -4.38 5000004.10172
9.640688 2.36 -4.38 5000004.10172
9.640688 2.4 -4.4 5000004.10172
9.640688 2.36 -4.4 5000004.10172
9.640688 2.34 -4.4 5000004.10172
9.786512 2.54 -4.42 5000004.46628
9.786512 2.52 -4.42 5000004.46628
9.640688 2.34 -4.42 5000004.10172
9.640688 2.6 -4.44 5000004.10172
9.640688 2.58 -4.44 5000004.10172
9.640688 2.46 -4.44 5000004.10172
9.640688 2.44 -4.44 5000004.10172
9.640688 2.42 -4.44 5000004.10172
9.640688 2.58 -4.46 5000004.10172
9.640688 2.56 -4.46 5000004.10172
9.640688 2.44 -4.46 5000004.10172
9.640688 2.42 -4.46 5000004.10172
9.640688 2.4 -4.46 5000004.10172
9.576356 2.52 -4.48 5000003.94089
9.576356 2.5 -4.48 5000003.94089
9.640688 2.48 -4.48 5000004.10172
9.576356 3.78 -4.52 5000003.94089
9.576356 3.82 -4.56 5000003.94089
9.576356 3.8 -4.56 5000003.94089
9.576356 3.78 -4.56 5000003.94089
9.576356 3.22 -4.58 5000003.94089
9.576356 1.62 -4.58 5000003.94089
9.576356 1.6 -4.58 5000003.94089
9.576356 1.58 -4.58 5000003.94089
9.576356 0.64 -4.58 5000003.94089
9.576356 0.62 -4.58 5000003.94089
9.576356 0.46 -4.58 5000003.94089
9.576356 0.54 -4.62 5000003.94089
9.576356 0.52 -4.62 5000003.94089
9.516876 4.36 -4.64 5000003.79219
9.576356 0.14 -4.64 5000003.94089
9.576356 -2.56 -4.7 5000003.94089
9.516876 3.44 -4.72 5000003.79219
9.516876 3.62 -4.76 5000003.79219
9.516876 -1.44 -4.76 5000003.79219
9.516876 3.68 -4.78 5000003.79219
9.516876 3.66 -4.78 5000003.79219
9.516876 1.46 -4.78 5000003.79219
9.516876 3.62 -4.8 5000003.79219
9.516876 2.12 -4.8 5000003.79219
9.516876 2.04 -4.8 5000003.79219
9.516876 3.68 -4.82 5000003.79219
9.516876 1.86 -4.88 5000003.79219
9.516876 1.84 -4.9 5000003.79219
9.46172 1.08 -4.94 5000003.6543
9.46172 4.44 -4.96 5000003.6543
9.46172 -1.54 -4.98 5000003.6543
9.46172 -1.56 -4.98 5000003.6543
9.46172 3.12 -5.0 5000003.6543
9.46172 0.46 -5.02 5000003.6543
9.46172 0.44 -5.02 5000003.6543
9.410436 4.54 -5.04 5000003.52609
9.410436 4.52 -5.04 5000003.52609
9.46172 4.12 -5.04 5000003.6543
9.46172 -1.38 -5.04 5000003.6543
9.410436 4.52 -5.06 5000003.52609
9.46172 -1.42 -5.06 5000003.6543
9.410436 1.58 -5.08 5000003.52609
9.410436 4.16 -5.1 5000003.52609
9.46172 -0.18 -5.1 5000003.6543
9.410436 2.06 -5.12 5000003.52609
9.410436 -1.36 -5.12 5000003.52609
9.410436 -1.38 -5.12 5000003.52609
9.410436 -1.4 -5.12 5000003.52609
9.46172 -0.22 -5.14 5000003.6543
9.410436 2.26 -5.16 5000003.52609
9.410436 2.24 -5.16 5000003.52609
9.362628 3.88 -5.28 5000003.40657
9.362628 1.08 -5.28 5000003.40657
9.362628 -3.26 -5.28 5000003.40657
9.362628 -4.1 -5.3 5000003.40657
9.362628 -3.84 -5.32 5000003.40657
9.362628 -3.86 -5.32 5000003.40657
88.0 -1.38 -5.34 5000200.0
88.0 -1.34 -5.36 5000200.0
9.317956 3.06 -5.38 5000003.29489
9.362628 -3.62 -5.38 5000003.40657
9.362628 -6.8 -5.38 5000003.40657
9.317956 -1.14 -5.44 5000003.29489
896
12.229653333333333 -2.2333333333333334 3.7666666666666666 5000066.8896
12.229653333333333 -2.4 3.7666666666666666 5000066.8896
12.229653333333333 -2.433333333333333 3.7666666666666666 5000066.8896
16.666666666666668 -4.233333333333333 3.7666666666666666 5000200.0
12.229653333333333 -4.333333333333333 3.7666666666666666 5000066.8896
10.5152 -4.966666666666667 3.7666666666666666 5000015.456
10.5152 -5.0 3.7666666666666666 5000015.456
10.5152 -5.766666666666667 3.7666666666666666 5000015.456
10.5152 -5.8 3.7666666666666666 5000015.456
10.95648 -6.266666666666667 3.7666666666666666 5000028.6944
11.338686666666668 -6.333333333333333 3.7666666666666666 5000040.1606
16.666666666666668 -7.866666666666666 3.7666666666666666 5000200.0
12.229653333333333 -10.533333333333333 3.7666666666666666 5000066.8896
12.229653333333333 -10.566666666666666 3.7666666666666666 5000066.8896
12.229653333333333 -10.633333333333333 3.7666666666666666 5000066.8896
10.608826666666667 -11.066666666666666 3.7666666666666666 5000018.2648
16.666666666666668 -13.4 3.7666666666666666 5000200.0
16.666666666666668 -13.466666666666667 3.7666666666666666 5000200.0
10.744046666666666 -13.7 3.7666666666666666 5000022.3214
10.744046666666666 -13.733333333333333 3.7666666666666666 5000022.3214
10.608826666666667 -13.833333333333334 3.7666666666666666 5000018.2648
10.608826666666667 -13.866666666666667 3.7666666666666666 5000018.2648
10.608826666666667 -13.9 3.7666666666666666 5000018.2648
10.608826666666667 -13.933333333333334 3.7666666666666666 5000018.2648
10.5152 -14.033333333333333 3.7666666666666666 5000015.456
10.5152 -14.1 3.7666666666666666 5000015.456
11.338686666666668 -17.066666666666666 3.7666666666666666 5000040.1606
11.338686666666668 -17.533333333333335 3.7666666666666666 5000040.1606
10.95648 3.0 3.7333333333333334 5000028.6944
16.666666666666668 2.6 3.7333333333333334 5000200.0
12.229653333333333 1.6 3.7333333333333334 5000066.8896
12.229653333333333 1.5666666666666667 3.7333333333333334 5000066.8896
12.229653333333333 1.4 3.7333333333333334 5000066.8896
12.229653333333333 1.2333333333333334 3.7333333333333334 5000066.8896
12.229653333333333 1.2 3.7333333333333334 5000066.8896
12.229653333333333 0.9 3.7333333333333334 5000066.8896
12.229653333333333 0.8666666666666667 3.7333333333333334 5000066.8896
12.229653333333333 0.4 3.7333333333333334 5000066.8896
12.229653333333333 0.3 3.7333333333333334 5000066.8896
12.229653333333333 0.26666666666666666 3.7333333333333334 5000066.8896
12.229653333333333 -0.5666666666666667 3.7333333333333334 5000066.8896
12.229653333333333 -0.9666666666666667 3.7333333333333334 5000066.8896
12.229653333333333 -1.0666666666666667 3.7333333333333334 5000066.8896
12.229653333333333 -1.1 3.7333333333333334 5000066.8896
12.229653333333333 -1.8 3.7333333333333334 5000066.8896
12.229653333333333 -1.9666666666666666 3.7333333333333334 5000066.8896
12.229653333333333 -2.0 3.7333333333333334 5000066.8896
12.229653333333333 -2.2333333333333334 3.7333333333333334 5000066.8896
12.229653333333333 -2.4 3.7333333333333334 5000066.8896
12.229653333333333 -2.433333333333333 3.7333333333333334 5000066.8896
12.229653333333333 -2.8666666666666667 3.7333333333333334 5000066.8896
16.666666666666668 -4.233333333333333 3.7333333333333334 5000200.0
10.5152 -4.966666666666667 3.7333333333333334 5000015.456
10.5152 -5.0 3.7333333333333334 5000015.456
10.608826666666667 -5.666666666666667 3.7333333333333334 5000018.2648
10.5152 -5.766666666666667 3.7333333333333334 5000015.456
11.338686666666668 -6.166666666666667 3.7333333333333334 5000040.1606
10.95648 -6.233333333333333 3.7333333333333334 5000028.6944
10.95648 -6.266666666666667 3.7333333333333334 5000028.6944
11.338686666666668 -10.066666666666666 3.7333333333333334 5000040.1606
12.229653333333333 -10.533333333333333 3.7333333333333334 5000066.8896
12.229653333333333 -10.566666666666666 3.7333333333333334 5000066.8896
11.338686666666668 -10.633333333333333 3.7333333333333334 5000040.1606
10.744046666666666 -13.733333333333333 3.7333333333333334 5000022.3214
10.744046666666666 -13.766666666666667 3.7333333333333334 5000022.3214
10.608826666666667 -13.833333333333334 3.7333333333333334 5000018.2648
10.608826666666667 -13.866666666666667 3.7333333333333334 5000018.2648
11.338686666666668 -16.833333333333332 3.7333333333333334 5000040.1606
11.338686666666668 -17.4 3.7333333333333334 5000040.1606
11.338686666666668 -17.533333333333335 3.7333333333333334 5000040.1606
10.95648 3.0 3.7 5000028.6944
10.95648 2.966666666666667 3.7 5000028.6944
12.229653333333333 1.6 3.7 5000066.8896
12.229653333333333 1.5666666666666667 3.7 5000066.8896
12.229653333333333 1.4 3.7 5000066.8896
12.229653333333333 1.2333333333333334 3.7 5000066.8896
12.229653333333333 1.2 3.7 5000066.8896
12.229653333333333 0.9 3.7 5000066.8896
12.229653333333333 0.8666666666666667 3.7 5000066.8896
12.229653333333333 0.4 3.7 5000066.8896
12.229653333333333 0.3 3.7 5000066.8896
12.229653333333333 -0.5666666666666667 3.7 5000066.8896
12.229653333333333 -0.9666666666666667 3.7 5000066.8896
12.229653333333333 -1.0666666666666667 3.7 5000066.8896
12.229653333333333 -1.8 3.7 5000066.8896
12.229653333333333 -1.9666666666666666 3.7 5000066.8896
12.229653333333333 -2.0 3.7 5000066.8896
12.229653333333333 -2.2333333333333334 3.7 5000066.8896
12.229653333333333 -2.4 3.7 5000066.8896
12.229653333333333 -2.433333333333333 3.7 5000066.8896
12.229653333333333 -3.0 3.7 5000066.8896
12.229653333333333 -3.1333333333333333 3.7 5000066.8896
12.229653333333333 -3.1666666666666665 3.7 5000066.8896
16.666666666666668 -4.233333333333333 3.7 5000200.0
10.5152 -4.966666666666667 3.7 5000015.456
10.5152 -5.0 3.7 5000015.456
10.608826666666667 -5.666666666666667 3.7 5000018.2648
10.5152 -5.766666666666667 3.7 5000015.456
11.338686666666668 -6.166666666666667 3.7 5000040.1606
10.95648 -6.233333333333333 3.7 5000028.6944
10.95648 -6.266666666666667 3.7 5000028.6944
10.95648 -7.5 3.7 5000028.6944
12.229653333333333 -10.533333333333333 3.7 5000066.8896
11.338686666666668 -10.633333333333333 3.7 5000040.1606
10.744046666666666 -13.733333333333333 3.7 5000022.3214
10.608826666666667 -13.833333333333334 3.7 5000018.2648
10.39401 -14.2 3.7 5000011.8203
11.338686666666668 -16.833333333333332 3.7 5000040.1606
11.338686666666668 -17.066666666666666 3.7 5000040.1606
11.338686666666668 -17.4 3.7 5000040.1606
11.338686666666668 -17.533333333333335 3.7 5000040.1606
10.95648 3.033333333333333 3.6666666666666665 5000028.6944
10.95648 3.0 3.6666666666666665 5000028.6944
12.229653333333333 1.6 3.6666666666666665 5000066.8896
12.229653333333333 1.5666666666666667 3.6666666666666665 5000066.8896
12.229653333333333 1.4 3.6666666666666665 5000066.8896
12.229653333333333 1.2333333333333334 3.6666666666666665 5000066.8896
12.229653333333333 1.2 3.6666666666666665 5000066.8896
12.229653333333333 0.9 3.6666666666666665 5000066.8896
12.229653333333333 0.8666666666666667 3.6666666666666665 5000066.8896
12.229653333333333 0.4 3.6666666666666665 5000066.8896
12.229653333333333 0.3 3.6666666666666665 5000066.8896
12.229653333333333 -0.5666666666666667 3.6666666666666665 5000066.8896
12.229653333333333 -0.8 3.6666666666666665 5000066.8896
12.229653333333333 -0.9666666666666667 3.6666666666666665 5000066.8896
12.229653333333333 -1.0666666666666667 3.6666666666666665 5000066.8896
12.229653333333333 -1.1 3.6666666666666665 5000066.8896
12.229653333333333 -1.7666666666666666 3.6666666666666665 5000066.8896
12.229653333333333 -1.8 3.6666666666666665 5000066.8896
12.229653333333333 -1.9666666666666666 3.6666666666666665 5000066.8896
12.229653333333333 -2.0 3.6666666666666665 5000066.8896
12.229653333333333 -2.2333333333333334 3.6666666666666665 5000066.8896
12.229653333333333 -2.4 3.6666666666666665 5000066.8896
12.229653333333333 -2.433333333333333 3.6666666666666665 5000066.8896
12.229653333333333 -3.0 3.6666666666666665 5000066.8896
12.229653333333333 -3.1333333333333333 3.6666666666666665 5000066.8896
12.229653333333333 -3.1666666666666665 3.6666666666666665 5000066.8896
10.95648 -4.133333333333334 3.6666666666666665 5000028.6944
16.666666666666668 -4.233333333333333 3.6666666666666665 5000200.0
16.666666666666668 -4.266666666666667 3.6666666666666665 5000200.0
10.5152 -4.966666666666667 3.6666666666666665 5000015.456
10.5152 -5.766666666666667 3.6666666666666665 5000015.456
11.338686666666668 -6.166666666666667 3.6666666666666665 5000040.1606
10.95648 -6.233333333333333 3.6666666666666665 5000028.6944
10.95648 -7.5 3.6666666666666665 5000028.6944
12.229653333333333 -10.266666666666667 3.6666666666666665 5000066.8896
12.229653333333333 -10.5 3.6666666666666665 5000066.8896
12.229653333333333 -10.533333333333333 3.6666666666666665 5000066.8896
12.229653333333333 -10.6 3.6666666666666665 5000066.8896
10.95648 -11.533333333333333 3.6666666666666665 5000028.6944
11.338686666666668 -16.833333333333332 3.6666666666666665 5000040.1606
11.338686666666668 -17.066666666666666 3.6666666666666665 5000040.1606
11.338686666666668 -17.4 3.6666666666666665 5000040.1606
11.338686666666668 -17.533333333333335 3.6666666666666665 5000040.1606
10.95648 3.033333333333333 3.6333333333333333 5000028.6944
12.229653333333333 1.6 3.6333333333333333 5000066.8896
12.229653333333333 1.5666666666666667 3.6333333333333333 5000066.8896
12.229653333333333 1.4 3.6333333333333333 5000066.8896
12.229653333333333 1.2333333333333334 3.6333333333333333 5000066.8896
12.229653333333333 1.2 3.6333333333333333 5000066.8896
12.229653333333333 0.9 3.6333333333333333 5000066.8896
12.229653333333333 0.8666666666666667 3.6333333333333333 5000066.8896
12.229653333333333 0.4 3.6333333333333333 5000066.8896
12.229653333333333 0.3 3.6333333333333333 5000066.8896
12.229653333333333 0.26666666666666666 3.6333333333333333 5000066.8896
12.229653333333333 -0.5666666666666667 3.6333333333333333 5000066.8896
12.229653333333333 -0.8 3.6333333333333333 5000066.8896
12.229653333333333 -1.3333333333333333 3.6333333333333333 5000066.8896
12.229653333333333 -1.7666666666666666 3.6333333333333333 5000066.8896
12.229653333333333 -1.8 3.6333333333333333 5000066.8896
12.229653333333333 -1.9666666666666666 3.6333333333333333 5000066.8896
12.229653333333333 -2.0 3.6333333333333333 5000066.8896
12.229653333333333 -2.2333333333333334 3.6333333333333333 5000066.8896
12.229653333333333 -2.4 3.6333333333333333 5000066.8896
12.229653333333333 -2.433333333333333 3.6333333333333333 5000066.8896
12.229653333333333 -3.0 3.6333333333333333 5000066.8896
12.229653333333333 -3.1333333333333333 3.6333333333333333 5000066.8896
12.229653333333333 -3.1666666666666665 3.6333333333333333 5000066.8896
16.666666666666668 -4.233333333333333 3.6333333333333333 5000200.0
10.744046666666666 -4.6 3.6333333333333333 5000022.3214
10.5152 -5.0 3.6333333333333333 5000015.456
10.5152 -5.733333333333333 3.6333333333333333 5000015.456
10.5152 -5.766666666666667 3.6333333333333333 5000015.456
16.666666666666668 -7.0 3.6333333333333333 5000200.0
12.229653333333333 -7.1 3.6333333333333333 5000066.8896
12.229653333333333 -7.3 3.6333333333333333 5000066.8896
10.95648 -7.5 3.6333333333333333 5000028.6944
10.95648 -7.833333333333333 3.6333333333333333 5000028.6944
10.608826666666667 -8.033333333333333 3.6333333333333333 5000018.2648
12.229653333333333 -10.5 3.6333333333333333 5000066.8896
12.229653333333333 -10.533333333333333 3.6333333333333333 5000066.8896
12.229653333333333 -10.6 3.6333333333333333 5000066.8896
10.95648 -11.6 3.6333333333333333 5000028.6944
11.338686666666668 -16.833333333333332 3.6333333333333333 5000040.1606
11.338686666666668 -17.066666666666666 3.6333333333333333 5000040.1606
11.338686666666668 -17.4 3.6333333333333333 5000040.1606
11.338686666666668 -17.533333333333335 3.6333333333333333 5000040.1606
10.95648 3.033333333333333 3.6 5000028.6944
12.229653333333333 1.6 3.6 5000066.8896
12.229653333333333 1.5666666666666667 3.6 5000066.8896
12.229653333333333 1.4 3.6 5000066.8896
12.229653333333333 1.2333333333333334 3.6 5000066.8896
12.229653333333333 1.2 3.6 5000066.8896
12.229653333333333 0.9 3.6 5000066.8896
12.229653333333333 0.4 3.6 5000066.8896
12.229653333333333 0.3 3.6 5000066.8896
12.229653333333333 -0.5666666666666667 3.6 5000066.8896
12.229653333333333 -1.7666666666666666 3.6 5000066.8896
12.229653333333333 -1.8 3.6 5000066.8896
12.229653333333333 -1.9666666666666666 3.6 5000066.8896
12.229653333333333 -2.0 3.6 5000066.8896
12.229653333333333 -2.2333333333333334 3.6 5000066.8896
12.229653333333333 -2.4 3.6 5000066.8896
12.229653333333333 -2.433333333333333 3.6 5000066.8896
12.229653333333333 -3.0 3.6 5000066.8896
12.229653333333333 -3.1333333333333333 3.6 5000066.8896
12.229653333333333 -3.1666666666666665 3.6 5000066.8896
16.666666666666668 -3.6333333333333333 3.6 5000200.0
16.666666666666668 -3.6666666666666665 3.6 5000200.0
16.666666666666668 -3.7 3.6 5000200.0
11.338686666666668 -4.433333333333334 3.6 5000040.1606
10.744046666666666 -4.6 3.6 5000022.3214
10.5152 -5.733333333333333 3.6 5000015.456
10.5152 -5.766666666666667 3.6 5000015.456
16.666666666666668 -5.9 3.6 5000200.0
11.338686666666668 -6.166666666666667 3.6 5000040.1606
11.338686666666668 -6.233333333333333 3.6 5000040.1606
16.666666666666668 -7.0 3.6 5000200.0
12.229653333333333 -7.1 3.6 5000066.8896
12.229653333333333 -7.3 3.6 5000066.8896
12.229653333333333 -7.5 3.6 5000066.8896
12.229653333333333 -7.566666666666666 3.6 5000066.8896
10.95648 -7.8 3.6 5000028.6944
10.95648 -7.833333333333333 3.6 5000028.6944
12.229653333333333 -10.533333333333333 3.6 5000066.8896
12.229653333333333 -10.6 3.6 5000066.8896
10.95648 -11.6 3.6 5000028.6944
11.338686666666668 -16.833333333333332 3.6 5000040.1606
11.338686666666668 -17.066666666666666 3.6 5000040.1606
11.338686666666668 -17.4 3.6 5000040.1606
11.338686666666668 -17.533333333333335 3.6 5000040.1606
10.95648 3.033333333333333 3.566666666666667 5000028.6944
12.229653333333333 1.6 3.566666666666667 5000066.8896
12.229653333333333 1.5666666666666667 3.566666666666667 5000066.8896
12.229653333333333 1.4 3.566666666666667 5000066.8896
12.229653333333333 1.2333333333333334 3.566666666666667 5000066.8896
12.229653333333333 1.2 3.566666666666667 5000066.8896
12.229653333333333 0.9 3.566666666666667 5000066.8896
12.229653333333333 0.4 3.566666666666667 5000066.8896
12.229653333333333 0.3 3.566666666666667 5000066.8896
12.229653333333333 -1.7666666666666666 3.566666666666667 5000066.8896
12.229653333333333 -1.8 3.566666666666667 5000066.8896
12.229653333333333 -1.9666666666666666 3.566666666666667 5000066.8896
12.229653333333333 -2.0 3.566666666666667 5000066.8896
12.229653333333333 -2.2333333333333334 3.566666666666667 5000066.8896
12.229653333333333 -2.4 3.566666666666667 5000066.8896
12.229653333333333 -2.433333333333333 3.566666666666667 5000066.8896
12.229653333333333 -3.1333333333333333 3.566666666666667 5000066.8896
12.229653333333333 -3.1666666666666665 3.566666666666667 5000066.8896
16.666666666666668 -3.6333333333333333 3.566666666666667 5000200.0
16.666666666666668 -3.7 3.566666666666667 5000200.0
11.338686666666668 -4.433333333333334 3.566666666666667 5000040.1606
10.744046666666666 -4.6 3.566666666666667 5000022.3214
10.608826666666667 -5.733333333333333 3.566666666666667 5000018.2648
10.608826666666667 -5.766666666666667 3.566666666666667 5000018.2648
16.666666666666668 -5.9 3.566666666666667 5000200.0
11.338686666666668 -6.166666666666667 3.566666666666667 5000040.1606
11.338686666666668 -6.233333333333333 3.566666666666667 5000040.1606
16.666666666666668 -7.0 3.566666666666667 5000200.0
12.229653333333333 -7.1 3.566666666666667 5000066.8896
12.229653333333333 -7.3 3.566666666666667 5000066.8896
12.229653333333333 -7.5 3.566666666666667 5000066.8896
12.229653333333333 -7.566666666666666 3.566666666666667 5000066.8896
10.95648 -7.8 3.566666666666667 5000028.6944
10.5152 -8.133333333333333 3.566666666666667 5000015.456
10.5152 -8.166666666666666 3.566666666666667 5000015.456
10.291248 -8.633333333333333 3.566666666666667 5000008.73744
12.229653333333333 -10.566666666666666 3.566666666666667 5000066.8896
10.95648 -11.533333333333333 3.566666666666667 5000028.6944
10.95648 -11.6 3.566666666666667 5000028.6944
11.338686666666668 -12.666666666666666 3.566666666666667 5000040.1606
11.338686666666668 -16.833333333333332 3.566666666666667 5000040.1606
11.338686666666668 -17.4 3.566666666666667 5000040.1606
11.338686666666668 -17.533333333333335 3.566666666666667 5000040.1606
11.338686666666668 -17.9 3.566666666666667 5000040.1606
12.229653333333333 1.6 3.533333333333333 5000066.8896
12.229653333333333 1.5666666666666667 3.533333333333333 5000066.8896
12.229653333333333 1.4 3.533333333333333 5000066.8896
12.229653333333333 1.2333333333333334 3.533333333333333 5000066.8896
12.229653333333333 1.2 3.533333333333333 5000066.8896
12.229653333333333 0.9 3.533333333333333 5000066.8896
12.229653333333333 0.8666666666666667 3.533333333333333 5000066.8896
12.229653333333333 0.4 3.533333333333333 5000066.8896
12.229653333333333 0.3 3.533333333333333 5000066.8896
12.229653333333333 -2.2333333333333334 3.533333333333333 5000066.8896
12.229653333333333 -2.4 3.533333333333333 5000066.8896
12.229653333333333 -2.433333333333333 3.533333333333333 5000066.8896
12.229653333333333 -3.1333333333333333 3.533333333333333 5000066.8896
12.229653333333333 -3.1666666666666665 3.533333333333333 5000066.8896
16.666666666666668 -3.6333333333333333 3.533333333333333 5000200.0
16.666666666666668 -4.133333333333334 3.533333333333333 5000200.0
11.338686666666668 -4.433333333333334 3.533333333333333 5000040.1606
10.5152 -5.733333333333333 3.533333333333333 5000015.456
10.5152 -5.766666666666667 3.533333333333333 5000015.456
11.338686666666668 -6.166666666666667 3.533333333333333 5000040.1606
11.338686666666668 -6.233333333333333 3.533333333333333 5000040.1606
16.666666666666668 -7.166666666666667 3.533333333333333 5000200.0
12.229653333333333 -7.3 3.533333333333333 5000066.8896
12.229653333333333 -7.5 3.533333333333333 5000066.8896
12.229653333333333 -7.566666666666666 3.533333333333333 5000066.8896
10.95648 -7.8 3.533333333333333 5000028.6944
10.5152 -8.133333333333333 3.533333333333333 5000015.456
10.5152 -8.166666666666666 3.533333333333333 5000015.456
10.291248 -8.633333333333333 3.533333333333333 5000008.73744
12.229653333333333 -10.566666666666666 3.533333333333333 5000066.8896
11.338686666666668 -14.6 3.533333333333333 5000040.1606
11.338686666666668 -16.833333333333332 3.533333333333333 5000040.1606
11.338686666666668 -17.4 3.533333333333333 5000040.1606
11.338686666666668 -17.533333333333335 3.533333333333333 5000040.1606
11.338686666666668 -17.9 3.533333333333333 5000040.1606
10.95648 3.1666666666666665 3.5 5000028.6944
10.95648 3.1333333333333333 3.5 5000028.6944
16.666666666666668 2.2666666666666666 3.5 5000200.0
12.229653333333333 1.6 3.5 5000066.8896
12.229653333333333 1.5666666666666667 3.5 5000066.8896
12.229653333333333 1.4 3.5 5000066.8896
12.229653333333333 1.2333333333333334 3.5 5000066.8896
12.229653333333333 1.2 3.5 5000066.8896
12.229653333333333 0.9 3.5 5000066.8896
12.229653333333333 0.8666666666666667 3.5 5000066.8896
12.229653333333333 0.4 3.5 5000066.8896
12.229653333333333 0.1 3.5 5000066.8896
12.229653333333333 0.06666666666666667 3.5 5000066.8896
12.229653333333333 -2.433333333333333 3.5 5000066.8896
16.666666666666668 -2.933333333333333 3.5 5000200.0
12.229653333333333 -3.1666666666666665 3.5 5000066.8896
16.666666666666668 -3.6333333333333333 3.5 5000200.0
16.666666666666668 -4.133333333333334 3.5 5000200.0
11.338686666666668 -4.433333333333334 3.5 5000040.1606
10.5152 -5.733333333333333 3.5 5000015.456
10.5152 -5.766666666666667 3.5 5000015.456
16.666666666666668 -7.166666666666667 3.5 5000200.0
12.229653333333333 -7.3 3.5 5000066.8896
16.666666666666668 -7.5 3.5 5000200.0
16.666666666666668 -7.566666666666666 3.5 5000200.0
10.95648 -7.8 3.5 5000028.6944
16.666666666666668 -10.466666666666667 3.5 5000200.0
12.229653333333333 -10.566666666666666 3.5 5000066.8896
12.229653333333333 -10.6 3.5 5000066.8896
11.338686666666668 -14.6 3.5 5000040.1606
11.338686666666668 -16.833333333333332 3.5 5000040.1606
11.338686666666668 -17.4 3.5 5000040.1606
10.95648 3.1666666666666665 3.466666666666667 5000028.6944
12.229653333333333 1.5666666666666667 3.466666666666667 5000066.8896
12.229653333333333 1.5333333333333334 3.466666666666667 5000066.8896
12.229653333333333 1.4 3.466666666666667 5000066.8896
12.229653333333333 1.2333333333333334 3.466666666666667 5000066.8896
12.229653333333333 1.2 3.466666666666667 5000066.8896
12.229653333333333 0.9 3.466666666666667 5000066.8896
12.229653333333333 0.8666666666666667 3.466666666666667 5000066.8896
12.229653333333333 -2.933333333333333 3.466666666666667 5000066.8896
12.229653333333333 -3.0 3.466666666666667 5000066.8896
12.229653333333333 -3.1333333333333333 3.466666666666667 5000066.8896
12.229653333333333 -3.1666666666666665 3.466666666666667 5000066.8896
16.666666666666668 -3.6333333333333333 3.466666666666667 5000200.0
16.666666666666668 -4.1 3.466666666666667 5000200.0
11.338686666666668 -4.433333333333334 3.466666666666667 5000040.1606
10.608826666666667 -5.766666666666667 3.466666666666667 5000018.2648
16.666666666666668 -7.5 3.466666666666667 5000200.0
10.95648 -7.8 3.466666666666667 5000028.6944
10.608826666666667 -8.033333333333333 3.466666666666667 5000018.2648
10.39401 -8.3 3.466666666666667 5000011.8203
10.291248 -8.633333333333333 3.466666666666667 5000008.73744
12.229653333333333 -10.566666666666666 3.466666666666667 5000066.8896
12.229653333333333 -10.6 3.466666666666667 5000066.8896
11.338686666666668 -11.433333333333334 3.466666666666667 5000040.1606
11.338686666666668 -11.466666666666667 3.466666666666667 5000040.1606
10.291248 -11.733333333333333 3.466666666666667 5000008.73744
10.267952666666666 -11.833333333333334 3.466666666666667 5000008.03858
11.338686666666668 -14.6 3.466666666666667 5000040.1606
11.338686666666668 -16.833333333333332 3.466666666666667 5000040.1606
11.338686666666668 -17.4 3.466666666666667 5000040.1606
10.95648 3.2 3.433333333333333 5000028.6944
11.338686666666668 1.7 3.433333333333333 5000040.1606
12.229653333333333 1.5666666666666667 3.433333333333333 5000066.8896
12.229653333333333 1.5333333333333334 3.433333333333333 5000066.8896
12.229653333333333 1.4 3.433333333333333 5000066.8896
12.229653333333333 1.2333333333333334 3.433333333333333 5000066.8896
12.229653333333333 1.2 3.433333333333333 5000066.8896
12.229653333333333 0.9 3.433333333333333 5000066.8896
12.229653333333333 0.7 3.433333333333333 5000066.8896
12.229653333333333 -3.0 3.433333333333333 5000066.8896
12.229653333333333 -3.1333333333333333 3.433333333333333 5000066.8896
12.229653333333333 -3.1666666666666665 3.433333333333333 5000066.8896
16.666666666666668 -3.6333333333333333 3.433333333333333 5000200.0
16.666666666666668 -4.133333333333334 3.433333333333333 5000200.0
10.5152 -5.766666666666667 3.433333333333333 5000015.456
10.5152 -5.833333333333333 3.433333333333333 5000015.456
16.666666666666668 -6.166666666666667 3.433333333333333 5000200.0
16.666666666666668 -6.466666666666667 3.433333333333333 5000200.0
16.666666666666668 -6.533333333333333 3.433333333333333 5000200.0
16.666666666666668 -7.5 3.433333333333333 5000200.0
11.338686666666668 -7.666666666666667 3.433333333333333 5000040.1606
10.95648 -7.8 3.433333333333333 5000028.6944
10.608826666666667 -8.0 3.433333333333333 5000018.2648
10.608826666666667 -8.033333333333333 3.433333333333333 5000018.2648
10.5152 -8.133333333333333 3.433333333333333 5000015.456
10.39401 -8.3 3.433333333333333 5000011.8203
10.291248 -8.633333333333333 3.433333333333333 5000008.73744
12.229653333333333 -10.566666666666666 3.433333333333333 5000066.8896
11.338686666666668 -11.433333333333334 3.433333333333333 5000040.1606
11.338686666666668 -11.466666666666667 3.433333333333333 5000040.1606
10.95648 -11.533333333333333 3.433333333333333 5000028.6944
10.95648 -11.566666666666666 3.433333333333333 5000028.6944
11.338686666666668 -14.6 3.433333333333333 5000040.1606
11.338686666666668 -16.833333333333332 3.433333333333333 5000040.1606
11.338686666666668 -17.4 3.433333333333333 5000040.1606
10.95648 3.2 3.4 5000028.6944
12.229653333333333 1.6 3.4 5000066.8896
12.229653333333333 1.5666666666666667 3.4 5000066.8896
12.229653333333333 1.4 3.4 5000066.8896
12.229653333333333 -3.0 3.4 5000066.8896
12.229653333333333 -3.1333333333333333 3.4 5000066.8896
12.229653333333333 -3.1666666666666665 3.4 5000066.8896
16.666666666666668 -3.6333333333333333 3.4 5000200.0
11.338686666666668 -4.433333333333334 3.4 5000040.1606
10.5152 -5.733333333333333 3.4 5000015.456
10.5152 -5.766666666666667 3.4 5000015.456
10.5152 -5.833333333333333 3.4 5000015.456
16.666666666666668 -6.166666666666667 3.4 5000200.0
12.229653333333333 -6.3 3.4 5000066.8896
16.666666666666668 -6.5 3.4 5000200.0
16.666666666666668 -6.533333333333333 3.4 5000200.0
11.338686666666668 -6.7 3.4 5000040.1606
16.666666666666668 -7.5 3.4 5000200.0
11.338686666666668 -7.666666666666667 3.4 5000040.1606
10.95648 -7.8 3.4 5000028.6944
12.229653333333333 -10.533333333333333 3.4 5000066.8896
12.229653333333333 -10.566666666666666 3.4 5000066.8896
11.338686666666668 -11.366666666666667 3.4 5000040.1606
11.338686666666668 -11.433333333333334 3.4 5000040.1606
11.338686666666668 -11.466666666666667 3.4 5000040.1606
10.95648 -11.533333333333333 3.4 5000028.6944
10.95648 -11.566666666666666 3.4 5000028.6944
11.338686666666668 -14.6 3.4 5000040.1606
11.338686666666668 -16.633333333333333 3.4 5000040.1606
10.95648 -16.733333333333334 3.4 5000028.6944
10.95648 -16.766666666666666 3.4 5000028.6944
10.95648 -16.8 3.4 5000028.6944
11.338686666666668 -16.9 3.4 5000040.1606
11.338686666666668 1.8333333333333333 3.3666666666666667 5000040.1606
12.229653333333333 1.6 3.3666666666666667 5000066.8896
12.229653333333333 1.5666666666666667 3.3666666666666667 5000066.8896
12.229653333333333 -3.1666666666666665 3.3666666666666667 5000066.8896
16.666666666666668 -3.6333333333333333 3.3666666666666667 5000200.0
16.666666666666668 -4.133333333333334 3.3666666666666667 5000200.0
11.338686666666668 -4.433333333333334 3.3666666666666667 5000040.1606
10.95648 -4.6 3.3666666666666667 5000028.6944
10.95648 -4.666666666666667 3.3666666666666667 5000028.6944
10.5152 -5.733333333333333 3.3666666666666667 5000015.456
12.229653333333333 -6.3 3.3666666666666667 5000066.8896
11.338686666666668 -6.7 3.3666666666666667 5000040.1606
16.666666666666668 -7.5 3.3666666666666667 5000200.0
11.338686666666668 -7.666666666666667 3.3666666666666667 5000040.1606
10.95648 -7.8 3.3666666666666667 5000028.6944
11.338686666666668 -11.366666666666667 3.3666666666666667 5000040.1606
11.338686666666668 -11.433333333333334 3.3666666666666667 5000040.1606
11.338686666666668 -11.466666666666667 3.3666666666666667 5000040.1606
10.95648 -11.533333333333333 3.3666666666666667 5000028.6944
10.95648 -11.566666666666666 3.3666666666666667 5000028.6944
11.338686666666668 -14.6 3.3666666666666667 5000040.1606
11.338686666666668 -16.6 3.3666666666666667 5000040.1606
11.338686666666668 -16.633333333333333 3.3666666666666667 5000040.1606
10.95648 -16.733333333333334 3.3666666666666667 5000028.6944
12.229653333333333 1.6 3.3333333333333335 5000066.8896
12.229653333333333 1.5666666666666667 3.3333333333333335 5000066.8896
16.666666666666668 -3.6333333333333333 3.3333333333333335 5000200.0
11.338686666666668 -4.433333333333334 3.3333333333333335 5000040.1606
10.95648 -4.6 3.3333333333333335 5000028.6944
10.95648 -4.666666666666667 3.3333333333333335 5000028.6944
10.5152 -4.933333333333334 3.3333333333333335 5000015.456
10.744046666666666 -5.566666666666666 3.3333333333333335 5000022.3214
10.5152 -5.733333333333333 3.3333333333333335 5000015.456
12.229653333333333 -6.133333333333334 3.3333333333333335 5000066.8896
12.229653333333333 -6.3 3.3333333333333335 5000066.8896
12.229653333333333 -6.333333333333333 3.3333333333333335 5000066.8896
16.666666666666668 -7.466666666666667 3.3333333333333335 5000200.0
11.338686666666668 -7.666666666666667 3.3333333333333335 5000040.1606
10.95648 -7.8 3.3333333333333335 5000028.6944
11.338686666666668 -11.433333333333334 3.3333333333333335 5000040.1606
11.338686666666668 -11.466666666666667 3.3333333333333335 5000040.1606
10.95648 -11.533333333333333 3.3333333333333335 5000028.6944
11.338686666666668 -14.6 3.3333333333333335 5000040.1606
11.338686666666668 -16.6 3.3333333333333335 5000040.1606
11.338686666666668 -16.633333333333333 3.3333333333333335 5000040.1606
16.666666666666668 1.9333333333333333 3.3 5000200.0
11.338686666666668 1.7666666666666666 3.3 5000040.1606
12.229653333333333 1.5666666666666667 3.3 5000066.8896
16.666666666666668 -3.6333333333333333 3.3 5000200.0
16.666666666666668 -4.3 3.3 5000200.0
11.338686666666668 -4.433333333333334 3.3 5000040.1606
10.95648 -4.666666666666667 3.3 5000028.6944
10.5152 -5.733333333333333 3.3 5000015.456
12.229653333333333 -6.133333333333334 3.3 5000066.8896
12.229653333333333 -6.333333333333333 3.3 5000066.8896
16.666666666666668 -6.533333333333333 3.3 5000200.0
16.666666666666668 -6.866666666666666 3.3 5000200.0
10.95648 -7.466666666666667 3.3 5000028.6944
11.338686666666668 -14.6 3.3 5000040.1606
11.338686666666668 -16.6 3.3 5000040.1606
10.95648 -16.7 3.3 5000028.6944
16.666666666666668 1.9333333333333333 3.2666666666666666 5000200.0
11.338686666666668 1.7666666666666666 3.2666666666666666 5000040.1606
12.229653333333333 1.5666666666666667 3.2666666666666666 5000066.8896
10.318979333333333 0.6333333333333333 3.2666666666666666 5000009.56938
16.666666666666668 -4.266666666666667 3.2666666666666666 5000200.0
11.338686666666668 -4.433333333333334 3.2666666666666666 5000040.1606
10.95648 -4.6 3.2666666666666666 5000028.6944
10.95648 -4.666666666666667 3.2666666666666666 5000028.6944
10.5152 -5.733333333333333 3.2666666666666666 5000015.456
12.229653333333333 -6.133333333333334 3.2666666666666666 5000066.8896
16.666666666666668 -6.566666666666666 3.2666666666666666 5000200.0
16.666666666666668 -6.866666666666666 3.2666666666666666 5000200.0
16.666666666666668 -7.333333333333333 3.2666666666666666 5000200.0
10.744046666666666 -7.866666666666666 3.2666666666666666 5000022.3214
11.338686666666668 -9.933333333333334 3.2666666666666666 5000040.1606
11.338686666666668 -14.6 3.2666666666666666 5000040.1606
11.338686666666668 -16.566666666666666 3.2666666666666666 5000040.1606
11.338686666666668 -16.6 3.2666666666666666 5000040.1606
10.95648 -16.7 3.2666666666666666 5000028.6944
16.666666666666668 1.9333333333333333 3.2333333333333334 5000200.0
11.338686666666668 1.7666666666666666 3.2333333333333334 5000040.1606
12.229653333333333 -0.9333333333333333 3.2333333333333334 5000066.8896
16.666666666666668 -4.3 3.2333333333333334 5000200.0
11.338686666666668 -4.433333333333334 3.2333333333333334 5000040.1606
10.95648 -4.6 3.2333333333333334 5000028.6944
16.666666666666668 -5.133333333333334 3.2333333333333334 5000200.0
10.5152 -5.7 3.2333333333333334 5000015.456
10.5152 -5.733333333333333 3.2333333333333334 5000015.456
12.229653333333333 -6.133333333333334 3.2333333333333334 5000066.8896
16.666666666666668 -6.566666666666666 3.2333333333333334 5000200.0
16.666666666666668 -6.6 3.2333333333333334 5000200.0
16.666666666666668 -6.866666666666666 3.2333333333333334 5000200.0
10.95648 -7.466666666666667 3.2333333333333334 5000028.6944
11.338686666666668 -7.666666666666667 3.2333333333333334 5000040.1606
10.744046666666666 -7.866666666666666 3.2333333333333334 5000022.3214
12.229653333333333 -9.7 3.2333333333333334 5000066.8896
11.338686666666668 -14.6 3.2333333333333334 5000040.1606
12.229653333333333 -16.466666666666665 3.2333333333333334 5000066.8896
11.338686666666668 -16.566666666666666 3.2333333333333334 5000040.1606
11.338686666666668 -16.6 3.2333333333333334 5000040.1606
10.95648 -16.7 3.2333333333333334 5000028.6944
16.666666666666668 1.9333333333333333 3.2 5000200.0
11.338686666666668 1.7666666666666666 3.2 5000040.1606
12.229653333333333 -0.8333333333333334 3.2 5000066.8896
12.229653333333333 -0.8666666666666667 3.2 5000066.8896
12.229653333333333 -0.9 3.2 5000066.8896
12.229653333333333 -0.9333333333333333 3.2 5000066.8896
12.229653333333333 -1.5666666666666667 3.2 5000066.8896
12.229653333333333 -1.8 3.2 5000066.8896
16.666666666666668 -4.3 3.2 5000200.0
11.338686666666668 -4.433333333333334 3.2 5000040.1606
10.744046666666666 -4.6 3.2 5000022.3214
10.744046666666666 -4.666666666666667 3.2 5000022.3214
10.5152 -4.933333333333334 3.2 5000015.456
10.5152 -5.7 3.2 5000015.456
10.5152 -5.733333333333333 3.2 5000015.456
12.229653333333333 -6.133333333333334 3.2 5000066.8896
16.666666666666668 -6.6 3.2 5000200.0
16.666666666666668 -6.866666666666666 3.2 5000200.0
16.666666666666668 -7.1 3.2 5000200.0
11.338686666666668 -7.333333333333333 3.2 5000040.1606
10.95648 -7.466666666666667 3.2 5000028.6944
10.95648 -7.5 3.2 5000028.6944
10.95648 -7.8 3.2 5000028.6944
10.95648 -7.866666666666666 3.2 5000028.6944
10.291248 -8.6 3.2 5000008.73744
12.229653333333333 -9.7 3.2 5000066.8896
11.338686666666668 -11.433333333333334 3.2 5000040.1606
11.338686666666668 -14.6 3.2 5000040.1606
12.229653333333333 -16.466666666666665 3.2 5000066.8896
11.338686666666668 -16.566666666666666 3.2 5000040.1606
11.338686666666668 -16.6 3.2 5000040.1606
10.95648 -16.666666666666668 3.2 5000028.6944
16.666666666666668 2.6333333333333333 3.1666666666666665 5000200.0
16.666666666666668 2.6 3.1666666666666665 5000200.0
16.666666666666668 1.9333333333333333 3.1666666666666665 5000200.0
11.338686666666668 1.6333333333333333 3.1666666666666665 5000040.1606
11.338686666666668 1.6 3.1666666666666665 5000040.1606
12.229653333333333 -0.8333333333333334 3.1666666666666665 5000066.8896
12.229653333333333 -0.9333333333333333 3.1666666666666665 5000066.8896
12.229653333333333 -1.5666666666666667 3.1666666666666665 5000066.8896
12.229653333333333 -1.6 3.1666666666666665 5000066.8896
12.229653333333333 -1.8 3.1666666666666665 5000066.8896
12.229653333333333 -1.8333333333333333 3.1666666666666665 5000066.8896
12.229653333333333 -2.8333333333333335 3.1666666666666665 5000066.8896
12.229653333333333 -2.8666666666666667 3.1666666666666665 5000066.8896
12.229653333333333 -3.2666666666666666 3.1666666666666665 5000066.8896
12.229653333333333 -3.3 3.1666666666666665 5000066.8896
16.666666666666668 -4.233333333333333 3.1666666666666665 5000200.0
16.666666666666668 -4.3 3.1666666666666665 5000200.0
11.338686666666668 -4.433333333333334 3.1666666666666665 5000040.1606
10.744046666666666 -4.6 3.1666666666666665 5000022.3214
10.744046666666666 -4.666666666666667 3.1666666666666665 5000022.3214
10.5152 -4.9 3.1666666666666665 5000015.456
10.744046666666666 -5.533333333333333 3.1666666666666665 5000022.3214
10.5152 -5.7 3.1666666666666665 5000015.456
10.5152 -5.733333333333333 3.1666666666666665 5000015.456
12.229653333333333 -6.133333333333334 3.1666666666666665 5000066.8896
16.666666666666668 -6.6 3.1666666666666665 5000200.0
16.666666666666668 -6.633333333333334 3.1666666666666665 5000200.0
16.666666666666668 -6.666666666666667 3.1666666666666665 5000200.0
16.666666666666668 -6.833333333333333 3.1666666666666665 5000200.0
16.666666666666668 -7.1 3.1666666666666665 5000200.0
11.338686666666668 -7.3 3.1666666666666665 5000040.1606
11.338686666666668 -7.333333333333333 3.1666666666666665 5000040.1606
10.95648 -7.466666666666667 3.1666666666666665 5000028.6944
11.338686666666668 -7.666666666666667 3.1666666666666665 5000040.1606
10.95648 -7.8 3.1666666666666665 5000028.6944
10.39401 -8.3 3.1666666666666665 5000011.8203
12.229653333333333 -10.5 3.1666666666666665 5000066.8896
11.338686666666668 -16.566666666666666 3.1666666666666665 5000040.1606
10.95648 -16.666666666666668 3.1666666666666665 5000028.6944
16.666666666666668 2.8 3.1333333333333333 5000200.0
16.666666666666668 2.7666666666666666 3.1333333333333333 5000200.0
16.666666666666668 1.9333333333333333 3.1333333333333333 5000200.0
11.338686666666668 1.5666666666666667 3.1333333333333333 5000040.1606
11.338686666666668 1.5333333333333334 3.1333333333333333 5000040.1606
12.229653333333333 -0.9333333333333333 3.1333333333333333 5000066.8896
12.229653333333333 -1.5666666666666667 3.1333333333333333 5000066.8896
12.229653333333333 -1.6 3.1333333333333333 5000066.8896
12.229653333333333 -1.8 3.1333333333333333 5000066.8896
12.229653333333333 -1.8333333333333333 3.1333333333333333 5000066.8896
12.229653333333333 -2.3666666666666667 3.1333333333333333 5000066.8896
12.229653333333333 -2.6666666666666665 3.1333333333333333 5000066.8896
12.229653333333333 -2.8333333333333335 3.1333333333333333 5000066.8896
12.229653333333333 -2.8666666666666667 3.1333333333333333 5000066.8896
12.229653333333333 -3.3 3.1333333333333333 5000066.8896
16.666666666666668 -4.166666666666667 3.1333333333333333 5000200.0
16.666666666666668 -4.233333333333333 3.1333333333333333 5000200.0
16.666666666666668 -4.266666666666667 3.1333333333333333 5000200.0
16.666666666666668 -4.3 3.1333333333333333 5000200.0
11.338686666666668 -4.433333333333334 3.1333333333333333 5000040.1606
10.744046666666666 -5.533333333333333 3.1333333333333333 5000022.3214
10.5152 -5.7 3.1333333333333333 5000015.456
16.666666666666668 -6.166666666666667 3.1333333333333333 5000200.0
11.338686666666668 -7.333333333333333 3.1333333333333333 5000040.1606
10.95648 -7.466666666666667 3.1333333333333333 5000028.6944
10.95648 -7.8 3.1333333333333333 5000028.6944
10.95648 -11.766666666666667 3.1333333333333333 5000028.6944
11.338686666666668 -16.566666666666666 3.1333333333333333 5000040.1606
10.95648 -16.666666666666668 3.1333333333333333 5000028.6944
10.95648 3.2333333333333334 3.1 5000028.6944
16.666666666666668 2.8 3.1 5000200.0
16.666666666666668 1.9333333333333333 3.1 5000200.0
11.338686666666668 1.5666666666666667 3.1 5000040.1606
12.229653333333333 -0.8333333333333334 3.1 5000066.8896
12.229653333333333 -0.9333333333333333 3.1 5000066.8896
12.229653333333333 -1.5666666666666667 3.1 5000066.8896
12.229653333333333 -1.6 3.1 5000066.8896
12.229653333333333 -1.8 3.1 5000066.8896
12.229653333333333 -2.3 3.1 5000066.8896
12.229653333333333 -2.3666666666666667 3.1 5000066.8896
12.229653333333333 -2.6666666666666665 3.1 5000066.8896
12.229653333333333 -3.2333333333333334 3.1 5000066.8896
12.229653333333333 -3.2666666666666666 3.1 5000066.8896
12.229653333333333 -3.3 3.1 5000066.8896
11.338686666666668 -4.433333333333334 3.1 5000040.1606
10.5152 -5.7 3.1 5000015.456
16.666666666666668 -6.166666666666667 3.1 5000200.0
12.229653333333333 -6.3 3.1 5000066.8896
16.666666666666668 -7.133333333333334 3.1 5000200.0
10.95648 -7.466666666666667 3.1 5000028.6944
10.744046666666666 -13.8 3.1 5000022.3214
11.338686666666668 -14.6 3.1 5000040.1606
11.338686666666668 -16.533333333333335 3.1 5000040.1606
11.338686666666668 -16.566666666666666 3.1 5000040.1606
10.95648 -16.666666666666668 3.1 5000028.6944
10.95648 3.2333333333333334 3.066666666666667 5000028.6944
12.229653333333333 2.933333333333333 3.066666666666667 5000066.8896
12.229653333333333 2.9 3.066666666666667 5000066.8896
16.666666666666668 2.8 3.066666666666667 5000200.0
16.666666666666668 1.9333333333333333 3.066666666666667 5000200.0
11.338686666666668 1.6333333333333333 3.066666666666667 5000040.1606
11.338686666666668 1.6 3.066666666666667 5000040.1606
10.608826666666667 1.4666666666666666 3.066666666666667 5000018.2648
10.608826666666667 1.4333333333333333 3.066666666666667 5000018.2648
12.229653333333333 -0.8333333333333334 3.066666666666667 5000066.8896
12.229653333333333 -0.9333333333333333 3.066666666666667 5000066.8896
12.229653333333333 -1.5666666666666667 3.066666666666667 5000066.8896
12.229653333333333 -1.6 3.066666666666667 5000066.8896
12.229653333333333 -1.7666666666666666 3.066666666666667 5000066.8896
12.229653333333333 -1.8 3.066666666666667 5000066.8896
12.229653333333333 -2.3 3.066666666666667 5000066.8896
12.229653333333333 -2.3666666666666667 3.066666666666667 5000066.8896
12.229653333333333 -2.6666666666666665 3.066666666666667 5000066.8896
12.229653333333333 -3.1 3.066666666666667 5000066.8896
10.5152 -5.7 3.066666666666667 5000015.456
16.666666666666668 -6.166666666666667 3.066666666666667 5000200.0
12.229653333333333 -6.3 3.066666666666667 5000066.8896
16.666666666666668 -6.666666666666667 3.066666666666667 5000200.0
16.666666666666668 -6.7 3.066666666666667 5000200.0
10.5152 -8.4 3.066666666666667 5000015.456
10.744046666666666 -13.8 3.066666666666667 5000022.3214
11.338686666666668 -14.6 3.066666666666667 5000040.1606
11.338686666666668 -16.533333333333335 3.066666666666667 5000040.1606
11.338686666666668 -16.566666666666666 3.066666666666667 5000040.1606
10.95648 -16.666666666666668 3.066666666666667 5000028.6944
10.95648 3.2333333333333334 3.033333333333333 5000028.6944
16.666666666666668 2.8 3.033333333333333 5000200.0
16.666666666666668 1.9333333333333333 3.033333333333333 5000200.0
11.338686666666668 1.6 3.033333333333333 5000040.1606
11.338686666666668 1.5666666666666667 3.033333333333333 5000040.1606
10.608826666666667 1.4666666666666666 3.033333333333333 5000018.2648
12.229653333333333 1.1333333333333333 3.033333333333333 5000066.8896
12.229653333333333 -0.9333333333333333 3.033333333333333 5000066.8896
12.229653333333333 -1.5666666666666667 3.033333333333333 5000066.8896
12.229653333333333 -1.6 3.033333333333333 5000066.8896
12.229653333333333 -1.8 3.033333333333333 5000066.8896
16.666666666666668 -2.3 3.033333333333333 5000200.0
16.666666666666668 -2.3666666666666667 3.033333333333333 5000200.0
12.229653333333333 -3.1 3.033333333333333 5000066.8896
11.338686666666668 -4.433333333333334 3.033333333333333 5000040.1606
10.5152 -4.933333333333334 3.033333333333333 5000015.456
16.666666666666668 -6.166666666666667 3.033333333333333 5000200.0
16.666666666666668 -6.666666666666667 3.033333333333333 5000200.0
10.95648 -7.433333333333334 3.033333333333333 5000028.6944
