VERSION .7
FIELDS x y z rgb
SIZE 4 4 4 4
TYPE F F F F
COUNT 1 1 1 1
WIDTH 1315
HEIGHT 1
VIEWPOINT 0 0 0 1 0 0 0
POINTS 1315
DATA ascii
7.141176 4.76 -3.44 5000004.90196
7.141176 5.24 -3.46 5000004.90196
7.141176 5.22 -3.46 5000004.90196
7.141176 5.2 -3.46 5000004.90196
7.141176 4.4 -3.46 5000004.90196
7.141176 4.38 -3.46 5000004.90196
7.141176 5.88 -3.48 5000004.90196
7.141176 4.7 -3.48 5000004.90196
7.141176 4.64 -3.48 5000004.90196
7.141176 4.4 -3.48 5000004.90196
7.141176 4.38 -3.48 5000004.90196
7.141176 4.12 -3.48 5000004.90196
7.141176 5.86 -3.5 5000004.90196
7.141176 5.04 -3.5 5000004.90196
7.141176 4.72 -3.5 5000004.90196
7.141176 4.7 -3.5 5000004.90196
7.141176 4.66 -3.5 5000004.90196
7.141176 4.62 -3.5 5000004.90196
7.004394 5.28 -3.52 5000004.67399
7.141176 5.04 -3.52 5000004.90196
7.141176 4.66 -3.52 5000004.90196
7.141176 4.5 -3.52 5000004.90196
7.141176 4.48 -3.52 5000004.90196
7.004394 5.3 -3.54 5000004.67399
7.004394 5.28 -3.54 5000004.67399
7.004394 5.24 -3.54 5000004.67399
7.141176 5.08 -3.54 5000004.90196
7.004394 4.92 -3.54 5000004.67399
7.141176 4.54 -3.54 5000004.90196
7.141176 4.48 -3.54 5000004.90196
7.141176 4.46 -3.54 5000004.90196
7.141176 4.44 -3.54 5000004.90196
7.141176 3.64 -3.54 5000004.90196
7.2919860000000005 2.76 -3.54 5000005.15331
7.2919860000000005 5.78 -3.56 5000005.15331
7.004394 5.28 -3.56 5000004.67399
7.004394 5.26 -3.56 5000004.67399
7.004394 5.24 -3.56 5000004.67399
7.141176 5.22 -3.56 5000004.90196
7.004394 4.9 -3.56 5000004.67399
7.141176 4.58 -3.56 5000004.90196
7.004394 5.74 -3.58 5000004.67399
7.004394 5.72 -3.58 5000004.67399
7.004394 4.88 -3.58 5000004.67399
7.141176 4.58 -3.58 5000004.90196
7.141176 4.56 -3.58 5000004.90196
7.004394 4.54 -3.58 5000004.67399
7.141176 4.52 -3.58 5000004.90196
7.004394 5.72 -3.6 5000004.67399
7.004394 5.7 -3.6 5000004.67399
7.004394 5.04 -3.6 5000004.67399
7.004394 5.02 -3.6 5000004.67399
7.004394 5.0 -3.6 5000004.67399
7.004394 4.88 -3.6 5000004.67399
7.004394 4.04 -3.6 5000004.67399
7.2919860000000005 1.48 -3.6 5000005.15331
7.004394 5.9 -3.62 5000004.67399
7.004394 5.54 -3.62 5000004.67399
7.004394 5.32 -3.62 5000004.67399
7.004394 5.04 -3.62 5000004.67399
7.004394 5.02 -3.62 5000004.67399
7.004394 5.0 -3.62 5000004.67399
7.004394 4.5 -3.62 5000004.67399
7.004394 5.9 -3.64 5000004.67399
7.004394 5.88 -3.64 5000004.67399
7.004394 5.36 -3.64 5000004.67399
7.004394 5.0 -3.64 5000004.67399
7.004394 4.5 -3.64 5000004.67399
7.004394 5.88 -3.66 5000004.67399
7.004394 5.86 -3.66 5000004.67399
7.004394 4.2 -3.66 5000004.67399
7.004394 4.78 -3.68 5000004.67399
7.2919860000000005 2.72 -3.68 5000005.15331
7.2919860000000005 2.7 -3.68 5000005.15331
7.2919860000000005 2.68 -3.68 5000005.15331
7.141176 2.08 -3.68 5000004.90196
7.004394 4.6 -3.7 5000004.67399
7.004394 3.92 -3.72 5000004.67399
7.141176 3.7 -3.72 5000004.90196
7.2919860000000005 2.72 -3.72 5000005.15331
7.004394 3.94 -3.76 5000004.67399
7.004394 5.0 -3.8 5000004.67399
6.879768 4.66 -3.8 5000004.46628
6.879768 4.64 -3.8 5000004.46628
6.879768 4.62 -3.8 5000004.46628
7.141176 3.84 -3.8 5000004.90196
6.879768 4.62 -3.82 5000004.46628
6.879768 4.6 -3.82 5000004.46628
6.879768 4.98 -3.84 5000004.46628
7.141176 3.84 -3.84 5000004.90196
7.004394 3.8 -3.84 5000004.67399
7.004394 5.06 -3.86 5000004.67399
6.765750000000001 5.0 -3.86 5000004.27625
6.879768 4.96 -3.86 5000004.46628
7.141176 3.8 -3.86 5000004.90196
7.004394 3.78 -3.86 5000004.67399
7.004394 5.1 -3.88 5000004.67399
6.879768 5.08 -3.88 5000004.46628
6.765750000000001 5.0 -3.88 5000004.27625
6.879768 4.96 -3.88 5000004.46628
7.004394 5.84 -3.9 5000004.67399
7.004394 5.2 -3.9 5000004.67399
6.879768 5.08 -3.9 5000004.46628
6.879768 5.04 -3.9 5000004.46628
6.765750000000001 5.02 -3.9 5000004.27625
6.879768 5.94 -3.92 5000004.46628
6.765750000000001 5.14 -3.92 5000004.27625
6.879768 5.12 -3.92 5000004.46628
6.765750000000001 5.04 -3.92 5000004.27625
6.765750000000001 5.02 -3.92 5000004.27625
7.004394 1.66 -3.92 5000004.67399
6.765750000000001 5.08 -3.94 5000004.27625
6.879768 3.98 -3.94 5000004.46628
6.879768 3.96 -3.94 5000004.46628
7.004394 1.68 -3.94 5000004.67399
7.004394 1.66 -3.94 5000004.67399
6.879768 3.96 -3.96 5000004.46628
6.879768 4.16 -4.0 5000004.46628
6.879768 3.82 -4.0 5000004.46628
6.879768 3.04 -4.0 5000004.46628
6.879768 3.02 -4.0 5000004.46628
6.879768 3.0 -4.0 5000004.46628
6.879768 5.2 -4.02 5000004.46628
6.879768 5.18 -4.02 5000004.46628
6.879768 4.16 -4.02 5000004.46628
7.004394 4.1 -4.02 5000004.67399
6.879768 4.06 -4.02 5000004.46628
6.661032 5.38 -4.04 5000004.10172
6.661032 5.36 -4.04 5000004.10172
6.879768 5.14 -4.04 5000004.46628
7.2919860000000005 4.32 -4.04 5000005.15331
7.004394 4.1 -4.04 5000004.67399
6.879768 4.04 -4.04 5000004.46628
6.661032 5.4 -4.06 5000004.10172
6.765750000000001 5.28 -4.06 5000004.27625
7.2919860000000005 4.34 -4.06 5000005.15331
7.2919860000000005 4.32 -4.06 5000005.15331
7.004394 4.24 -4.06 5000004.67399
6.879768 4.16 -4.06 5000004.46628
7.004394 4.1 -4.06 5000004.67399
6.879768 4.04 -4.06 5000004.46628
6.879768 4.02 -4.06 5000004.46628
6.879768 3.98 -4.06 5000004.46628
6.765750000000001 5.54 -4.08 5000004.27625
6.765750000000001 5.26 -4.08 5000004.27625
7.004394 4.24 -4.08 5000004.67399
7.004394 4.22 -4.08 5000004.67399
6.879768 4.16 -4.08 5000004.46628
7.004394 4.1 -4.08 5000004.67399
6.879768 4.02 -4.08 5000004.46628
6.879768 3.74 -4.08 5000004.46628
6.765750000000001 5.92 -4.1 5000004.27625
6.879768 4.16 -4.1 5000004.46628
6.879768 4.14 -4.1 5000004.46628
6.879768 4.02 -4.1 5000004.46628
7.004394 3.84 -4.1 5000004.67399
6.879768 3.78 -4.1 5000004.46628
6.879768 1.04 -4.1 5000004.46628
6.661032 5.92 -4.12 5000004.10172
6.879768 4.16 -4.12 5000004.46628
6.765750000000001 4.06 -4.12 5000004.27625
6.765750000000001 4.04 -4.12 5000004.27625
7.004394 3.86 -4.12 5000004.67399
7.004394 3.84 -4.12 5000004.67399
6.879768 3.8 -4.12 5000004.46628
6.879768 3.78 -4.12 5000004.46628
6.661032 5.92 -4.14 5000004.10172
6.879768 4.48 -4.14 5000004.46628
6.765750000000001 4.26 -4.14 5000004.27625
6.765750000000001 4.08 -4.14 5000004.27625
6.765750000000001 4.06 -4.14 5000004.27625
6.765750000000001 4.04 -4.14 5000004.27625
6.765750000000001 4.48 -4.16 5000004.27625
6.879768 4.44 -4.16 5000004.46628
6.765750000000001 4.04 -4.16 5000004.27625
6.765750000000001 4.02 -4.16 5000004.27625
6.765750000000001 3.9 -4.16 5000004.27625
7.004394 3.88 -4.16 5000004.67399
6.765750000000001 4.52 -4.18 5000004.27625
6.765750000000001 4.14 -4.18 5000004.27625
6.765750000000001 4.12 -4.18 5000004.27625
6.765750000000001 3.94 -4.18 5000004.27625
6.765750000000001 3.72 -4.18 5000004.27625
6.765750000000001 4.52 -4.2 5000004.27625
6.765750000000001 4.5 -4.2 5000004.27625
6.765750000000001 4.48 -4.2 5000004.27625
7.141176 3.66 -4.2 5000004.90196
6.765750000000001 3.46 -4.2 5000004.27625
6.765750000000001 3.42 -4.2 5000004.27625
7.141176 3.64 -4.22 5000004.90196
6.765750000000001 3.48 -4.22 5000004.27625
6.765750000000001 3.46 -4.22 5000004.27625
7.2919860000000005 4.74 -4.24 5000005.15331
6.765750000000001 4.56 -4.24 5000004.27625
6.765750000000001 4.5 -4.24 5000004.27625
6.765750000000001 4.46 -4.24 5000004.27625
6.765750000000001 3.94 -4.24 5000004.27625
6.765750000000001 3.78 -4.24 5000004.27625
7.141176 3.66 -4.24 5000004.90196
7.141176 3.6 -4.24 5000004.90196
6.765750000000001 3.5 -4.24 5000004.27625
6.765750000000001 3.48 -4.24 5000004.27625
6.765750000000001 3.46 -4.24 5000004.27625
6.765750000000001 0.5 -4.24 5000004.27625
6.661032 5.5 -4.26 5000004.10172
6.765750000000001 4.54 -4.26 5000004.27625
7.004394 4.08 -4.26 5000004.67399
6.765750000000001 4.02 -4.26 5000004.27625
6.661032 5.5 -4.28 5000004.10172
6.661032 4.54 -4.28 5000004.10172
7.004394 4.1 -4.28 5000004.67399
6.879768 4.04 -4.28 5000004.46628
6.765750000000001 3.98 -4.28 5000004.27625
6.765750000000001 3.96 -4.28 5000004.27625
6.564533999999999 5.56 -4.3 5000003.94089
6.879768 4.66 -4.3 5000004.46628
6.879768 4.64 -4.3 5000004.46628
6.661032 4.56 -4.3 5000004.10172
6.661032 4.54 -4.3 5000004.10172
6.765750000000001 4.24 -4.3 5000004.27625
6.765750000000001 3.98 -4.3 5000004.27625
6.765750000000001 3.96 -4.3 5000004.27625
6.765750000000001 3.94 -4.3 5000004.27625
6.765750000000001 3.92 -4.3 5000004.27625
6.879768 3.74 -4.3 5000004.46628
6.564533999999999 5.54 -4.32 5000003.94089
6.661032 4.6 -4.32 5000004.10172
6.661032 4.58 -4.32 5000004.10172
6.661032 4.56 -4.32 5000004.10172
6.661032 4.54 -4.32 5000004.10172
6.765750000000001 4.24 -4.32 5000004.27625
6.879768 3.72 -4.32 5000004.46628
6.879768 3.7 -4.32 5000004.46628
6.765750000000001 -1.08 -4.32 5000004.27625
6.475314 5.6 -4.34 5000003.79219
6.564533999999999 5.58 -4.34 5000003.94089
6.564533999999999 5.56 -4.34 5000003.94089
6.564533999999999 5.54 -4.34 5000003.94089
6.765750000000001 4.64 -4.34 5000004.27625
6.765750000000001 4.24 -4.34 5000004.27625
6.765750000000001 4.0 -4.34 5000004.27625
6.661032 3.98 -4.34 5000004.10172
6.661032 3.78 -4.34 5000004.10172
6.661032 3.72 -4.34 5000004.10172
6.661032 3.64 -4.34 5000004.10172
6.475314 5.6 -4.36 5000003.79219
6.475314 5.58 -4.36 5000003.79219
6.564533999999999 4.98 -4.36 5000003.94089
6.564533999999999 4.84 -4.36 5000003.94089
6.564533999999999 4.82 -4.36 5000003.94089
6.661032 4.6 -4.36 5000004.10172
6.765750000000001 4.26 -4.36 5000004.27625
6.765750000000001 4.2 -4.36 5000004.27625
6.661032 4.18 -4.36 5000004.10172
6.475314 4.1 -4.36 5000003.79219
6.661032 3.76 -4.36 5000004.10172
6.661032 3.74 -4.36 5000004.10172
6.661032 3.66 -4.36 5000004.10172
6.661032 3.64 -4.36 5000004.10172
6.564533999999999 4.84 -4.38 5000003.94089
6.564533999999999 4.56 -4.38 5000003.94089
6.765750000000001 4.08 -4.38 5000004.27625
6.661032 3.78 -4.38 5000004.10172
6.661032 3.76 -4.38 5000004.10172
6.661032 3.74 -4.38 5000004.10172
6.661032 3.68 -4.38 5000004.10172
6.661032 3.66 -4.38 5000004.10172
6.661032 3.64 -4.38 5000004.10172
6.564533999999999 5.36 -4.4 5000003.94089
6.564533999999999 5.0 -4.4 5000003.94089
6.564533999999999 4.8 -4.4 5000003.94089
6.661032 4.14 -4.4 5000004.10172
6.661032 -0.38 -4.4 5000004.10172
6.564533999999999 5.06 -4.42 5000003.94089
6.564533999999999 4.84 -4.42 5000003.94089
6.661032 4.66 -4.42 5000004.10172
6.661032 4.64 -4.42 5000004.10172
6.661032 4.62 -4.42 5000004.10172
6.661032 4.58 -4.42 5000004.10172
6.661032 4.5 -4.42 5000004.10172
6.564533999999999 4.84 -4.44 5000003.94089
6.564533999999999 4.82 -4.44 5000003.94089
6.661032 4.54 -4.44 5000004.10172
6.661032 1.84 -4.44 5000004.10172
6.661032 1.42 -4.44 5000004.10172
6.661032 -4.26 -4.44 5000004.10172
6.564533999999999 5.06 -4.46 5000003.94089
6.564533999999999 5.04 -4.46 5000003.94089
6.564533999999999 4.82 -4.46 5000003.94089
6.661032 4.46 -4.46 5000004.10172
6.661032 4.44 -4.46 5000004.10172
6.661032 3.22 -4.46 5000004.10172
6.661032 0.0 -4.46 5000004.10172
6.661032 -4.26 -4.46 5000004.10172
6.564533999999999 5.1 -4.48 5000003.94089
6.564533999999999 5.06 -4.48 5000003.94089
6.564533999999999 5.04 -4.48 5000003.94089
6.564533999999999 5.02 -4.48 5000003.94089
6.661032 3.2 -4.48 5000004.10172
6.661032 3.18 -4.48 5000004.10172
6.564533999999999 5.06 -4.5 5000003.94089
6.879768 4.82 -4.5 5000004.46628
6.661032 4.72 -4.5 5000004.10172
6.661032 3.26 -4.5 5000004.10172
6.661032 -4.26 -4.5 5000004.10172
6.661032 -4.28 -4.5 5000004.10172
6.564533999999999 5.32 -4.52 5000003.94089
6.661032 4.68 -4.52 5000004.10172
6.661032 3.26 -4.52 5000004.10172
6.661032 3.24 -4.52 5000004.10172
6.661032 3.22 -4.52 5000004.10172
6.661032 3.2 -4.52 5000004.10172
6.564533999999999 5.32 -4.54 5000003.94089
6.564533999999999 5.3 -4.54 5000003.94089
7.004394 4.84 -4.54 5000004.67399
6.661032 4.74 -4.54 5000004.10172
6.661032 -2.38 -4.54 5000004.10172
6.661032 -2.4 -4.54 5000004.10172
6.564533999999999 5.3 -4.56 5000003.94089
6.564533999999999 4.74 -4.56 5000003.94089
6.564533999999999 4.66 -4.56 5000003.94089
6.564533999999999 4.62 -4.56 5000003.94089
6.564533999999999 4.6 -4.56 5000003.94089
6.564533999999999 4.1 -4.56 5000003.94089
6.564533999999999 2.84 -4.56 5000003.94089
6.564533999999999 5.3 -4.58 5000003.94089
6.564533999999999 5.12 -4.58 5000003.94089
6.564533999999999 5.06 -4.58 5000003.94089
6.661032 4.78 -4.58 5000004.10172
6.564533999999999 4.72 -4.58 5000003.94089
6.564533999999999 4.62 -4.58 5000003.94089
6.564533999999999 4.6 -4.58 5000003.94089
6.564533999999999 4.58 -4.58 5000003.94089
6.564533999999999 0.1 -4.58 5000003.94089
6.475314 5.3 -4.6 5000003.79219
6.475314 5.28 -4.6 5000003.79219
6.564533999999999 5.1 -4.6 5000003.94089
6.564533999999999 4.72 -4.6 5000003.94089
6.564533999999999 4.7 -4.6 5000003.94089
6.564533999999999 2.96 -4.6 5000003.94089
6.564533999999999 2.94 -4.6 5000003.94089
6.564533999999999 -1.56 -4.6 5000003.94089
6.564533999999999 -2.74 -4.6 5000003.94089
6.564533999999999 -4.36 -4.6 5000003.94089
6.475314 5.28 -4.62 5000003.79219
6.475314 5.26 -4.62 5000003.79219
6.564533999999999 5.1 -4.62 5000003.94089
6.661032 4.82 -4.62 5000004.10172
6.564533999999999 4.8 -4.62 5000003.94089
6.564533999999999 4.76 -4.62 5000003.94089
6.564533999999999 4.64 -4.62 5000003.94089
6.475314 5.26 -4.64 5000003.79219
6.564533999999999 4.78 -4.64 5000003.94089
6.475314 4.76 -4.64 5000003.79219
6.475314 4.74 -4.64 5000003.79219
6.475314 4.72 -4.64 5000003.79219
6.475314 4.68 -4.64 5000003.79219
6.475314 5.26 -4.66 5000003.79219
6.475314 5.24 -4.66 5000003.79219
6.475314 5.04 -4.66 5000003.79219
6.475314 4.98 -4.66 5000003.79219
6.564533999999999 4.9 -4.66 5000003.94089
6.475314 4.76 -4.66 5000003.79219
6.475314 4.74 -4.66 5000003.79219
6.475314 4.72 -4.66 5000003.79219
6.475314 4.7 -4.66 5000003.79219
6.475314 5.24 -4.68 5000003.79219
6.475314 5.02 -4.68 5000003.79219
6.564533999999999 4.94 -4.68 5000003.94089
6.475314 4.8 -4.68 5000003.79219
6.475314 4.78 -4.68 5000003.79219
6.564533999999999 3.96 -4.68 5000003.94089
6.475314 5.0 -4.7 5000003.79219
6.564533999999999 3.96 -4.7 5000003.94089
6.564533999999999 3.94 -4.7 5000003.94089
6.564533999999999 3.92 -4.7 5000003.94089
6.475314 3.9 -4.7 5000003.79219
6.475314 3.06 -4.7 5000003.79219
6.475314 3.04 -4.7 5000003.79219
6.475314 5.38 -4.72 5000003.79219
6.475314 5.36 -4.72 5000003.79219
6.475314 5.34 -4.72 5000003.79219
6.564533999999999 3.96 -4.72 5000003.94089
6.475314 5.36 -4.74 5000003.79219
6.475314 5.34 -4.74 5000003.79219
6.39258 5.42 -4.76 5000003.6543
6.39258 5.42 -4.78 5000003.6543
6.39258 5.4 -4.78 5000003.6543
6.475314 5.38 -4.78 5000003.79219
6.475314 -0.66 -4.78 5000003.79219
6.475314 -3.84 -4.78 5000003.79219
6.39258 5.42 -4.8 5000003.6543
6.39258 5.4 -4.8 5000003.6543
6.39258 5.44 -4.82 5000003.6543
6.475314 -2.04 -4.82 5000003.79219
6.475314 -0.74 -4.84 5000003.79219
6.475314 -2.14 -4.84 5000003.79219
6.475314 -4.76 -4.86 5000003.79219
6.475314 4.94 -4.9 5000003.79219
6.475314 4.92 -4.9 5000003.79219
6.39258 4.94 -4.92 5000003.6543
6.39258 4.92 -4.92 5000003.6543
6.39258 -2.2 -4.92 5000003.6543
6.39258 4.98 -4.94 5000003.6543
6.39258 4.94 -4.94 5000003.6543
6.39258 4.92 -4.94 5000003.6543
6.39258 4.9 -4.94 5000003.6543
6.39258 3.66 -4.94 5000003.6543
6.39258 4.98 -4.96 5000003.6543
6.39258 4.96 -4.96 5000003.6543
6.39258 4.9 -4.96 5000003.6543
6.39258 3.98 -4.96 5000003.6543
6.39258 3.96 -4.96 5000003.6543
6.39258 -0.34 -4.96 5000003.6543
6.39258 4.96 -4.98 5000003.6543
6.39258 4.94 -4.98 5000003.6543
6.39258 4.92 -4.98 5000003.6543
6.39258 4.9 -4.98 5000003.6543
6.39258 1.48 -4.98 5000003.6543
6.39258 1.46 -4.98 5000003.6543
6.39258 -0.2 -4.98 5000003.6543
6.315654 4.98 -5.04 5000003.52609
6.315654 4.96 -5.04 5000003.52609
6.315654 4.94 -5.04 5000003.52609
6.315654 4.98 -5.06 5000003.52609
6.39258 -4.98 -5.06 5000003.6543
6.315654 4.26 -5.08 5000003.52609
6.315654 4.22 -5.08 5000003.52609
6.315654 2.5 -5.1 5000003.52609
6.315654 0.16 -5.1 5000003.52609
6.315654 4.3 -5.12 5000003.52609
6.315654 4.28 -5.12 5000003.52609
6.315654 4.26 -5.12 5000003.52609
6.315654 2.22 -5.12 5000003.52609
6.315654 0.16 -5.12 5000003.52609
6.39258 5.62 -5.14 5000003.6543
6.315654 5.68 -5.18 5000003.52609
6.315654 5.66 -5.18 5000003.52609
6.39258 5.0 -5.18 5000003.6543
6.39258 4.98 -5.18 5000003.6543
6.315654 4.92 -5.18 5000003.52609
6.243942 4.9 -5.18 5000003.40657
6.315654 4.64 -5.18 5000003.52609
6.315654 -4.86 -5.18 5000003.52609
6.315654 5.66 -5.2 5000003.52609
6.315654 4.64 -5.2 5000003.52609
6.243942 5.72 -5.22 5000003.40657
6.243942 5.68 -5.22 5000003.40657
6.315654 5.66 -5.22 5000003.52609
6.315654 4.96 -5.22 5000003.52609
6.315654 4.94 -5.22 5000003.52609
6.315654 4.92 -5.22 5000003.52609
6.243942 4.9 -5.22 5000003.40657
6.315654 4.64 -5.22 5000003.52609
6.243942 5.72 -5.24 5000003.40657
6.243942 5.7 -5.24 5000003.40657
6.243942 3.44 -5.24 5000003.40657
6.243942 3.4 -5.24 5000003.40657
6.243942 3.38 -5.24 5000003.40657
6.243942 1.42 -5.26 5000003.40657
6.243942 1.4 -5.26 5000003.40657
6.315654 3.46 -5.28 5000003.52609
6.243942 3.74 -5.3 5000003.40657
6.243942 2.8 -5.3 5000003.40657
6.243942 2.78 -5.3 5000003.40657
6.243942 1.88 -5.3 5000003.40657
6.243942 0.24 -5.3 5000003.40657
6.176934000000001 2.74 -5.32 5000003.29489
6.176934000000001 2.72 -5.32 5000003.29489
6.243942 0.26 -5.32 5000003.40657
6.243942 0.24 -5.32 5000003.40657
6.243942 -4.76 -5.32 5000003.40657
6.243942 3.8 -5.34 5000003.40657
6.243942 -0.92 -5.34 5000003.40657
6.315654 3.92 -5.36 5000003.52609
6.176934000000001 1.96 -5.36 5000003.29489
6.243942 3.88 -5.38 5000003.40657
6.176934000000001 1.92 -5.38 5000003.29489
6.176934000000001 3.84 -5.4 5000003.29489
6.176934000000001 1.94 -5.4 5000003.29489
124.19999999999999 -0.58 -5.4 5000200.0
6.176934000000001 3.9 -5.42 5000003.29489
6.176934000000001 3.92 -5.44 5000003.29489
6.176934000000001 3.9 -5.44 5000003.29489
6.176934000000001 3.88 -5.44 5000003.29489
6.243942 4.62 -5.46 5000003.40657
6.176934000000001 4.6 -5.46 5000003.29489
6.176934000000001 4.58 -5.46 5000003.29489
6.176934000000001 0.88 -5.46 5000003.29489
6.176934000000001 4.58 -5.48 5000003.29489
6.176934000000001 4.56 -5.48 5000003.29489
6.176934000000001 2.78 -5.48 5000003.29489
6.176934000000001 0.88 -5.48 5000003.29489
6.176934000000001 4.6 -5.5 5000003.29489
6.176934000000001 4.58 -5.5 5000003.29489
6.176934000000001 4.54 -5.5 5000003.29489
6.176934000000001 2.8 -5.5 5000003.29489
28.29636 0.34 -5.5 5000040.1606
6.176934000000001 -1.78 -5.5 5000003.29489
6.11418 4.64 -5.52 5000003.1903
6.176934000000001 4.62 -5.52 5000003.29489
6.176934000000001 2.84 -5.52 5000003.29489
28.29636 0.34 -5.52 5000040.1606
6.11418 4.64 -5.54 5000003.1903
6.11418 4.62 -5.54 5000003.1903
6.176934000000001 4.6 -5.54 5000003.29489
6.11418 4.58 -5.54 5000003.1903
6.176934000000001 2.8 -5.54 5000003.29489
44.33376 0.66 -5.54 5000066.8896
44.33376 0.64 -5.54 5000066.8896
28.29636 0.34 -5.54 5000040.1606
6.176934000000001 -4.18 -5.54 5000003.29489
3.6543
11.19258 3.66 -4.94 5000003.6543
11.19258 4.98 -4.96 5000003.6543
11.19258 4.96 -4.96 5000003.6543
11.19258 4.9 -4.96 5000003.6543
11.19258 3.98 -4.96 5000003.6543
11.19258 3.96 -4.96 5000003.6543
11.19258 -0.34 -4.96 5000003.6543
11.19258 4.96 -4.98 5000003.6543
11.19258 4.94 -4.98 5000003.6543
11.19258 4.92 -4.98 5000003.6543
11.19258 4.9 -4.98 5000003.6543
11.19258 1.48 -4.98 5000003.6543
11.19258 1.46 -4.98 5000003.6543
11.19258 -0.2 -4.98 5000003.6543
11.115654000000001 4.98 -5.04 5000003.52609
11.115654000000001 4.96 -5.04 5000003.52609
11.115654000000001 4.94 -5.04 5000003.52609
11.115654000000001 4.98 -5.06 5000003.52609
11.19258 -4.98 -5.06 5000003.6543
11.115654000000001 4.26 -5.08 5000003.52609
11.115654000000001 4.22 -5.08 5000003.52609
11.115654000000001 2.5 -5.1 5000003.52609
11.115654000000001 0.16 -5.1 5000003.52609
11.115654000000001 4.3 -5.12 5000003.52609
11.115654000000001 4.28 -5.12 5000003.52609
11.115654000000001 4.26 -5.12 5000003.52609
11.115654000000001 2.22 -5.12 5000003.52609
11.115654000000001 0.16 -5.12 5000003.52609
11.19258 5.62 -5.14 5000003.6543
11.115654000000001 5.68 -5.18 5000003.52609
11.115654000000001 5.66 -5.18 5000003.52609
11.19258 5.0 -5.18 5000003.6543
11.19258 4.98 -5.18 5000003.6543
11.115654000000001 4.92 -5.18 5000003.52609
11.043942 4.9 -5.18 5000003.40657
11.115654000000001 4.64 -5.18 5000003.52609
11.115654000000001 -4.86 -5.18 5000003.52609
11.115654000000001 5.66 -5.2 5000003.52609
11.115654000000001 4.64 -5.2 5000003.52609
11.043942 5.72 -5.22 5000003.40657
11.043942 5.68 -5.22 5000003.40657
11.115654000000001 5.66 -5.22 5000003.52609
11.115654000000001 4.96 -5.22 5000003.52609
11.115654000000001 4.94 -5.22 5000003.52609
11.115654000000001 4.92 -5.22 5000003.52609
11.043942 4.9 -5.22 5000003.40657
11.115654000000001 4.64 -5.22 5000003.52609
11.043942 5.72 -5.24 5000003.40657
11.043942 5.7 -5.24 5000003.40657
11.043942 3.44 -5.24 5000003.40657
11.043942 3.4 -5.24 5000003.40657
11.043942 3.38 -5.24 5000003.40657
11.043942 1.42 -5.26 5000003.40657
11.043942 1.4 -5.26 5000003.40657
11.115654000000001 3.46 -5.28 5000003.52609
11.043942 3.74 -5.3 5000003.40657
11.043942 2.8 -5.3 5000003.40657
11.043942 2.78 -5.3 5000003.40657
11.043942 1.88 -5.3 5000003.40657
11.043942 0.24 -5.3 5000003.40657
10.976934 2.74 -5.32 5000003.29489
10.976934 2.72 -5.32 5000003.29489
11.043942 0.26 -5.32 5000003.40657
11.043942 0.24 -5.32 5000003.40657
11.043942 -4.76 -5.32 5000003.40657
11.043942 3.8 -5.34 5000003.40657
11.043942 -0.92 -5.34 5000003.40657
11.115654000000001 3.92 -5.36 5000003.52609
10.976934 1.96 -5.36 5000003.29489
11.043942 3.88 -5.38 5000003.40657
10.976934 1.92 -5.38 5000003.29489
10.976934 3.84 -5.4 5000003.29489
10.976934 1.94 -5.4 5000003.29489
129.0 -0.58 -5.4 5000200.0
10.976934 3.9 -5.42 5000003.29489
10.976934 3.92 -5.44 5000003.29489
10.976934 3.9 -5.44 5000003.29489
10.976934 3.88 -5.44 5000003.29489
11.043942 4.62 -5.46 5000003.40657
10.976934 4.6 -5.46 5000003.29489
10.976934 4.58 -5.46 5000003.29489
10.976934 0.88 -5.46 5000003.29489
10.976934 4.58 -5.48 5000003.29489
10.976934 4.56 -5.48 5000003.29489
10.976934 2.78 -5.48 5000003.29489
10.976934 0.88 -5.48 5000003.29489
10.976934 4.6 -5.5 5000003.29489
10.976934 4.58 -5.5 5000003.29489
10.976934 4.54 -5.5 5000003.29489
10.976934 2.8 -5.5 5000003.29489
33.096360000000004 0.34 -5.5 5000040.1606
10.976934 -1.78 -5.5 5000003.29489
10.91418 4.64 -5.52 5000003.1903
10.976934 4.62 -5.52 5000003.29489
10.976934 2.84 -5.52 5000003.29489
33.096360000000004 0.34 -5.52 5000040.1606
10.91418 4.64 -5.54 5000003.1903
10.91418 4.62 -5.54 5000003.1903
10.976934 4.6 -5.54 5000003.29489
10.91418 4.58 -5.54 5000003.1903
10.976934 2.8 -5.54 5000003.29489
49.13376 0.66 -5.54 5000066.8896
49.13376 0.64 -5.54 5000066.8896
33.096360000000004 0.34 -5.54 5000040.1606
10.976934 -4.18 -5.54 5000003.29489
4089
7.640688 3.2 -4.48 5000004.10172
7.640688 3.18 -4.48 5000004.10172
7.576356 5.06 -4.5 5000003.94089
7.786512000000001 4.82 -4.5 5000004.46628
7.640688 4.72 -4.5 5000004.10172
7.640688 3.26 -4.5 5000004.10172
7.640688 -4.26 -4.5 5000004.10172
7.640688 -4.28 -4.5 5000004.10172
7.576356 5.32 -4.52 5000003.94089
7.640688 4.68 -4.52 5000004.10172
7.640688 3.26 -4.52 5000004.10172
7.640688 3.24 -4.52 5000004.10172
7.640688 3.22 -4.52 5000004.10172
7.640688 3.2 -4.52 5000004.10172
7.576356 5.32 -4.54 5000003.94089
7.576356 5.3 -4.54 5000003.94089
7.869596 4.84 -4.54 5000004.67399
7.640688 4.74 -4.54 5000004.10172
7.640688 -2.38 -4.54 5000004.10172
7.640688 -2.4 -4.54 5000004.10172
7.576356 5.3 -4.56 5000003.94089
7.576356 4.74 -4.56 5000003.94089
7.576356 4.66 -4.56 5000003.94089
7.576356 4.62 -4.56 5000003.94089
7.576356 4.6 -4.56 5000003.94089
7.576356 4.1 -4.56 5000003.94089
7.576356 2.84 -4.56 5000003.94089
7.576356 5.3 -4.58 5000003.94089
7.576356 5.12 -4.58 5000003.94089
7.576356 5.06 -4.58 5000003.94089
7.640688 4.78 -4.58 5000004.10172
7.576356 4.72 -4.58 5000003.94089
7.576356 4.62 -4.58 5000003.94089
7.576356 4.6 -4.58 5000003.94089
7.576356 4.58 -4.58 5000003.94089
7.576356 0.1 -4.58 5000003.94089
7.516876 5.3 -4.6 5000003.79219
7.516876 5.28 -4.6 5000003.79219
7.576356 5.1 -4.6 5000003.94089
7.576356 4.72 -4.6 5000003.94089
7.576356 4.7 -4.6 5000003.94089
7.576356 2.96 -4.6 5000003.94089
7.576356 2.94 -4.6 5000003.94089
7.576356 -1.56 -4.6 5000003.94089
7.576356 -2.74 -4.6 5000003.94089
7.576356 -4.36 -4.6 5000003.94089
7.516876 5.28 -4.62 5000003.79219
7.516876 5.26 -4.62 5000003.79219
7.576356 5.1 -4.62 5000003.94089
7.640688 4.82 -4.62 5000004.10172
7.576356 4.8 -4.62 5000003.94089
7.576356 4.76 -4.62 5000003.94089
7.576356 4.64 -4.62 5000003.94089
7.516876 5.26 -4.64 5000003.79219
7.576356 4.78 -4.64 5000003.94089
7.516876 4.76 -4.64 5000003.79219
7.516876 4.74 -4.64 5000003.79219
7.516876 4.72 -4.64 5000003.79219
7.516876 4.68 -4.64 5000003.79219
7.516876 5.26 -4.66 5000003.79219
7.516876 5.24 -4.66 5000003.79219
7.516876 5.04 -4.66 5000003.79219
7.516876 4.98 -4.66 5000003.79219
7.576356 4.9 -4.66 5000003.94089
7.516876 4.76 -4.66 5000003.79219
7.516876 4.74 -4.66 5000003.79219
7.516876 4.72 -4.66 5000003.79219
7.516876 4.7 -4.66 5000003.79219
7.516876 5.24 -4.68 5000003.79219
7.516876 5.02 -4.68 5000003.79219
7.576356 4.94 -4.68 5000003.94089
7.516876 4.8 -4.68 5000003.79219
7.516876 4.78 -4.68 5000003.79219
7.576356 3.96 -4.68 5000003.94089
7.516876 5.0 -4.7 5000003.79219
7.576356 3.96 -4.7 5000003.94089
7.576356 3.94 -4.7 5000003.94089
7.576356 3.92 -4.7 5000003.94089
7.516876 3.9 -4.7 5000003.79219
7.516876 3.06 -4.7 5000003.79219
7.516876 3.04 -4.7 5000003.79219
7.516876 5.38 -4.72 5000003.79219
7.516876 5.36 -4.72 5000003.79219
7.516876 5.34 -4.72 5000003.79219
7.576356 3.96 -4.72 5000003.94089
7.516876 5.36 -4.74 5000003.79219
7.516876 5.34 -4.74 5000003.79219
7.46172 5.42 -4.76 5000003.6543
7.46172 5.42 -4.78 5000003.6543
7.46172 5.4 -4.78 5000003.6543
7.516876 5.38 -4.78 5000003.79219
7.516876 -0.66 -4.78 5000003.79219
7.516876 -3.84 -4.78 5000003.79219
7.46172 5.42 -4.8 5000003.6543
7.46172 5.4 -4.8 5000003.6543
7.46172 5.44 -4.82 5000003.6543
7.516876 -2.04 -4.82 5000003.79219
7.516876 -0.74 -4.84 5000003.79219
7.516876 -2.14 -4.84 5000003.79219
7.516876 -4.76 -4.86 5000003.79219
7.516876 4.94 -4.9 5000003.79219
7.516876 4.92 -4.9 5000003.79219
7.46172 4.94 -4.92 5000003.6543
7.46172 4.92 -4.92 5000003.6543
7.46172 -2.2 -4.92 5000003.6543
7.46172 4.98 -4.94 5000003.6543
7.46172 4.94 -4.94 5000003.6543
7.46172 4.92 -4.94 5000003.6543
7.46172 4.9 -4.94 5000003.6543
7.46172 3.66 -4.94 5000003.6543
7.46172 4.98 -4.96 5000003.6543
7.46172 4.96 -4.96 5000003.6543
7.46172 4.9 -4.96 5000003.6543
7.46172 3.98 -4.96 5000003.6543
7.46172 3.96 -4.96 5000003.6543
7.46172 -0.34 -4.96 5000003.6543
7.46172 4.96 -4.98 5000003.6543
7.46172 4.94 -4.98 5000003.6543
7.46172 4.92 -4.98 5000003.6543
7.46172 4.9 -4.98 5000003.6543
7.46172 1.48 -4.98 5000003.6543
7.46172 1.46 -4.98 5000003.6543
7.46172 -0.2 -4.98 5000003.6543
7.410436000000001 4.98 -5.04 5000003.52609
7.410436000000001 4.96 -5.04 5000003.52609
7.410436000000001 4.94 -5.04 5000003.52609
7.410436000000001 4.98 -5.06 5000003.52609
7.46172 -4.98 -5.06 5000003.6543
7.410436000000001 4.26 -5.08 5000003.52609
7.410436000000001 4.22 -5.08 5000003.52609
7.410436000000001 2.5 -5.1 5000003.52609
7.410436000000001 0.16 -5.1 5000003.52609
7.410436000000001 4.3 -5.12 5000003.52609
7.410436000000001 4.28 -5.12 5000003.52609
7.410436000000001 4.26 -5.12 5000003.52609
7.410436000000001 2.22 -5.12 5000003.52609
7.410436000000001 0.16 -5.12 5000003.52609
7.46172 5.62 -5.14 5000003.6543
7.410436000000001 5.68 -5.18 5000003.52609
7.410436000000001 5.66 -5.18 5000003.52609
7.46172 5.0 -5.18 5000003.6543
7.46172 4.98 -5.18 5000003.6543
7.410436000000001 4.92 -5.18 5000003.52609
7.362628 4.9 -5.18 5000003.40657
7.410436000000001 4.64 -5.18 5000003.52609
7.410436000000001 -4.86 -5.18 5000003.52609
7.410436000000001 5.66 -5.2 5000003.52609
7.410436000000001 4.64 -5.2 5000003.52609
7.362628 5.72 -5.22 5000003.40657
7.362628 5.68 -5.22 5000003.40657
7.410436000000001 5.66 -5.22 5000003.52609
7.410436000000001 4.96 -5.22 5000003.52609
7.410436000000001 4.94 -5.22 5000003.52609
7.410436000000001 4.92 -5.22 5000003.52609
7.362628 4.9 -5.22 5000003.40657
7.410436000000001 4.64 -5.22 5000003.52609
7.362628 5.72 -5.24 5000003.40657
7.362628 5.7 -5.24 5000003.40657
7.362628 3.44 -5.24 5000003.40657
7.362628 3.4 -5.24 5000003.40657
7.362628 3.38 -5.24 5000003.40657
7.362628 1.42 -5.26 5000003.40657
7.362628 1.4 -5.26 5000003.40657
7.410436000000001 3.46 -5.28 5000003.52609
7.362628 3.74 -5.3 5000003.40657
7.362628 2.8 -5.3 5000003.40657
7.362628 2.78 -5.3 5000003.40657
7.362628 1.88 -5.3 5000003.40657
7.362628 0.24 -5.3 5000003.40657
7.317956 2.74 -5.32 5000003.29489
7.317956 2.72 -5.32 5000003.29489
7.362628 0.26 -5.32 5000003.40657
7.362628 0.24 -5.32 5000003.40657
7.362628 -4.76 -5.32 5000003.40657
7.362628 3.8 -5.34 5000003.40657
7.362628 -0.92 -5.34 5000003.40657
7.410436000000001 3.92 -5.36 5000003.52609
7.317956 1.96 -5.36 5000003.29489
7.362628 3.88 -5.38 5000003.40657
7.317956 1.92 -5.38 5000003.29489
7.317956 3.84 -5.4 5000003.29489
7.317956 1.94 -5.4 5000003.29489
86.0 -0.58 -5.4 5000200.0
7.317956 3.9 -5.42 5000003.29489
7.317956 3.92 -5.44 5000003.29489
7.317956 3.9 -5.44 5000003.29489
7.317956 3.88 -5.44 5000003.29489
7.362628 4.62 -5.46 5000003.40657
7.317956 4.6 -5.46 5000003.29489
7.317956 4.58 -5.46 5000003.29489
7.317956 0.88 -5.46 5000003.29489
7.317956 4.58 -5.48 5000003.29489
7.317956 4.56 -5.48 5000003.29489
7.317956 2.78 -5.48 5000003.29489
7.317956 0.88 -5.48 5000003.29489
7.317956 4.6 -5.5 5000003.29489
7.317956 4.58 -5.5 5000003.29489
7.317956 4.54 -5.5 5000003.29489
7.317956 2.8 -5.5 5000003.29489
22.06424 0.34 -5.5 5000040.1606
7.317956 -1.78 -5.5 5000003.29489
7.276120000000001 4.64 -5.52 5000003.1903
7.317956 4.62 -5.52 5000003.29489
7.317956 2.84 -5.52 5000003.29489
22.06424 0.34 -5.52 5000040.1606
7.276120000000001 4.64 -5.54 5000003.1903
7.276120000000001 4.62 -5.54 5000003.1903
7.317956 4.6 -5.54 5000003.29489
7.276120000000001 4.58 -5.54 5000003.1903
7.317956 2.8 -5.54 5000003.29489
32.755840000000006 0.66 -5.54 5000066.8896
32.755840000000006 0.64 -5.54 5000066.8896
22.06424 0.34 -5.54 5000040.1606
7.317956 -4.18 -5.54 5000003.29489
 5000004.90196
5.960784 3.6 -4.24 5000004.90196
5.710500000000001 3.5 -4.24 5000004.27625
5.710500000000001 3.48 -4.24 5000004.27625
5.710500000000001 3.46 -4.24 5000004.27625
5.710500000000001 0.5 -4.24 5000004.27625
5.640688000000001 5.5 -4.26 5000004.10172
5.710500000000001 4.54 -4.26 5000004.27625
5.8695960000000005 4.08 -4.26 5000004.67399
5.710500000000001 4.02 -4.26 5000004.27625
5.640688000000001 5.5 -4.28 5000004.10172
5.640688000000001 4.54 -4.28 5000004.10172
5.8695960000000005 4.1 -4.28 5000004.67399
5.786512 4.04 -4.28 5000004.46628
5.710500000000001 3.98 -4.28 5000004.27625
5.710500000000001 3.96 -4.28 5000004.27625
5.5763560000000005 5.56 -4.3 5000003.94089
5.786512 4.66 -4.3 5000004.46628
5.786512 4.64 -4.3 5000004.46628
5.640688000000001 4.56 -4.3 5000004.10172
5.640688000000001 4.54 -4.3 5000004.10172
5.710500000000001 4.24 -4.3 5000004.27625
5.710500000000001 3.98 -4.3 5000004.27625
5.710500000000001 3.96 -4.3 5000004.27625
5.710500000000001 3.94 -4.3 5000004.27625
5.710500000000001 3.92 -4.3 5000004.27625
5.786512 3.74 -4.3 5000004.46628
5.5763560000000005 5.54 -4.32 5000003.94089
5.640688000000001 4.6 -4.32 5000004.10172
5.640688000000001 4.58 -4.32 5000004.10172
5.640688000000001 4.56 -4.32 5000004.10172
5.640688000000001 4.54 -4.32 5000004.10172
5.710500000000001 4.24 -4.32 5000004.27625
5.786512 3.72 -4.32 5000004.46628
5.786512 3.7 -4.32 5000004.46628
5.710500000000001 -1.08 -4.32 5000004.27625
5.516876 5.6 -4.34 5000003.79219
5.5763560000000005 5.58 -4.34 5000003.94089
5.5763560000000005 5.56 -4.34 5000003.94089
5.5763560000000005 5.54 -4.34 5000003.94089
5.710500000000001 4.64 -4.34 5000004.27625
5.710500000000001 4.24 -4.34 5000004.27625
5.710500000000001 4.0 -4.34 5000004.27625
5.640688000000001 3.98 -4.34 5000004.10172
5.640688000000001 3.78 -4.34 5000004.10172
5.640688000000001 3.72 -4.34 5000004.10172
5.640688000000001 3.64 -4.34 5000004.10172
5.516876 5.6 -4.36 5000003.79219
5.516876 5.58 -4.36 5000003.79219
5.5763560000000005 4.98 -4.36 5000003.94089
5.5763560000000005 4.84 -4.36 5000003.94089
5.5763560000000005 4.82 -4.36 5000003.94089
5.640688000000001 4.6 -4.36 5000004.10172
5.710500000000001 4.26 -4.36 5000004.27625
5.710500000000001 4.2 -4.36 5000004.27625
5.640688000000001 4.18 -4.36 5000004.10172
5.516876 4.1 -4.36 5000003.79219
5.640688000000001 3.76 -4.36 5000004.10172
5.640688000000001 3.74 -4.36 5000004.10172
5.640688000000001 3.66 -4.36 5000004.10172
5.640688000000001 3.64 -4.36 5000004.10172
5.5763560000000005 4.84 -4.38 5000003.94089
5.5763560000000005 4.56 -4.38 5000003.94089
5.710500000000001 4.08 -4.38 5000004.27625
5.640688000000001 3.78 -4.38 5000004.10172
5.640688000000001 3.76 -4.38 5000004.10172
5.640688000000001 3.74 -4.38 5000004.10172
5.640688000000001 3.68 -4.38 5000004.10172
5.640688000000001 3.66 -4.38 5000004.10172
5.640688000000001 3.64 -4.38 5000004.10172
5.5763560000000005 5.36 -4.4 5000003.94089
5.5763560000000005 5.0 -4.4 5000003.94089
5.5763560000000005 4.8 -4.4 5000003.94089
5.640688000000001 4.14 -4.4 5000004.10172
5.640688000000001 -0.38 -4.4 5000004.10172
5.5763560000000005 5.06 -4.42 5000003.94089
5.5763560000000005 4.84 -4.42 5000003.94089
5.640688000000001 4.66 -4.42 5000004.10172
5.640688000000001 4.64 -4.42 5000004.10172
5.640688000000001 4.62 -4.42 5000004.10172
5.640688000000001 4.58 -4.42 5000004.10172
5.640688000000001 4.5 -4.42 5000004.10172
5.5763560000000005 4.84 -4.44 5000003.94089
5.5763560000000005 4.82 -4.44 5000003.94089
5.640688000000001 4.54 -4.44 5000004.10172
5.640688000000001 1.84 -4.44 5000004.10172
5.640688000000001 1.42 -4.44 5000004.10172
5.640688000000001 -4.26 -4.44 5000004.10172
5.5763560000000005 5.06 -4.46 5000003.94089
5.5763560000000005 5.04 -4.46 5000003.94089
5.5763560000000005 4.82 -4.46 5000003.94089
5.640688000000001 4.46 -4.46 5000004.10172
5.640688000000001 4.44 -4.46 5000004.10172
5.640688000000001 3.22 -4.46 5000004.10172
5.640688000000001 0.0 -4.46 5000004.10172
5.640688000000001 -4.26 -4.46 5000004.10172
5.5763560000000005 5.1 -4.48 5000003.94089
5.5763560000000005 5.06 -4.48 5000003.94089
5.5763560000000005 5.04 -4.48 5000003.94089
5.5763560000000005 5.02 -4.48 5000003.94089
5.640688000000001 3.2 -4.48 5000004.10172
5.640688000000001 3.18 -4.48 5000004.10172
5.5763560000000005 5.06 -4.5 5000003.94089
5.786512 4.82 -4.5 5000004.46628
5.640688000000001 4.72 -4.5 5000004.10172
5.640688000000001 3.26 -4.5 5000004.10172
5.640688000000001 -4.26 -4.5 5000004.10172
5.640688000000001 -4.28 -4.5 5000004.10172
5.5763560000000005 5.32 -4.52 5000003.94089
5.640688000000001 4.68 -4.52 5000004.10172
5.640688000000001 3.26 -4.52 5000004.10172
5.640688000000001 3.24 -4.52 5000004.10172
5.640688000000001 3.22 -4.52 5000004.10172
5.640688000000001 3.2 -4.52 5000004.10172
5.5763560000000005 5.32 -4.54 5000003.94089
5.5763560000000005 5.3 -4.54 5000003.94089
5.8695960000000005 4.84 -4.54 5000004.67399
5.640688000000001 4.74 -4.54 5000004.10172
5.640688000000001 -2.38 -4.54 5000004.10172
5.640688000000001 -2.4 -4.54 5000004.10172
5.5763560000000005 5.3 -4.56 5000003.94089
5.5763560000000005 4.74 -4.56 5000003.94089
5.5763560000000005 4.66 -4.56 5000003.94089
5.5763560000000005 4.62 -4.56 5000003.94089
5.5763560000000005 4.6 -4.56 5000003.94089
5.5763560000000005 4.1 -4.56 5000003.94089
5.5763560000000005 2.84 -4.56 5000003.94089
5.5763560000000005 5.3 -4.58 5000003.94089
5.5763560000000005 5.12 -4.58 5000003.94089
5.5763560000000005 5.06 -4.58 5000003.94089
5.640688000000001 4.78 -4.58 5000004.10172
5.5763560000000005 4.72 -4.58 5000003.94089
5.5763560000000005 4.62 -4.58 5000003.94089
5.5763560000000005 4.6 -4.58 5000003.94089
5.5763560000000005 4.58 -4.58 5000003.94089
5.5763560000000005 0.1 -4.58 5000003.94089
5.516876 5.3 -4.6 5000003.79219
5.516876 5.28 -4.6 5000003.79219
5.5763560000000005 5.1 -4.6 5000003.94089
5.5763560000000005 4.72 -4.6 5000003.94089
5.5763560000000005 4.7 -4.6 5000003.94089
5.5763560000000005 2.96 -4.6 5000003.94089
5.5763560000000005 2.94 -4.6 5000003.94089
5.5763560000000005 -1.56 -4.6 5000003.94089
5.5763560000000005 -2.74 -4.6 5000003.94089
5.5763560000000005 -4.36 -4.6 5000003.94089
5.516876 5.28 -4.62 5000003.79219
5.516876 5.26 -4.62 5000003.79219
5.5763560000000005 5.1 -4.62 5000003.94089
5.640688000000001 4.82 -4.62 5000004.10172
5.5763560000000005 4.8 -4.62 5000003.94089
5.5763560000000005 4.76 -4.62 5000003.94089
5.5763560000000005 4.64 -4.62 5000003.94089
5.516876 5.26 -4.64 5000003.79219
5.5763560000000005 4.78 -4.64 5000003.94089
5.516876 4.76 -4.64 5000003.79219
5.516876 4.74 -4.64 5000003.79219
5.516876 4.72 -4.64 5000003.79219
5.516876 4.68 -4.64 5000003.79219
5.516876 5.26 -4.66 5000003.79219
5.516876 5.24 -4.66 5000003.79219
5.516876 5.04 -4.66 5000003.79219
5.516876 4.98 -4.66 5000003.79219
5.5763560000000005 4.9 -4.66 5000003.94089
5.516876 4.76 -4.66 5000003.79219
5.516876 4.74 -4.66 5000003.79219
5.516876 4.72 -4.66 5000003.79219
5.516876 4.7 -4.66 5000003.79219
5.516876 5.24 -4.68 5000003.79219
5.516876 5.02 -4.68 5000003.79219
5.5763560000000005 4.94 -4.68 5000003.94089
5.516876 4.8 -4.68 5000003.79219
5.516876 4.78 -4.68 5000003.79219
5.5763560000000005 3.96 -4.68 5000003.94089
5.516876 5.0 -4.7 5000003.79219
5.5763560000000005 3.96 -4.7 5000003.94089
5.5763560000000005 3.94 -4.7 5000003.94089
5.5763560000000005 3.92 -4.7 5000003.94089
5.516876 3.9 -4.7 5000003.79219
5.516876 3.06 -4.7 5000003.79219
5.516876 3.04 -4.7 5000003.79219
5.516876 5.38 -4.72 5000003.79219
5.516876 5.36 -4.72 5000003.79219
5.516876 5.34 -4.72 5000003.79219
5.5763560000000005 3.96 -4.72 5000003.94089
5.516876 5.36 -4.74 5000003.79219
5.516876 5.34 -4.74 5000003.79219
5.46172 5.42 -4.76 5000003.6543
5.46172 5.42 -4.78 5000003.6543
5.46172 5.4 -4.78 5000003.6543
5.516876 5.38 -4.78 5000003.79219
5.516876 -0.66 -4.78 5000003.79219
5.516876 -3.84 -4.78 5000003.79219
5.46172 5.42 -4.8 5000003.6543
5.46172 5.4 -4.8 5000003.6543
5.46172 5.44 -4.82 5000003.6543
5.516876 -2.04 -4.82 5000003.79219
5.516876 -0.74 -4.84 5000003.79219
5.516876 -2.14 -4.84 5000003.79219
5.516876 -4.76 -4.86 5000003.79219
5.516876 4.94 -4.9 5000003.79219
5.516876 4.92 -4.9 5000003.79219
5.46172 4.94 -4.92 5000003.6543
5.46172 4.92 -4.92 5000003.6543
5.46172 -2.2 -4.92 5000003.6543
5.46172 4.98 -4.94 5000003.6543
5.46172 4.94 -4.94 5000003.6543
5.46172 4.92 -4.94 5000003.6543
5.46172 4.9 -4.94 5000003.6543
5.46172 3.66 -4.94 5000003.6543
5.46172 4.98 -4.96 5000003.6543
5.46172 4.96 -4.96 5000003.6543
5.46172 4.9 -4.96 5000003.6543
5.46172 3.98 -4.96 5000003.6543
5.46172 3.96 -4.96 5000003.6543
5.46172 -0.34 -4.96 5000003.6543
5.46172 4.96 -4.98 5000003.6543
5.46172 4.94 -4.98 5000003.6543
5.46172 4.92 -4.98 5000003.6543
5.46172 4.9 -4.98 5000003.6543
5.46172 1.48 -4.98 5000003.6543
5.46172 1.46 -4.98 5000003.6543
5.46172 -0.2 -4.98 5000003.6543
5.410436 4.98 -5.04 5000003.52609
5.410436 4.96 -5.04 5000003.52609
5.410436 4.94 -5.04 5000003.52609
5.410436 4.98 -5.06 5000003.52609
5.46172 -4.98 -5.06 5000003.6543
5.410436 4.26 -5.08 5000003.52609
5.410436 4.22 -5.08 5000003.52609
5.410436 2.5 -5.1 5000003.52609
5.410436 0.16 -5.1 5000003.52609
5.410436 4.3 -5.12 5000003.52609
5.410436 4.28 -5.12 5000003.52609
5.410436 4.26 -5.12 5000003.52609
5.410436 2.22 -5.12 5000003.52609
5.410436 0.16 -5.12 5000003.52609
5.46172 5.62 -5.14 5000003.6543
5.410436 5.68 -5.18 5000003.52609
5.410436 5.66 -5.18 5000003.52609
5.46172 5.0 -5.18 5000003.6543
5.46172 4.98 -5.18 5000003.6543
5.410436 4.92 -5.18 5000003.52609
5.362628000000001 4.9 -5.18 5000003.40657
5.410436 4.64 -5.18 5000003.52609
5.410436 -4.86 -5.18 5000003.52609
5.410436 5.66 -5.2 5000003.52609
5.410436 4.64 -5.2 5000003.52609
5.362628000000001 5.72 -5.22 5000003.40657
5.362628000000001 5.68 -5.22 5000003.40657
5.410436 5.66 -5.22 5000003.52609
5.410436 4.96 -5.22 5000003.52609
5.410436 4.94 -5.22 5000003.52609
5.410436 4.92 -5.22 5000003.52609
5.362628000000001 4.9 -5.22 5000003.40657
5.410436 4.64 -5.22 5000003.52609
5.362628000000001 5.72 -5.24 5000003.40657
5.362628000000001 5.7 -5.24 5000003.40657
5.362628000000001 3.44 -5.24 5000003.40657
5.362628000000001 3.4 -5.24 5000003.40657
5.362628000000001 3.38 -5.24 5000003.40657
5.362628000000001 1.42 -5.26 5000003.40657
5.362628000000001 1.4 -5.26 5000003.40657
5.410436 3.46 -5.28 5000003.52609
5.362628000000001 3.74 -5.3 5000003.40657
5.362628000000001 2.8 -5.3 5000003.40657
5.362628000000001 2.78 -5.3 5000003.40657
5.362628000000001 1.88 -5.3 5000003.40657
5.362628000000001 0.24 -5.3 5000003.40657
5.317956000000001 2.74 -5.32 5000003.29489
5.317956000000001 2.72 -5.32 5000003.29489
5.362628000000001 0.26 -5.32 5000003.40657
5.362628000000001 0.24 -5.32 5000003.40657
5.362628000000001 -4.76 -5.32 5000003.40657
5.362628000000001 3.8 -5.34 5000003.40657
5.362628000000001 -0.92 -5.34 5000003.40657
5.410436 3.92 -5.36 5000003.52609
5.317956000000001 1.96 -5.36 5000003.29489
5.362628000000001 3.88 -5.38 5000003.40657
5.317956000000001 1.92 -5.38 5000003.29489
5.317956000000001 3.84 -5.4 5000003.29489
5.317956000000001 1.94 -5.4 5000003.29489
84.0 -0.58 -5.4 5000200.0
5.317956000000001 3.9 -5.42 5000003.29489
5.317956000000001 3.92 -5.44 5000003.29489
5.317956000000001 3.9 -5.44 5000003.29489
5.317956000000001 3.88 -5.44 5000003.29489
5.362628000000001 4.62 -5.46 5000003.40657
5.317956000000001 4.6 -5.46 5000003.29489
5.317956000000001 4.58 -5.46 5000003.29489
5.317956000000001 0.88 -5.46 5000003.29489
5.317956000000001 4.58 -5.48 5000003.29489
5.317956000000001 4.56 -5.48 5000003.29489
5.317956000000001 2.78 -5.48 5000003.29489
5.317956000000001 0.88 -5.48 5000003.29489
5.317956000000001 4.6 -5.5 5000003.29489
5.317956000000001 4.58 -5.5 5000003.29489
5.317956000000001 4.54 -5.5 5000003.29489
5.317956000000001 2.8 -5.5 5000003.29489
20.064239999999998 0.34 -5.5 5000040.1606
5.317956000000001 -1.78 -5.5 5000003.29489
5.27612 4.64 -5.52 5000003.1903
5.317956000000001 4.62 -5.52 5000003.29489
5.317956000000001 2.84 -5.52 5000003.29489
20.064239999999998 0.34 -5.52 5000040.1606
5.27612 4.64 -5.54 5000003.1903
5.27612 4.62 -5.54 5000003.1903
5.317956000000001 4.6 -5.54 5000003.29489
5.27612 4.58 -5.54 5000003.1903
5.317956000000001 2.8 -5.54 5000003.29489
30.75584 0.66 -5.54 5000066.8896
30.75584 0.64 -5.54 5000066.8896
20.064239999999998 0.34 -5.54 5000040.1606
5.317956000000001 -4.18 -5.54 5000003.29489
3.42 5000004.90196
9.960784 3.78 -3.42 5000004.90196
9.960784 3.46 -3.42 5000004.90196
9.960784 4.26 -3.44 5000004.90196
9.960784 4.24 -3.44 5000004.90196
10.061324 4.14 -3.44 5000005.15331
9.960784 3.78 -3.44 5000004.90196
9.960784 3.76 -3.44 5000004.90196
9.960784 4.24 -3.46 5000004.90196
9.960784 4.22 -3.46 5000004.90196
9.960784 4.2 -3.46 5000004.90196
9.960784 3.4 -3.46 5000004.90196
9.960784 3.38 -3.46 5000004.90196
9.960784 4.88 -3.48 5000004.90196
9.960784 3.7 -3.48 5000004.90196
9.960784 3.64 -3.48 5000004.90196
9.960784 3.4 -3.48 5000004.90196
9.960784 3.38 -3.48 5000004.90196
9.960784 3.12 -3.48 5000004.90196
9.960784 4.86 -3.5 5000004.90196
9.960784 4.04 -3.5 5000004.90196
9.960784 3.72 -3.5 5000004.90196
9.960784 3.7 -3.5 5000004.90196
9.960784 3.66 -3.5 5000004.90196
9.960784 3.62 -3.5 5000004.90196
9.869596 4.28 -3.52 5000004.67399
9.960784 4.04 -3.52 5000004.90196
9.960784 3.66 -3.52 5000004.90196
9.960784 3.5 -3.52 5000004.90196
9.960784 3.48 -3.52 5000004.90196
9.869596 4.3 -3.54 5000004.67399
9.869596 4.28 -3.54 5000004.67399
9.869596 4.24 -3.54 5000004.67399
9.960784 4.08 -3.54 5000004.90196
9.869596 3.92 -3.54 5000004.67399
9.960784 3.54 -3.54 5000004.90196
9.960784 3.48 -3.54 5000004.90196
9.960784 3.46 -3.54 5000004.90196
9.960784 3.44 -3.54 5000004.90196
9.960784 2.64 -3.54 5000004.90196
10.061324 1.76 -3.54 5000005.15331
10.061324 4.78 -3.56 5000005.15331
9.869596 4.28 -3.56 5000004.67399
9.869596 4.26 -3.56 5000004.67399
9.869596 4.24 -3.56 5000004.67399
9.960784 4.22 -3.56 5000004.90196
9.869596 3.9 -3.56 5000004.67399
9.960784 3.58 -3.56 5000004.90196
9.869596 4.74 -3.58 5000004.67399
9.869596 4.72 -3.58 5000004.67399
9.869596 3.88 -3.58 5000004.67399
9.960784 3.58 -3.58 5000004.90196
9.960784 3.56 -3.58 5000004.90196
9.869596 3.54 -3.58 5000004.67399
9.960784 3.52 -3.58 5000004.90196
9.869596 4.72 -3.6 5000004.67399
9.869596 4.7 -3.6 5000004.67399
9.869596 4.04 -3.6 5000004.67399
9.869596 4.02 -3.6 5000004.67399
9.869596 4.0 -3.6 5000004.67399
9.869596 3.88 -3.6 5000004.67399
9.869596 3.04 -3.6 5000004.67399
10.061324 0.48 -3.6 5000005.15331
9.869596 4.9 -3.62 5000004.67399
9.869596 4.54 -3.62 5000004.67399
9.869596 4.32 -3.62 5000004.67399
9.869596 4.04 -3.62 5000004.67399
9.869596 4.02 -3.62 5000004.67399
9.869596 4.0 -3.62 5000004.67399
9.869596 3.5 -3.62 5000004.67399
9.869596 4.9 -3.64 5000004.67399
9.869596 4.88 -3.64 5000004.67399
9.869596 4.36 -3.64 5000004.67399
9.869596 4.0 -3.64 5000004.67399
9.869596 3.5 -3.64 5000004.67399
9.869596 4.88 -3.66 5000004.67399
9.869596 4.86 -3.66 5000004.67399
9.869596 3.2 -3.66 5000004.67399
9.869596 3.78 -3.68 5000004.67399
10.061324 1.72 -3.68 5000005.15331
10.061324 1.7 -3.68 5000005.15331
10.061324 1.68 -3.68 5000005.15331
9.960784 1.08 -3.68 5000004.90196
9.869596 3.6 -3.7 5000004.67399
9.869596 2.92 -3.72 5000004.67399
9.960784 2.7 -3.72 5000004.90196
10.061324 1.72 -3.72 5000005.15331
9.869596 2.94 -3.76 5000004.67399
9.869596 4.0 -3.8 5000004.67399
9.786512 3.66 -3.8 5000004.46628
9.786512 3.64 -3.8 5000004.46628
9.786512 3.62 -3.8 5000004.46628
9.960784 2.84 -3.8 5000004.90196
9.786512 3.62 -3.82 5000004.46628
9.786512 3.6 -3.82 5000004.46628
9.786512 3.98 -3.84 5000004.46628
9.960784 2.84 -3.84 5000004.90196
9.869596 2.8 -3.84 5000004.67399
9.869596 4.06 -3.86 5000004.67399
9.7105 4.0 -3.86 5000004.27625
9.786512 3.96 -3.86 5000004.46628
9.960784 2.8 -3.86 5000004.90196
9.869596 2.78 -3.86 5000004.67399
9.869596 4.1 -3.88 5000004.67399
9.786512 4.08 -3.88 5000004.46628
9.7105 4.0 -3.88 5000004.27625
9.786512 3.96 -3.88 5000004.46628
9.869596 4.84 -3.9 5000004.67399
9.869596 4.2 -3.9 5000004.67399
9.786512 4.08 -3.9 5000004.46628
9.786512 4.04 -3.9 5000004.46628
9.7105 4.02 -3.9 5000004.27625
9.786512 4.94 -3.92 5000004.46628
9.7105 4.14 -3.92 5000004.27625
9.786512 4.12 -3.92 5000004.46628
9.7105 4.04 -3.92 5000004.27625
9.7105 4.02 -3.92 5000004.27625
9.869596 0.66 -3.92 5000004.67399
9.7105 4.08 -3.94 5000004.27625
9.786512 2.98 -3.94 5000004.46628
9.786512 2.96 -3.94 5000004.46628
9.869596 0.68 -3.94 5000004.67399
9.869596 0.66 -3.94 5000004.67399
9.786512 2.96 -3.96 5000004.46628
9.786512 3.16 -4.0 5000004.46628
9.786512 2.82 -4.0 5000004.46628
9.786512 2.04 -4.0 5000004.46628
9.786512 2.02 -4.0 5000004.46628
9.786512 2.0 -4.0 5000004.46628
9.786512 4.2 -4.02 5000004.46628
9.786512 4.18 -4.02 5000004.46628
9.786512 3.16 -4.02 5000004.46628
9.869596 3.1 -4.02 5000004.67399
9.786512 3.06 -4.02 5000004.46628
9.640688 4.38 -4.04 5000004.10172
9.640688 4.36 -4.04 5000004.10172
9.786512 4.14 -4.04 5000004.46628
10.061324 3.32 -4.04 5000005.15331
9.869596 3.1 -4.04 5000004.67399
9.786512 3.04 -4.04 5000004.46628
9.640688 4.4 -4.06 5000004.10172
9.7105 4.28 -4.06 5000004.27625
10.061324 3.34 -4.06 5000005.15331
10.061324 3.32 -4.06 5000005.15331
9.869596 3.24 -4.06 5000004.67399
9.786512 3.16 -4.06 5000004.46628
9.869596 3.1 -4.06 5000004.67399
9.786512 3.04 -4.06 5000004.46628
9.786512 3.02 -4.06 5000004.46628
9.786512 2.98 -4.06 5000004.46628
9.7105 4.54 -4.08 5000004.27625
9.7105 4.26 -4.08 5000004.27625
9.869596 3.24 -4.08 5000004.67399
9.869596 3.22 -4.08 5000004.67399
9.786512 3.16 -4.08 5000004.46628
9.869596 3.1 -4.08 5000004.67399
9.786512 3.02 -4.08 5000004.46628
9.786512 2.74 -4.08 5000004.46628
9.7105 4.92 -4.1 5000004.27625
9.786512 3.16 -4.1 5000004.46628
9.786512 3.14 -4.1 5000004.46628
9.786512 3.02 -4.1 5000004.46628
9.869596 2.84 -4.1 5000004.67399
9.786512 2.78 -4.1 5000004.46628
9.786512 0.04 -4.1 5000004.46628
9.640688 4.92 -4.12 5000004.10172
9.786512 3.16 -4.12 5000004.46628
9.7105 3.06 -4.12 5000004.27625
