VERSION .7
FIELDS x y z rgb
SIZE 4 4 4 4
TYPE F F F F
COUNT 1 1 1 1
WIDTH 1391
HEIGHT 1
VIEWPOINT 0 0 0 1 0 0 0
POINTS 1391
DATA ascii
124.19999999999999 -5.78 1.4 5000200.0
28.29636 -5.92 1.4 5000040.1606
21.41664 -5.98 1.4 5000028.6944
17.592840000000002 -6.18 1.4 5000022.3214
44.33376 5.2 1.38 5000066.8896
44.33376 5.14 1.38 5000066.8896
44.33376 4.34 1.38 5000066.8896
44.33376 4.28 1.38 5000066.8896
12.23748 3.92 1.38 5000013.3958
12.23748 3.9 1.38 5000013.3958
11.29218 3.84 1.38 5000011.8203
12.23748 3.18 1.38 5000013.3958
11.29218 3.12 1.38 5000011.8203
11.29218 3.1 1.38 5000011.8203
21.41664 1.64 1.38 5000028.6944
17.592840000000002 1.58 1.38 5000022.3214
28.29636 1.56 1.38 5000040.1606
28.29636 1.54 1.38 5000040.1606
28.29636 1.52 1.38 5000040.1606
17.592840000000002 1.42 1.38 5000022.3214
17.592840000000002 1.4 1.38 5000022.3214
124.19999999999999 1.32 1.38 5000200.0
28.29636 1.22 1.38 5000040.1606
28.29636 1.18 1.38 5000040.1606
28.29636 1.02 1.38 5000040.1606
17.592840000000002 0.92 1.38 5000022.3214
17.592840000000002 0.9 1.38 5000022.3214
44.33376 0.1 1.38 5000066.8896
44.33376 0.06 1.38 5000066.8896
44.33376 -0.54 1.38 5000066.8896
44.33376 -0.56 1.38 5000066.8896
17.592840000000002 -0.7 1.38 5000022.3214
44.33376 -0.72 1.38 5000066.8896
28.29636 -1.3 1.38 5000040.1606
28.29636 -1.46 1.38 5000040.1606
17.592840000000002 -1.88 1.38 5000022.3214
44.33376 -2.28 1.38 5000066.8896
44.33376 -2.66 1.38 5000066.8896
44.33376 -2.82 1.38 5000066.8896
44.33376 -2.9 1.38 5000066.8896
17.592840000000002 -3.08 1.38 5000022.3214
15.15888 -3.16 1.38 5000018.2648
12.23748 -3.28 1.38 5000013.3958
28.29636 -3.34 1.38 5000040.1606
28.29636 -3.38 1.38 5000040.1606
28.29636 -4.68 1.38 5000040.1606
44.33376 -5.16 1.38 5000066.8896
28.29636 -5.3 1.38 5000040.1606
28.29636 -5.9 1.38 5000040.1606
28.29636 -5.92 1.38 5000040.1606
21.41664 -5.98 1.38 5000028.6944
17.592840000000002 -6.18 1.38 5000022.3214
44.33376 5.14 1.36 5000066.8896
44.33376 4.34 1.36 5000066.8896
44.33376 4.28 1.36 5000066.8896
12.23748 3.9 1.36 5000013.3958
11.29218 3.84 1.36 5000011.8203
12.23748 3.18 1.36 5000013.3958
11.29218 3.12 1.36 5000011.8203
11.29218 3.1 1.36 5000011.8203
17.592840000000002 2.98 1.36 5000022.3214
17.592840000000002 2.6 1.36 5000022.3214
17.592840000000002 1.56 1.36 5000022.3214
28.29636 1.52 1.36 5000040.1606
17.592840000000002 1.4 1.36 5000022.3214
17.592840000000002 1.38 1.36 5000022.3214
124.19999999999999 1.32 1.36 5000200.0
17.592840000000002 1.22 1.36 5000022.3214
17.592840000000002 1.18 1.36 5000022.3214
17.592840000000002 0.94 1.36 5000022.3214
17.592840000000002 0.92 1.36 5000022.3214
44.33376 0.08 1.36 5000066.8896
28.29636 0.04 1.36 5000040.1606
44.33376 -0.54 1.36 5000066.8896
44.33376 -0.56 1.36 5000066.8896
124.19999999999999 -0.64 1.36 5000200.0
17.592840000000002 -0.7 1.36 5000022.3214
17.592840000000002 -0.72 1.36 5000022.3214
28.29636 -1.48 1.36 5000040.1606
21.41664 -1.56 1.36 5000028.6944
21.41664 -1.72 1.36 5000028.6944
17.592840000000002 -1.88 1.36 5000022.3214
44.33376 -2.88 1.36 5000066.8896
17.592840000000002 -3.06 1.36 5000022.3214
15.15888 -3.14 1.36 5000018.2648
12.23748 -3.26 1.36 5000013.3958
28.29636 -3.38 1.36 5000040.1606
44.33376 -5.84 1.36 5000066.8896
28.29636 -5.9 1.36 5000040.1606
28.29636 -5.92 1.36 5000040.1606
21.41664 -5.98 1.36 5000028.6944
44.33376 4.34 1.34 5000066.8896
44.33376 4.28 1.34 5000066.8896
12.23748 3.9 1.34 5000013.3958
11.29218 3.84 1.34 5000011.8203
12.23748 3.2 1.34 5000013.3958
11.29218 3.12 1.34 5000011.8203
11.29218 3.1 1.34 5000011.8203
44.33376 2.44 1.34 5000066.8896
17.592840000000002 1.56 1.34 5000022.3214
17.592840000000002 1.54 1.34 5000022.3214
28.29636 1.52 1.34 5000040.1606
28.29636 1.5 1.34 5000040.1606
17.592840000000002 1.4 1.34 5000022.3214
17.592840000000002 1.38 1.34 5000022.3214
17.592840000000002 1.22 1.34 5000022.3214
17.592840000000002 1.18 1.34 5000022.3214
17.592840000000002 0.94 1.34 5000022.3214
17.592840000000002 0.92 1.34 5000022.3214
28.29636 0.06 1.34 5000040.1606
28.29636 0.04 1.34 5000040.1606
28.29636 0.02 1.34 5000040.1606
44.33376 -0.54 1.34 5000066.8896
44.33376 -0.56 1.34 5000066.8896
124.19999999999999 -0.64 1.34 5000200.0
17.592840000000002 -0.7 1.34 5000022.3214
17.592840000000002 -0.72 1.34 5000022.3214
44.33376 -1.42 1.34 5000066.8896
28.29636 -1.48 1.34 5000040.1606
21.41664 -1.56 1.34 5000028.6944
21.41664 -1.72 1.34 5000028.6944
21.41664 -1.76 1.34 5000028.6944
17.592840000000002 -1.88 1.34 5000022.3214
124.19999999999999 -2.7 1.34 5000200.0
44.33376 -2.84 1.34 5000066.8896
44.33376 -2.86 1.34 5000066.8896
17.592840000000002 -3.04 1.34 5000022.3214
15.15888 -3.12 1.34 5000018.2648
12.23748 -3.24 1.34 5000013.3958
11.29218 -3.3 1.34 5000011.8203
44.33376 -5.14 1.34 5000066.8896
44.33376 -5.16 1.34 5000066.8896
28.29636 -5.22 1.34 5000040.1606
124.19999999999999 -5.78 1.34 5000200.0
28.29636 -5.9 1.34 5000040.1606
28.29636 -5.92 1.34 5000040.1606
21.41664 -5.98 1.34 5000028.6944
17.592840000000002 -6.2 1.34 5000022.3214
44.33376 4.92 1.32 5000066.8896
44.33376 4.34 1.32 5000066.8896
44.33376 4.28 1.32 5000066.8896
44.33376 4.06 1.32 5000066.8896
12.23748 3.92 1.32 5000013.3958
12.23748 3.9 1.32 5000013.3958
11.29218 3.84 1.32 5000011.8203
11.29218 3.12 1.32 5000011.8203
11.29218 3.1 1.32 5000011.8203
17.592840000000002 2.84 1.32 5000022.3214
44.33376 2.44 1.32 5000066.8896
44.33376 2.42 1.32 5000066.8896
17.592840000000002 1.54 1.32 5000022.3214
28.29636 1.5 1.32 5000040.1606
28.29636 1.48 1.32 5000040.1606
17.592840000000002 1.38 1.32 5000022.3214
17.592840000000002 1.36 1.32 5000022.3214
17.592840000000002 1.26 1.32 5000022.3214
17.592840000000002 1.22 1.32 5000022.3214
17.592840000000002 0.94 1.32 5000022.3214
17.592840000000002 0.92 1.32 5000022.3214
44.33376 0.86 1.32 5000066.8896
44.33376 0.06 1.32 5000066.8896
44.33376 0.02 1.32 5000066.8896
44.33376 -0.54 1.32 5000066.8896
44.33376 -0.56 1.32 5000066.8896
17.592840000000002 -0.7 1.32 5000022.3214
9.941628000000001 -1.06 1.32 5000009.56938
8.358006 -1.3 1.32 5000006.93001
44.33376 -1.42 1.32 5000066.8896
28.29636 -1.48 1.32 5000040.1606
21.41664 -1.56 1.32 5000028.6944
21.41664 -1.72 1.32 5000028.6944
21.41664 -1.76 1.32 5000028.6944
17.592840000000002 -1.88 1.32 5000022.3214
124.19999999999999 -2.68 1.32 5000200.0
44.33376 -2.82 1.32 5000066.8896
44.33376 -2.84 1.32 5000066.8896
17.592840000000002 -3.02 1.32 5000022.3214
15.15888 -3.1 1.32 5000018.2648
12.23748 -3.22 1.32 5000013.3958
15.15888 -4.08 1.32 5000018.2648
44.33376 -5.14 1.32 5000066.8896
124.19999999999999 -5.78 1.32 5000200.0
28.29636 -5.9 1.32 5000040.1606
28.29636 -5.92 1.32 5000040.1606
21.41664 -5.98 1.32 5000028.6944
17.592840000000002 -6.2 1.32 5000022.3214
44.33376 4.94 1.3 5000066.8896
44.33376 4.92 1.3 5000066.8896
124.19999999999999 4.82 1.3 5000200.0
44.33376 4.34 1.3 5000066.8896
44.33376 4.28 1.3 5000066.8896
44.33376 4.06 1.3 5000066.8896
12.23748 3.92 1.3 5000013.3958
12.23748 3.9 1.3 5000013.3958
11.29218 3.84 1.3 5000011.8203
11.29218 3.14 1.3 5000011.8203
11.29218 3.12 1.3 5000011.8203
11.29218 3.1 1.3 5000011.8203
17.592840000000002 2.6 1.3 5000022.3214
21.41664 2.52 1.3 5000028.6944
21.41664 2.46 1.3 5000028.6944
21.41664 1.52 1.3 5000028.6944
28.29636 1.48 1.3 5000040.1606
17.592840000000002 1.38 1.3 5000022.3214
17.592840000000002 1.36 1.3 5000022.3214
17.592840000000002 1.32 1.3 5000022.3214
17.592840000000002 1.26 1.3 5000022.3214
17.592840000000002 1.22 1.3 5000022.3214
124.19999999999999 1.16 1.3 5000200.0
17.592840000000002 0.94 1.3 5000022.3214
17.592840000000002 0.92 1.3 5000022.3214
44.33376 0.06 1.3 5000066.8896
44.33376 0.02 1.3 5000066.8896
124.19999999999999 -0.46 1.3 5000200.0
44.33376 -0.54 1.3 5000066.8896
44.33376 -0.56 1.3 5000066.8896
17.592840000000002 -0.7 1.3 5000022.3214
21.41664 -0.84 1.3 5000028.6944
9.941628000000001 -1.06 1.3 5000009.56938
8.089788 -1.36 1.3 5000006.48298
28.29636 -1.48 1.3 5000040.1606
21.41664 -1.56 1.3 5000028.6944
21.41664 -1.72 1.3 5000028.6944
17.592840000000002 -1.88 1.3 5000022.3214
124.19999999999999 -2.66 1.3 5000200.0
44.33376 -2.82 1.3 5000066.8896
17.592840000000002 -2.94 1.3 5000022.3214
17.592840000000002 -3.0 1.3 5000022.3214
15.15888 -3.08 1.3 5000018.2648
12.23748 -3.18 1.3 5000013.3958
12.23748 -3.2 1.3 5000013.3958
12.23748 -3.26 1.3 5000013.3958
17.592840000000002 -4.0 1.3 5000022.3214
17.592840000000002 -4.32 1.3 5000022.3214
28.29636 -5.34 1.3 5000040.1606
28.29636 -5.44 1.3 5000040.1606
124.19999999999999 -5.78 1.3 5000200.0
28.29636 -5.9 1.3 5000040.1606
28.29636 -5.92 1.3 5000040.1606
21.41664 -5.98 1.3 5000028.6944
17.592840000000002 -6.2 1.3 5000022.3214
44.33376 4.74 1.28 5000066.8896
44.33376 4.34 1.28 5000066.8896
44.33376 4.28 1.28 5000066.8896
44.33376 4.06 1.28 5000066.8896
12.23748 3.92 1.28 5000013.3958
11.29218 3.86 1.28 5000011.8203
11.29218 3.84 1.28 5000011.8203
12.23748 3.22 1.28 5000013.3958
12.23748 3.2 1.28 5000013.3958
11.29218 3.14 1.28 5000011.8203
11.29218 3.12 1.28 5000011.8203
17.592840000000002 2.62 1.28 5000022.3214
21.41664 2.52 1.28 5000028.6944
21.41664 2.5 1.28 5000028.6944
17.592840000000002 1.52 1.28 5000022.3214
28.29636 1.48 1.28 5000040.1606
28.29636 1.46 1.28 5000040.1606
17.592840000000002 1.36 1.28 5000022.3214
17.592840000000002 1.34 1.28 5000022.3214
17.592840000000002 1.32 1.28 5000022.3214
17.592840000000002 1.22 1.28 5000022.3214
124.19999999999999 1.14 1.28 5000200.0
17.592840000000002 0.94 1.28 5000022.3214
17.592840000000002 0.92 1.28 5000022.3214
8.089788 0.22 1.28 5000006.48298
44.33376 0.06 1.28 5000066.8896
44.33376 0.04 1.28 5000066.8896
28.29636 -0.54 1.28 5000040.1606
28.29636 -0.56 1.28 5000040.1606
17.592840000000002 -0.7 1.28 5000022.3214
10.54584 -0.98 1.28 5000010.5764
9.941628000000001 -1.06 1.28 5000009.56938
8.358006 -1.28 1.28 5000006.93001
124.19999999999999 -1.36 1.28 5000200.0
28.29636 -1.48 1.28 5000040.1606
28.29636 -1.5 1.28 5000040.1606
21.41664 -1.56 1.28 5000028.6944
21.41664 -1.72 1.28 5000028.6944
17.592840000000002 -1.88 1.28 5000022.3214
44.33376 -2.84 1.28 5000066.8896
15.15888 -3.04 1.28 5000018.2648
15.15888 -3.06 1.28 5000018.2648
12.23748 -3.18 1.28 5000013.3958
9.023147999999999 -3.52 1.28 5000008.03858
17.592840000000002 -4.3 1.28 5000022.3214
17.592840000000002 -4.32 1.28 5000022.3214
28.29636 -5.34 1.28 5000040.1606
28.29636 -5.42 1.28 5000040.1606
28.29636 -5.44 1.28 5000040.1606
44.33376 -5.84 1.28 5000066.8896
28.29636 -5.9 1.28 5000040.1606
28.29636 -5.92 1.28 5000040.1606
21.41664 -5.98 1.28 5000028.6944
17.592840000000002 -6.2 1.28 5000022.3214
44.33376 5.86 1.26 5000066.8896
44.33376 5.84 1.26 5000066.8896
44.33376 4.78 1.26 5000066.8896
44.33376 4.74 1.26 5000066.8896
44.33376 4.72 1.26 5000066.8896
44.33376 4.34 1.26 5000066.8896
44.33376 4.28 1.26 5000066.8896
44.33376 4.02 1.26 5000066.8896
12.23748 3.92 1.26 5000013.3958
12.23748 3.9 1.26 5000013.3958
11.29218 3.86 1.26 5000011.8203
11.29218 3.84 1.26 5000011.8203
12.23748 3.22 1.26 5000013.3958
12.23748 3.2 1.26 5000013.3958
11.29218 3.14 1.26 5000011.8203
11.29218 3.12 1.26 5000011.8203
17.592840000000002 2.58 1.26 5000022.3214
21.41664 2.54 1.26 5000028.6944
21.41664 2.52 1.26 5000028.6944
17.592840000000002 1.56 1.26 5000022.3214
17.592840000000002 1.52 1.26 5000022.3214
28.29636 1.5 1.26 5000040.1606
28.29636 1.46 1.26 5000040.1606
17.592840000000002 1.36 1.26 5000022.3214
17.592840000000002 1.34 1.26 5000022.3214
17.592840000000002 1.24 1.26 5000022.3214
17.592840000000002 1.22 1.26 5000022.3214
124.19999999999999 1.14 1.26 5000200.0
11.29218 1.08 1.26 5000011.8203
17.592840000000002 0.94 1.26 5000022.3214
17.592840000000002 0.92 1.26 5000022.3214
44.33376 0.04 1.26 5000066.8896
44.33376 0.0 1.26 5000066.8896
21.41664 -0.1 1.26 5000028.6944
28.29636 -0.52 1.26 5000040.1606
28.29636 -0.56 1.26 5000040.1606
17.592840000000002 -0.7 1.26 5000022.3214
10.54584 -0.98 1.26 5000010.5764
9.941628000000001 -1.04 1.26 5000009.56938
9.941628000000001 -1.06 1.26 5000009.56938
124.19999999999999 -1.36 1.26 5000200.0
28.29636 -1.48 1.26 5000040.1606
28.29636 -1.5 1.26 5000040.1606
21.41664 -1.56 1.26 5000028.6944
21.41664 -1.72 1.26 5000028.6944
21.41664 -1.74 1.26 5000028.6944
17.592840000000002 -1.88 1.26 5000022.3214
28.29636 -2.84 1.26 5000040.1606
17.592840000000002 -2.94 1.26 5000022.3214
17.592840000000002 -2.96 1.26 5000022.3214
15.15888 -3.04 1.26 5000018.2648
28.29636 -3.34 1.26 5000040.1606
17.592840000000002 -4.3 1.26 5000022.3214
44.33376 -5.24 1.26 5000066.8896
28.29636 -5.34 1.26 5000040.1606
28.29636 -5.44 1.26 5000040.1606
44.33376 -5.84 1.26 5000066.8896
28.29636 -5.9 1.26 5000040.1606
28.29636 -5.92 1.26 5000040.1606
21.41664 -5.98 1.26 5000028.6944
17.592840000000002 -6.2 1.26 5000022.3214
44.33376 5.86 1.24 5000066.8896
44.33376 5.84 1.24 5000066.8896
44.33376 4.74 1.24 5000066.8896
44.33376 4.72 1.24 5000066.8896
44.33376 4.4 1.24 5000066.8896
44.33376 4.28 1.24 5000066.8896
44.33376 4.02 1.24 5000066.8896
12.23748 3.9 1.24 5000013.3958
11.29218 3.86 1.24 5000011.8203
11.29218 3.84 1.24 5000011.8203
11.29218 3.14 1.24 5000011.8203
11.29218 3.12 1.24 5000011.8203
124.19999999999999 2.76 1.24 5000200.0
28.29636 1.5 1.24 5000040.1606
28.29636 1.46 1.24 5000040.1606
28.29636 1.44 1.24 5000040.1606
17.592840000000002 1.34 1.24 5000022.3214
17.592840000000002 1.32 1.24 5000022.3214
17.592840000000002 1.3 1.24 5000022.3214
17.592840000000002 1.26 1.24 5000022.3214
17.592840000000002 1.24 1.24 5000022.3214
124.19999999999999 1.14 1.24 5000200.0
11.29218 1.06 1.24 5000011.8203
17.592840000000002 0.96 1.24 5000022.3214
17.592840000000002 0.94 1.24 5000022.3214
17.592840000000002 0.9 1.24 5000022.3214
44.33376 0.1 1.24 5000066.8896
44.33376 0.02 1.24 5000066.8896
28.29636 -0.02 1.24 5000040.1606
15.15888 -0.2 1.24 5000018.2648
44.33376 -0.52 1.24 5000066.8896
44.33376 -0.54 1.24 5000066.8896
28.29636 -0.56 1.24 5000040.1606
17.592840000000002 -0.7 1.24 5000022.3214
10.54584 -0.98 1.24 5000010.5764
9.941628000000001 -1.04 1.24 5000009.56938
9.941628000000001 -1.06 1.24 5000009.56938
124.19999999999999 -1.36 1.24 5000200.0
28.29636 -1.48 1.24 5000040.1606
28.29636 -1.5 1.24 5000040.1606
21.41664 -1.56 1.24 5000028.6944
21.41664 -1.74 1.24 5000028.6944
17.592840000000002 -1.88 1.24 5000022.3214
28.29636 -2.38 1.24 5000040.1606
124.19999999999999 -2.66 1.24 5000200.0
124.19999999999999 -2.68 1.24 5000200.0
44.33376 -3.26 1.24 5000066.8896
28.29636 -3.34 1.24 5000040.1606
28.29636 -5.44 1.24 5000040.1606
124.19999999999999 -5.78 1.24 5000200.0
44.33376 -5.84 1.24 5000066.8896
28.29636 -5.92 1.24 5000040.1606
17.592840000000002 -6.2 1.24 5000022.3214
44.33376 5.94 1.22 5000066.8896
44.33376 5.86 1.22 5000066.8896
28.29636 4.56 1.22 5000040.1606
44.33376 4.4 1.22 5000066.8896
44.33376 4.28 1.22 5000066.8896
44.33376 4.02 1.22 5000066.8896
12.23748 3.9 1.22 5000013.3958
11.29218 3.86 1.22 5000011.8203
11.29218 3.84 1.22 5000011.8203
11.29218 3.14 1.22 5000011.8203
11.29218 3.12 1.22 5000011.8203
17.592840000000002 1.5 1.22 5000022.3214
28.29636 1.46 1.22 5000040.1606
28.29636 1.44 1.22 5000040.1606
17.592840000000002 1.32 1.22 5000022.3214
17.592840000000002 1.3 1.22 5000022.3214
17.592840000000002 1.28 1.22 5000022.3214
21.41664 1.24 1.22 5000028.6944
124.19999999999999 1.14 1.22 5000200.0
17.592840000000002 0.98 1.22 5000022.3214
17.592840000000002 0.96 1.22 5000022.3214
44.33376 0.88 1.22 5000066.8896
124.19999999999999 0.12 1.22 5000200.0
44.33376 0.08 1.22 5000066.8896
28.29636 0.02 1.22 5000040.1606
28.29636 -0.02 1.22 5000040.1606
28.29636 -0.52 1.22 5000040.1606
28.29636 -0.54 1.22 5000040.1606
17.592840000000002 -0.72 1.22 5000022.3214
17.592840000000002 -0.74 1.22 5000022.3214
10.54584 -0.98 1.22 5000010.5764
9.941628000000001 -1.04 1.22 5000009.56938
9.941628000000001 -1.06 1.22 5000009.56938
9.442464 -1.14 1.22 5000008.73744
15.15888 -1.3 1.22 5000018.2648
124.19999999999999 -1.36 1.22 5000200.0
28.29636 -1.48 1.22 5000040.1606
21.41664 -1.56 1.22 5000028.6944
28.29636 -1.68 1.22 5000040.1606
28.29636 -1.74 1.22 5000040.1606
17.592840000000002 -1.88 1.22 5000022.3214
28.29636 -2.86 1.22 5000040.1606
17.592840000000002 -2.94 1.22 5000022.3214
44.33376 -3.26 1.22 5000066.8896
28.29636 -3.34 1.22 5000040.1606
10.54584 -3.5 1.22 5000010.5764
28.29636 -4.22 1.22 5000040.1606
44.33376 -5.18 1.22 5000066.8896
124.19999999999999 -5.78 1.22 5000200.0
44.33376 -5.84 1.22 5000066.8896
28.29636 -5.92 1.22 5000040.1606
17.592840000000002 -6.2 1.22 5000022.3214
44.33376 5.94 1.2 5000066.8896
44.33376 5.86 1.2 5000066.8896
44.33376 4.28 1.2 5000066.8896
12.23748 3.9 1.2 5000013.3958
11.29218 3.86 1.2 5000011.8203
11.29218 3.84 1.2 5000011.8203
11.29218 3.14 1.2 5000011.8203
11.29218 3.12 1.2 5000011.8203
28.29636 1.44 1.2 5000040.1606
28.29636 1.42 1.2 5000040.1606
21.41664 1.3 1.2 5000028.6944
124.19999999999999 1.22 1.2 5000200.0
124.19999999999999 1.16 1.2 5000200.0
17.592840000000002 0.98 1.2 5000022.3214
17.592840000000002 0.96 1.2 5000022.3214
44.33376 0.88 1.2 5000066.8896
44.33376 0.14 1.2 5000066.8896
124.19999999999999 0.08 1.2 5000200.0
28.29636 -0.02 1.2 5000040.1606
44.33376 -0.5 1.2 5000066.8896
44.33376 -0.52 1.2 5000066.8896
28.29636 -0.54 1.2 5000040.1606
10.54584 -1.0 1.2 5000010.5764
9.941628000000001 -1.06 1.2 5000009.56938
21.41664 -1.14 1.2 5000028.6944
17.592840000000002 -1.24 1.2 5000022.3214
15.15888 -1.3 1.2 5000018.2648
124.19999999999999 -1.36 1.2 5000200.0
28.29636 -1.48 1.2 5000040.1606
28.29636 -1.5 1.2 5000040.1606
28.29636 -1.72 1.2 5000040.1606
28.29636 -1.74 1.2 5000040.1606
17.592840000000002 -1.88 1.2 5000022.3214
15.15888 -2.94 1.2 5000018.2648
11.29218 -3.42 1.2 5000011.8203
17.592840000000002 -3.8 1.2 5000022.3214
15.15888 -4.28 1.2 5000018.2648
124.19999999999999 -5.06 1.2 5000200.0
44.33376 -5.14 1.2 5000066.8896
28.29636 -5.92 1.2 5000040.1606
17.592840000000002 -6.2 1.2 5000022.3214
44.33376 5.94 1.18 5000066.8896
44.33376 5.92 1.18 5000066.8896
44.33376 5.86 1.18 5000066.8896
44.33376 5.22 1.18 5000066.8896
44.33376 4.28 1.18 5000066.8896
11.29218 3.84 1.18 5000011.8203
12.23748 3.22 1.18 5000013.3958
11.29218 3.16 1.18 5000011.8203
11.29218 3.14 1.18 5000011.8203
11.29218 3.12 1.18 5000011.8203
17.592840000000002 1.42 1.18 5000022.3214
124.19999999999999 1.24 1.18 5000200.0
124.19999999999999 1.22 1.18 5000200.0
124.19999999999999 1.2 1.18 5000200.0
124.19999999999999 1.16 1.18 5000200.0
17.592840000000002 1.0 1.18 5000022.3214
17.592840000000002 0.98 1.18 5000022.3214
44.33376 0.88 1.18 5000066.8896
124.19999999999999 0.1 1.18 5000200.0
44.33376 0.04 1.18 5000066.8896
44.33376 0.02 1.18 5000066.8896
44.33376 0.0 1.18 5000066.8896
28.29636 -0.02 1.18 5000040.1606
44.33376 -0.5 1.18 5000066.8896
44.33376 -0.52 1.18 5000066.8896
28.29636 -0.54 1.18 5000040.1606
10.54584 -1.0 1.18 5000010.5764
9.941628000000001 -1.06 1.18 5000009.56938
21.41664 -1.18 1.18 5000028.6944
17.592840000000002 -1.24 1.18 5000022.3214
15.15888 -1.28 1.18 5000018.2648
15.15888 -1.3 1.18 5000018.2648
124.19999999999999 -1.36 1.18 5000200.0
124.19999999999999 -1.38 1.18 5000200.0
28.29636 -1.46 1.18 5000040.1606
28.29636 -1.48 1.18 5000040.1606
28.29636 -1.5 1.18 5000040.1606
21.41664 -1.56 1.18 5000028.6944
44.33376 -1.66 1.18 5000066.8896
44.33376 -1.68 1.18 5000066.8896
28.29636 -1.72 1.18 5000040.1606
17.592840000000002 -3.12 1.18 5000022.3214
15.15888 -3.2 1.18 5000018.2648
28.29636 -3.32 1.18 5000040.1606
11.29218 -3.4 1.18 5000011.8203
10.54584 -3.48 1.18 5000010.5764
124.19999999999999 -5.04 1.18 5000200.0
44.33376 -5.14 1.18 5000066.8896
44.33376 -5.22 1.18 5000066.8896
44.33376 -5.28 1.18 5000066.8896
44.33376 -5.86 1.18 5000066.8896
28.29636 -5.92 1.18 5000040.1606
17.592840000000002 -6.2 1.18 5000022.3214
44.33376 5.94 1.16 5000066.8896
44.33376 5.86 1.16 5000066.8896
44.33376 5.22 1.16 5000066.8896
44.33376 5.14 1.16 5000066.8896
13.4736 4.04 1.16 5000015.456
10.54584 3.84 1.16 5000010.5764
12.23748 3.22 1.16 5000013.3958
11.29218 3.2 1.16 5000011.8203
11.29218 3.16 1.16 5000011.8203
11.29218 3.14 1.16 5000011.8203
17.592840000000002 1.42 1.16 5000022.3214
17.592840000000002 1.4 1.16 5000022.3214
124.19999999999999 1.22 1.16 5000200.0
124.19999999999999 1.2 1.16 5000200.0
17.592840000000002 1.0 1.16 5000022.3214
17.592840000000002 0.98 1.16 5000022.3214
44.33376 0.74 1.16 5000066.8896
44.33376 0.1 1.16 5000066.8896
44.33376 0.08 1.16 5000066.8896
44.33376 0.04 1.16 5000066.8896
44.33376 0.0 1.16 5000066.8896
44.33376 -0.48 1.16 5000066.8896
44.33376 -0.5 1.16 5000066.8896
28.29636 -0.56 1.16 5000040.1606
44.33376 -0.74 1.16 5000066.8896
124.19999999999999 -0.98 1.16 5000200.0
28.29636 -1.06 1.16 5000040.1606
21.41664 -1.18 1.16 5000028.6944
17.592840000000002 -1.24 1.16 5000022.3214
15.15888 -1.28 1.16 5000018.2648
124.19999999999999 -1.36 1.16 5000200.0
44.33376 -1.44 1.16 5000066.8896
28.29636 -1.48 1.16 5000040.1606
124.19999999999999 -1.6 1.16 5000200.0
44.33376 -1.66 1.16 5000066.8896
15.15888 -3.18 1.16 5000018.2648
15.15888 -3.2 1.16 5000018.2648
11.29218 -3.4 1.16 5000011.8203
11.29218 -3.46 1.16 5000011.8203
124.19999999999999 -5.06 1.16 5000200.0
44.33376 -5.28 1.16 5000066.8896
44.33376 -5.36 1.16 5000066.8896
28.29636 -5.92 1.16 5000040.1606
17.592840000000002 -6.2 1.16 5000022.3214
44.33376 5.94 1.14 5000066.8896
44.33376 5.86 1.14 5000066.8896
44.33376 5.22 1.14 5000066.8896
44.33376 5.14 1.14 5000066.8896
13.4736 4.22 1.14 5000015.456
13.4736 4.2 1.14 5000015.456
13.4736 4.12 1.14 5000015.456
13.4736 4.0 1.14 5000015.456
11.29218 3.86 1.14 5000011.8203
11.29218 3.84 1.14 5000011.8203
11.29218 3.16 1.14 5000011.8203
11.29218 3.14 1.14 5000011.8203
44.33376 3.04 1.14 5000066.8896
17.592840000000002 1.4 1.14 5000022.3214
17.592840000000002 1.38 1.14 5000022.3214
17.592840000000002 1.02 1.14 5000022.3214
17.592840000000002 1.0 1.14 5000022.3214
124.19999999999999 0.88 1.14 5000200.0
44.33376 0.1 1.14 5000066.8896
44.33376 0.08 1.14 5000066.8896
44.33376 -0.46 1.14 5000066.8896
21.41664 -0.56 1.14 5000028.6944
124.19999999999999 -0.98 1.14 5000200.0
28.29636 -1.06 1.14 5000040.1606
21.41664 -1.14 1.14 5000028.6944
124.19999999999999 -1.36 1.14 5000200.0
44.33376 -1.44 1.14 5000066.8896
124.19999999999999 -2.82 1.14 5000200.0
17.592840000000002 -2.88 1.14 5000022.3214
28.29636 -2.94 1.14 5000040.1606
15.15888 -3.18 1.14 5000018.2648
28.29636 -3.34 1.14 5000040.1606
44.33376 -5.38 1.14 5000066.8896
28.29636 -5.92 1.14 5000040.1606
17.592840000000002 -6.2 1.14 5000022.3214
44.33376 5.94 1.12 5000066.8896
44.33376 5.86 1.12 5000066.8896
44.33376 5.22 1.12 5000066.8896
44.33376 5.14 1.12 5000066.8896
44.33376 5.04 1.12 5000066.8896
13.4736 4.22 1.12 5000015.456
13.4736 4.2 1.12 5000015.456
13.4736 4.18 1.12 5000015.456
13.4736 4.12 1.12 5000015.456
15.15888 4.06 1.12 5000018.2648
13.4736 4.0 1.12 5000015.456
11.29218 3.86 1.12 5000011.8203
13.4736 3.26 1.12 5000015.456
11.29218 3.16 1.12 5000011.8203
11.29218 3.14 1.12 5000011.8203
17.592840000000002 1.38 1.12 5000022.3214
17.592840000000002 1.36 1.12 5000022.3214
17.592840000000002 1.02 1.12 5000022.3214
17.592840000000002 1.0 1.12 5000022.3214
124.19999999999999 0.92 1.12 5000200.0
44.33376 0.8 1.12 5000066.8896
28.29636 0.78 1.12 5000040.1606
44.33376 0.12 1.12 5000066.8896
44.33376 0.1 1.12 5000066.8896
44.33376 0.08 1.12 5000066.8896
44.33376 -0.46 1.12 5000066.8896
21.41664 -0.54 1.12 5000028.6944
21.41664 -0.56 1.12 5000028.6944
28.29636 -1.06 1.12 5000040.1606
21.41664 -1.14 1.12 5000028.6944
15.15888 -1.28 1.12 5000018.2648
124.19999999999999 -1.36 1.12 5000200.0
28.29636 -2.72 1.12 5000040.1606
124.19999999999999 -2.8 1.12 5000200.0
124.19999999999999 -2.82 1.12 5000200.0
28.29636 -2.94 1.12 5000040.1606
12.23748 -3.08 1.12 5000013.3958
44.33376 -3.26 1.12 5000066.8896
28.29636 -3.34 1.12 5000040.1606
17.592840000000002 -3.5 1.12 5000022.3214
17.592840000000002 -3.86 1.12 5000022.3214
28.29636 -5.92 1.12 5000040.1606
17.592840000000002 -6.2 1.12 5000022.3214
44.33376 5.94 1.1 5000066.8896
44.33376 5.92 1.1 5000066.8896
44.33376 5.86 1.1 5000066.8896
44.33376 5.22 1.1 5000066.8896
44.33376 5.14 1.1 5000066.8896
44.33376 5.04 1.1 5000066.8896
44.33376 5.02 1.1 5000066.8896
44.33376 4.88 1.1 5000066.8896
44.33376 4.86 1.1 5000066.8896
13.4736 4.36 1.1 5000015.456
13.4736 4.22 1.1 5000015.456
13.4736 4.18 1.1 5000015.456
13.4736 4.12 1.1 5000015.456
13.4736 4.1 1.1 5000015.456
15.15888 4.06 1.1 5000018.2648
13.4736 4.0 1.1 5000015.456
11.29218 3.86 1.1 5000011.8203
13.4736 3.26 1.1 5000015.456
13.4736 3.24 1.1 5000015.456
11.29218 3.16 1.1 5000011.8203
11.29218 3.14 1.1 5000011.8203
17.592840000000002 1.38 1.1 5000022.3214
17.592840000000002 1.36 1.1 5000022.3214
17.592840000000002 1.34 1.1 5000022.3214
17.592840000000002 1.02 1.1 5000022.3214
17.592840000000002 1.0 1.1 5000022.3214
124.19999999999999 0.92 1.1 5000200.0
44.33376 0.1 1.1 5000066.8896
124.19999999999999 -0.44 1.1 5000200.0
124.19999999999999 -0.46 1.1 5000200.0
21.41664 -0.54 1.1 5000028.6944
21.41664 -0.56 1.1 5000028.6944
28.29636 -1.06 1.1 5000040.1606
21.41664 -1.14 1.1 5000028.6944
28.29636 -2.72 1.1 5000040.1606
28.29636 -2.94 1.1 5000040.1606
12.23748 -3.08 1.1 5000013.3958
44.33376 -3.26 1.1 5000066.8896
28.29636 -3.34 1.1 5000040.1606
28.29636 -5.92 1.1 5000040.1606
17.592840000000002 -6.2 1.1 5000022.3214
44.33376 5.94 1.08 5000066.8896
44.33376 5.86 1.08 5000066.8896
44.33376 5.22 1.08 5000066.8896
44.33376 5.14 1.08 5000066.8896
44.33376 5.04 1.08 5000066.8896
44.33376 5.02 1.08 5000066.8896
44.33376 4.88 1.08 5000066.8896
44.33376 4.86 1.08 5000066.8896
13.4736 4.36 1.08 5000015.456
13.4736 4.34 1.08 5000015.456
13.4736 4.12 1.08 5000015.456
13.4736 4.1 1.08 5000015.456
15.15888 4.06 1.08 5000018.2648
13.4736 4.0 1.08 5000015.456
11.29218 3.88 1.08 5000011.8203
44.33376 3.4 1.08 5000066.8896
11.29218 3.16 1.08 5000011.8203
11.29218 3.14 1.08 5000011.8203
17.592840000000002 1.38 1.08 5000022.3214
17.592840000000002 1.36 1.08 5000022.3214
124.19999999999999 1.28 1.08 5000200.0
124.19999999999999 1.26 1.08 5000200.0
17.592840000000002 1.04 1.08 5000022.3214
17.592840000000002 1.02 1.08 5000022.3214
124.19999999999999 0.92 1.08 5000200.0
44.33376 0.14 1.08 5000066.8896
124.19999999999999 -0.46 1.08 5000200.0
28.29636 -0.58 1.08 5000040.1606
28.29636 -1.06 1.08 5000040.1606
21.41664 -1.14 1.08 5000028.6944
15.15888 -1.28 1.08 5000018.2648
28.29636 -3.34 1.08 5000040.1606
28.29636 -5.44 1.08 5000040.1606
28.29636 -5.46 1.08 5000040.1606
28.29636 -5.56 1.08 5000040.1606
28.29636 -5.74 1.08 5000040.1606
28.29636 -5.76 1.08 5000040.1606
28.29636 -5.92 1.08 5000040.1606
17.592840000000002 -6.2 1.08 5000022.3214
44.33376 5.94 1.06 5000066.8896
44.33376 5.86 1.06 5000066.8896
44.33376 5.22 1.06 5000066.8896
44.33376 5.14 1.06 5000066.8896
44.33376 5.04 1.06 5000066.8896
44.33376 4.88 1.06 5000066.8896
44.33376 4.86 1.06 5000066.8896
13.4736 4.36 1.06 5000015.456
13.4736 4.34 1.06 5000015.456
13.4736 4.12 1.06 5000015.456
13.4736 4.0 1.06 5000015.456
11.29218 3.88 1.06 5000011.8203
124.19999999999999 3.46 1.06 5000200.0
11.29218 3.16 1.06 5000011.8203
11.29218 3.14 1.06 5000011.8203
17.592840000000002 1.38 1.06 5000022.3214
17.592840000000002 1.36 1.06 5000022.3214
124.19999999999999 1.28 1.06 5000200.0
124.19999999999999 1.26 1.06 5000200.0
17.592840000000002 1.04 1.06 5000022.3214
17.592840000000002 1.02 1.06 5000022.3214
124.19999999999999 0.92 1.06 5000200.0
44.33376 0.14 1.06 5000066.8896
124.19999999999999 -0.36 1.06 5000200.0
124.19999999999999 -0.46 1.06 5000200.0
124.19999999999999 -0.48 1.06 5000200.0
28.29636 -0.54 1.06 5000040.1606
28.29636 -0.58 1.06 5000040.1606
28.29636 -1.06 1.06 5000040.1606
21.41664 -1.14 1.06 5000028.6944
15.15888 -1.28 1.06 5000018.2648
12.23748 -3.44 1.06 5000013.3958
21.41664 -4.94 1.06 5000028.6944
28.29636 -5.14 1.06 5000040.1606
28.29636 -5.16 1.06 5000040.1606
28.29636 -5.44 1.06 5000040.1606
28.29636 -5.46 1.06 5000040.1606
28.29636 -5.6 1.06 5000040.1606
28.29636 -5.74 1.06 5000040.1606
28.29636 -5.76 1.06 5000040.1606
17.592840000000002 -6.2 1.06 5000022.3214
44.33376 5.94 1.04 5000066.8896
44.33376 5.92 1.04 5000066.8896
44.33376 5.86 1.04 5000066.8896
44.33376 5.22 1.04 5000066.8896
44.33376 5.14 1.04 5000066.8896
44.33376 5.04 1.04 5000066.8896
44.33376 4.88 1.04 5000066.8896
44.33376 4.86 1.04 5000066.8896
13.4736 4.34 1.04 5000015.456
15.15888 4.2 1.04 5000018.2648
13.4736 4.12 1.04 5000015.456
13.4736 4.0 1.04 5000015.456
10.54584 3.88 1.04 5000010.5764
124.19999999999999 3.46 1.04 5000200.0
44.33376 3.4 1.04 5000066.8896
11.29218 3.16 1.04 5000011.8203
11.29218 3.14 1.04 5000011.8203
17.592840000000002 1.38 1.04 5000022.3214
17.592840000000002 1.36 1.04 5000022.3214
124.19999999999999 1.28 1.04 5000200.0
124.19999999999999 1.26 1.04 5000200.0
17.592840000000002 1.04 1.04 5000022.3214
17.592840000000002 1.02 1.04 5000022.3214
124.19999999999999 0.92 1.04 5000200.0
44.33376 0.14 1.04 5000066.8896
44.33376 -0.54 1.04 5000066.8896
28.29636 -0.56 1.04 5000040.1606
28.29636 -0.58 1.04 5000040.1606
28.29636 -0.6 1.04 5000040.1606
17.592840000000002 -0.74 1.04 5000022.3214
28.29636 -1.02 1.04 5000040.1606
28.29636 -1.04 1.04 5000040.1606
28.29636 -1.06 1.04 5000040.1606
17.592840000000002 -3.0 1.04 5000022.3214
15.15888 -3.06 1.04 5000018.2648
15.15888 -3.08 1.04 5000018.2648
13.4736 -3.42 1.04 5000015.456
28.29636 -4.7 1.04 5000040.1606
28.29636 -4.84 1.04 5000040.1606
28.29636 -4.86 1.04 5000040.1606
28.29636 -5.04 1.04 5000040.1606
28.29636 -5.14 1.04 5000040.1606
28.29636 -5.16 1.04 5000040.1606
28.29636 -5.3 1.04 5000040.1606
44.33376 -5.38 1.04 5000066.8896
28.29636 -5.44 1.04 5000040.1606
28.29636 -5.46 1.04 5000040.1606
28.29636 -5.6 1.04 5000040.1606
28.29636 -5.92 1.04 5000040.1606
17.592840000000002 -6.2 1.04 5000022.3214
124.19999999999999 5.92 1.02 5000200.0
44.33376 5.86 1.02 5000066.8896
44.33376 5.22 1.02 5000066.8896
44.33376 5.14 1.02 5000066.8896
44.33376 5.04 1.02 5000066.8896
44.33376 4.88 1.02 5000066.8896
44.33376 4.86 1.02 5000066.8896
13.4736 4.32 1.02 5000015.456
13.4736 4.3 1.02 5000015.456
17.592840000000002 4.24 1.02 5000022.3214
15.15888 4.2 1.02 5000018.2648
15.15888 4.18 1.02 5000018.2648
13.4736 4.12 1.02 5000015.456
15.15888 4.06 1.02 5000018.2648
13.4736 4.0 1.02 5000015.456
10.54584 3.88 1.02 5000010.5764
124.19999999999999 3.46 1.02 5000200.0
44.33376 3.4 1.02 5000066.8896
12.23748 3.24 1.02 5000013.3958
11.29218 3.16 1.02 5000011.8203
11.29218 3.14 1.02 5000011.8203
44.33376 3.04 1.02 5000066.8896
21.41664 2.94 1.02 5000028.6944
17.592840000000002 1.38 1.02 5000022.3214
17.592840000000002 1.36 1.02 5000022.3214
124.19999999999999 1.28 1.02 5000200.0
124.19999999999999 1.26 1.02 5000200.0
17.592840000000002 1.04 1.02 5000022.3214
17.592840000000002 1.02 1.02 5000022.3214
124.19999999999999 0.92 1.02 5000200.0
44.33376 0.14 1.02 5000066.8896
15.15888 -0.08 1.02 5000018.2648
44.33376 -0.56 1.02 5000066.8896
28.29636 -0.6 1.02 5000040.1606
17.592840000000002 -0.72 1.02 5000022.3214
17.592840000000002 -0.74 1.02 5000022.3214
28.29636 -1.3 1.02 5000040.1606
44.33376 -2.7 1.02 5000066.8896
12.23748 -3.2 1.02 5000013.3958
15.15888 -3.3 1.02 5000018.2648
13.4736 -3.38 1.02 5000015.456
11.29218 -3.58 1.02 5000011.8203
17.592840000000002 -4.18 1.02 5000022.3214
28.29636 -4.68 1.02 5000040.1606
28.29636 -4.7 1.02 5000040.1606
28.29636 -4.8 1.02 5000040.1606
28.29636 -4.84 1.02 5000040.1606
28.29636 -4.86 1.02 5000040.1606
28.29636 -5.0 1.02 5000040.1606
28.29636 -5.14 1.02 5000040.1606
28.29636 -5.92 1.02 5000040.1606
17.592840000000002 -6.2 1.02 5000022.3214
44.33376 5.86 1.0 5000066.8896
44.33376 5.22 1.0 5000066.8896
44.33376 5.14 1.0 5000066.8896
44.33376 5.04 1.0 5000066.8896
44.33376 4.88 1.0 5000066.8896
44.33376 4.86 1.0 5000066.8896
15.15888 4.22 1.0 5000018.2648
13.4736 4.12 1.0 5000015.456
13.4736 4.0 1.0 5000015.456
11.29218 3.88 1.0 5000011.8203
11.29218 3.86 1.0 5000011.8203
124.19999999999999 3.46 1.0 5000200.0
44.33376 3.4 1.0 5000066.8896
12.23748 3.24 1.0 5000013.3958
11.29218 3.16 1.0 5000011.8203
11.29218 3.14 1.0 5000011.8203
44.33376 3.02 1.0 5000066.8896
28.29636 2.9 1.0 5000040.1606
28.29636 2.88 1.0 5000040.1606
17.592840000000002 1.38 1.0 5000022.3214
17.592840000000002 1.36 1.0 5000022.3214
124.19999999999999 1.28 1.0 5000200.0
124.19999999999999 1.26 1.0 5000200.0
17.592840000000002 1.06 1.0 5000022.3214
17.592840000000002 1.04 1.0 5000022.3214
124.19999999999999 0.96 1.0 5000200.0
44.33376 0.8 1.0 5000066.8896
44.33376 0.78 1.0 5000066.8896
44.33376 0.14 1.0 5000066.8896
44.33376 0.12 1.0 5000066.8896
124.19999999999999 -0.5 1.0 5000200.0
44.33376 -0.56 1.0 5000066.8896
44.33376 -0.58 1.0 5000066.8896
17.592840000000002 -0.72 1.0 5000022.3214
17.592840000000002 -0.74 1.0 5000022.3214
44.33376 -0.96 1.0 5000066.8896
44.33376 -1.26 1.0 5000066.8896
28.29636 -2.66 1.0 5000040.1606
15.15888 -3.3 1.0 5000018.2648
13.4736 -3.38 1.0 5000015.456
11.29218 -3.54 1.0 5000011.8203
28.29636 -4.68 1.0 5000040.1606
28.29636 -4.7 1.0 5000040.1606
28.29636 -5.92 1.0 5000040.1606
17.592840000000002 -6.2 1.0 5000022.3214
44.33376 5.86 0.98 5000066.8896
44.33376 5.22 0.98 5000066.8896
44.33376 5.14 0.98 5000066.8896
44.33376 5.04 0.98 5000066.8896
44.33376 4.88 0.98 5000066.8896
44.33376 4.86 0.98 5000066.8896
44.33376 4.48 0.98 5000066.8896
13.4736 4.12 0.98 5000015.456
13.4736 4.0 0.98 5000015.456
10.54584 3.9 0.98 5000010.5764
10.54584 3.88 0.98 5000010.5764
44.33376 3.54 0.98 5000066.8896
124.19999999999999 3.46 0.98 5000200.0
12.23748 3.24 0.98 5000013.3958
11.29218 3.16 0.98 5000011.8203
44.33376 2.98 0.98 5000066.8896
17.592840000000002 1.38 0.98 5000022.3214
17.592840000000002 1.36 0.98 5000022.3214
124.19999999999999 1.28 0.98 5000200.0
17.592840000000002 1.08 0.98 5000022.3214
17.592840000000002 1.06 0.98 5000022.3214
44.33376 0.82 0.98 5000066.8896
44.33376 0.14 0.98 5000066.8896
44.33376 0.12 0.98 5000066.8896
15.15888 -3.3 0.98 5000018.2648
13.4736 -3.38 0.98 5000015.456
11.29218 -3.52 0.98 5000011.8203
28.29636 -4.8 0.98 5000040.1606
28.29636 -5.12 0.98 5000040.1606
28.29636 -5.14 0.98 5000040.1606
28.29636 -5.36 0.98 5000040.1606
28.29636 -5.92 0.98 5000040.1606
28.29636 -5.94 0.98 5000040.1606
17.592840000000002 -6.2 0.98 5000022.3214
124.19999999999999 5.94 0.96 5000200.0
124.19999999999999 5.92 0.96 5000200.0
44.33376 5.88 0.96 5000066.8896
44.33376 5.86 0.96 5000066.8896
44.33376 5.22 0.96 5000066.8896
44.33376 5.14 0.96 5000066.8896
44.33376 5.04 0.96 5000066.8896
44.33376 4.88 0.96 5000066.8896
44.33376 4.86 0.96 5000066.8896
44.33376 4.48 0.96 5000066.8896
44.33376 4.36 0.96 5000066.8896
44.33376 4.34 0.96 5000066.8896
13.4736 4.12 0.96 5000015.456
13.4736 4.0 0.96 5000015.456
10.54584 3.88 0.96 5000010.5764
12.23748 3.24 0.96 5000013.3958
11.29218 3.16 0.96 5000011.8203
44.33376 2.96 0.96 5000066.8896
44.33376 2.94 0.96 5000066.8896
44.33376 2.88 0.96 5000066.8896
28.29636 2.86 0.96 5000040.1606
17.592840000000002 1.38 0.96 5000022.3214
17.592840000000002 1.36 0.96 5000022.3214
124.19999999999999 1.28 0.96 5000200.0
124.19999999999999 1.26 0.96 5000200.0
17.592840000000002 1.1 0.96 5000022.3214
17.592840000000002 1.08 0.96 5000022.3214
17.592840000000002 1.06 0.96 5000022.3214
13.4736 0.92 0.96 5000015.456
44.33376 0.84 0.96 5000066.8896
44.33376 0.82 0.96 5000066.8896
44.33376 0.1 0.96 5000066.8896
44.33376 0.08 0.96 5000066.8896
124.19999999999999 -0.52 0.96 5000200.0
17.592840000000002 -0.7 0.96 5000022.3214
44.33376 -0.96 0.96 5000066.8896
28.29636 -2.7 0.96 5000040.1606
15.15888 -3.08 0.96 5000018.2648
15.15888 -3.3 0.96 5000018.2648
13.4736 -3.38 0.96 5000015.456
11.29218 -3.5 0.96 5000011.8203
11.29218 -3.52 0.96 5000011.8203
10.54584 -3.6 0.96 5000010.5764
44.33376 -4.72 0.96 5000066.8896
44.33376 -4.74 0.96 5000066.8896
21.41664 -4.8 0.96 5000028.6944
44.33376 -4.92 0.96 5000066.8896
44.33376 -5.06 0.96 5000066.8896
28.29636 -5.1 0.96 5000040.1606
28.29636 -5.12 0.96 5000040.1606
28.29636 -5.36 0.96 5000040.1606
28.29636 -5.76 0.96 5000040.1606
28.29636 -5.78 0.96 5000040.1606
17.592840000000002 -6.14 0.96 5000022.3214
17.592840000000002 -6.2 0.96 5000022.3214
44.33376 5.4 0.94 5000066.8896
44.33376 5.22 0.94 5000066.8896
44.33376 5.14 0.94 5000066.8896
44.33376 5.04 0.94 5000066.8896
44.33376 4.88 0.94 5000066.8896
44.33376 4.86 0.94 5000066.8896
44.33376 4.48 0.94 5000066.8896
44.33376 4.36 0.94 5000066.8896
44.33376 4.34 0.94 5000066.8896
44.33376 4.3 0.94 5000066.8896
13.4736 4.12 0.94 5000015.456
13.4736 4.0 0.94 5000015.456
10.54584 3.9 0.94 5000010.5764
12.23748 3.24 0.94 5000013.3958
11.29218 3.16 0.94 5000011.8203
44.33376 2.92 0.94 5000066.8896
44.33376 2.9 0.94 5000066.8896
17.592840000000002 1.38 0.94 5000022.3214
17.592840000000002 1.36 0.94 5000022.3214
124.19999999999999 1.26 0.94 5000200.0
17.592840000000002 1.1 0.94 5000022.3214
17.592840000000002 1.08 0.94 5000022.3214
44.33376 0.84 0.94 5000066.8896
44.33376 0.82 0.94 5000066.8896
44.33376 0.1 0.94 5000066.8896
44.33376 0.08 0.94 5000066.8896
28.29636 0.06 0.94 5000040.1606
44.33376 -0.58 0.94 5000066.8896
44.33376 -0.6 0.94 5000066.8896
44.33376 -0.62 0.94 5000066.8896
21.41664 -0.7 0.94 5000028.6944
21.41664 -0.72 0.94 5000028.6944
28.29636 -2.7 0.94 5000040.1606
124.19999999999999 -3.22 0.94 5000200.0
15.15888 -3.3 0.94 5000018.2648
13.4736 -3.38 0.94 5000015.456
10.54584 -3.58 0.94 5000010.5764
17.592840000000002 -4.02 0.94 5000022.3214
44.33376 -4.72 0.94 5000066.8896
44.33376 -4.74 0.94 5000066.8896
28.29636 -4.9 0.94 5000040.1606
44.33376 -5.06 0.94 5000066.8896
28.29636 -5.1 0.94 5000040.1606
28.29636 -5.12 0.94 5000040.1606
28.29636 -5.2 0.94 5000040.1606
28.29636 -5.46 0.94 5000040.1606
28.29636 -5.48 0.94 5000040.1606
28.29636 -5.62 0.94 5000040.1606
28.29636 -5.76 0.94 5000040.1606
28.29636 -5.78 0.94 5000040.1606
17.592840000000002 -6.2 0.94 5000022.3214
44.33376 5.22 0.92 5000066.8896
44.33376 5.14 0.92 5000066.8896
44.33376 5.04 0.92 5000066.8896
44.33376 4.88 0.92 5000066.8896
44.33376 4.86 0.92 5000066.8896
44.33376 4.48 0.92 5000066.8896
44.33376 4.36 0.92 5000066.8896
44.33376 4.34 0.92 5000066.8896
44.33376 4.26 0.92 5000066.8896
13.4736 4.12 0.92 5000015.456
13.4736 4.08 0.92 5000015.456
13.4736 4.0 0.92 5000015.456
10.54584 3.9 0.92 5000010.5764
12.23748 3.24 0.92 5000013.3958
11.29218 3.16 0.92 5000011.8203
44.33376 2.88 0.92 5000066.8896
44.33376 2.86 0.92 5000066.8896
17.592840000000002 1.38 0.92 5000022.3214
17.592840000000002 1.36 0.92 5000022.3214
17.592840000000002 1.1 0.92 5000022.3214
17.592840000000002 1.08 0.92 5000022.3214
13.4736 1.0 0.92 5000015.456
13.4736 0.98 0.92 5000015.456
44.33376 0.84 0.92 5000066.8896
44.33376 0.82 0.92 5000066.8896
44.33376 0.68 0.92 5000066.8896
124.19999999999999 0.16 0.92 5000200.0
44.33376 0.1 0.92 5000066.8896
28.29636 0.08 0.92 5000040.1606
28.29636 0.06 0.92 5000040.1606
44.33376 -0.56 0.92 5000066.8896
44.33376 -0.58 0.92 5000066.8896
44.33376 -0.62 0.92 5000066.8896
8.089788 -1.64 0.92 5000006.48298
28.29636 -2.7 0.92 5000040.1606
28.29636 -2.72 0.92 5000040.1606
15.15888 -3.3 0.92 5000018.2648
13.4736 -3.38 0.92 5000015.456
11.29218 -3.56 0.92 5000011.8203
28.29636 -4.88 0.92 5000040.1606
28.29636 -5.16 0.92 5000040.1606
44.33376 -5.4 0.92 5000066.8896
28.29636 -5.46 0.92 5000040.1606
28.29636 -5.62 0.92 5000040.1606
28.29636 -5.76 0.92 5000040.1606
17.592840000000002 -6.2 0.92 5000022.3214
17.592840000000002 -6.22 0.92 5000022.3214
44.33376 5.14 0.9 5000066.8896
44.33376 5.04 0.9 5000066.8896
44.33376 5.02 0.9 5000066.8896
44.33376 4.88 0.9 5000066.8896
44.33376 4.86 0.9 5000066.8896
44.33376 4.48 0.9 5000066.8896
44.33376 4.36 0.9 5000066.8896
44.33376 4.26 0.9 5000066.8896
13.4736 4.12 0.9 5000015.456
13.4736 4.08 0.9 5000015.456
13.4736 4.0 0.9 5000015.456
10.54584 3.92 0.9 5000010.5764
10.54584 3.9 0.9 5000010.5764
11.29218 3.58 0.9 5000011.8203
12.23748 3.28 0.9 5000013.3958
12.23748 3.24 0.9 5000013.3958
11.29218 3.16 0.9 5000011.8203
44.33376 2.84 0.9 5000066.8896
44.33376 2.82 0.9 5000066.8896
17.592840000000002 1.38 0.9 5000022.3214
124.19999999999999 1.26 0.9 5000200.0
17.592840000000002 1.12 0.9 5000022.3214
17.592840000000002 1.1 0.9 5000022.3214
13.4736 0.98 0.9 5000015.456
13.4736 0.96 0.9 5000015.456
44.33376 0.88 0.9 5000066.8896
44.33376 0.82 0.9 5000066.8896
28.29636 0.76 0.9 5000040.1606
44.33376 0.64 0.9 5000066.8896
124.19999999999999 0.14 0.9 5000200.0
44.33376 0.08 0.9 5000066.8896
28.29636 0.06 0.9 5000040.1606
28.29636 0.04 0.9 5000040.1606
44.33376 -0.56 0.9 5000066.8896
28.29636 -0.74 0.9 5000040.1606
28.29636 -0.76 0.9 5000040.1606
7.8540779999999994 -1.62 0.9 5000006.09013
7.8540779999999994 -1.64 0.9 5000006.09013
15.15888 -3.3 0.9 5000018.2648
13.4736 -3.38 0.9 5000015.456
13.4736 -3.52 0.9 5000015.456
17.592840000000002 -4.14 0.9 5000022.3214
28.29636 -4.86 0.9 5000040.1606
28.29636 -4.88 0.9 5000040.1606
28.29636 -5.16 0.9 5000040.1606
28.29636 -5.44 0.9 5000040.1606
28.29636 -5.6 0.9 5000040.1606
17.592840000000002 -6.22 0.9 5000022.3214
17.592840000000002 -6.24 0.9 5000022.3214
44.33376 5.04 0.88 5000066.8896
44.33376 4.88 0.88 5000066.8896
44.33376 4.86 0.88 5000066.8896
28.29636 4.6 0.88 5000040.1606
44.33376 4.48 0.88 5000066.8896
44.33376 4.36 0.88 5000066.8896
44.33376 4.26 0.88 5000066.8896
13.4736 4.12 0.88 5000015.456
13.4736 4.08 0.88 5000015.456
13.4736 4.0 0.88 5000015.456
10.54584 3.92 0.88 5000010.5764
10.54584 3.9 0.88 5000010.5764
12.23748 3.24 0.88 5000013.3958
11.29218 3.16 0.88 5000011.8203
44.33376 2.84 0.88 5000066.8896
44.33376 2.82 0.88 5000066.8896
44.33376 2.8 0.88 5000066.8896
44.33376 2.78 0.88 5000066.8896
17.592840000000002 1.38 0.88 5000022.3214
17.592840000000002 1.36 0.88 5000022.3214
12.23748 1.18 0.88 5000013.3958
17.592840000000002 1.12 0.88 5000022.3214
17.592840000000002 1.1 0.88 5000022.3214
44.33376 0.64 0.88 5000066.8896
124.19999999999999 0.14 0.88 5000200.0
44.33376 0.06 0.88 5000066.8896
28.29636 0.04 0.88 5000040.1606
44.33376 -0.7 0.88 5000066.8896
44.33376 -0.72 0.88 5000066.8896
7.8540779999999994 -1.62 0.88 5000006.09013
15.15888 -3.3 0.88 5000018.2648
13.4736 -3.38 0.88 5000015.456
44.33376 -5.36 0.88 5000066.8896
44.33376 -5.38 0.88 5000066.8896
28.29636 -5.44 0.88 5000040.1606
28.29636 -5.6 0.88 5000040.1606
44.33376 -5.78 0.88 5000066.8896
28.29636 -5.84 0.88 5000040.1606
17.592840000000002 -6.14 0.88 5000022.3214
17.592840000000002 -6.24 0.88 5000022.3214
44.33376 4.88 0.86 5000066.8896
44.33376 4.86 0.86 5000066.8896
28.29636 4.6 0.86 5000040.1606
44.33376 4.48 0.86 5000066.8896
44.33376 4.36 0.86 5000066.8896
44.33376 4.34 0.86 5000066.8896
13.4736 4.2 0.86 5000015.456
13.4736 4.12 0.86 5000015.456
13.4736 4.08 0.86 5000015.456
13.4736 4.0 0.86 5000015.456
10.54584 3.9 0.86 5000010.5764
15.15888 3.36 0.86 5000018.2648
11.29218 3.16 0.86 5000011.8203
44.33376 2.78 0.86 5000066.8896
44.33376 2.76 0.86 5000066.8896
44.33376 2.74 0.86 5000066.8896
21.41664 2.62 0.86 5000028.6944
17.592840000000002 1.38 0.86 5000022.3214
17.592840000000002 1.36 0.86 5000022.3214
124.19999999999999 1.3 0.86 5000200.0
124.19999999999999 1.28 0.86 5000200.0
124.19999999999999 1.26 0.86 5000200.0
17.592840000000002 1.12 0.86 5000022.3214
17.592840000000002 1.1 0.86 5000022.3214
44.33376 0.64 0.86 5000066.8896
44.33376 0.6 0.86 5000066.8896
124.19999999999999 0.12 0.86 5000200.0
28.29636 0.06 0.86 5000040.1606
28.29636 0.04 0.86 5000040.1606
124.19999999999999 -0.56 0.86 5000200.0
124.19999999999999 -0.66 0.86 5000200.0
28.29636 -0.72 0.86 5000040.1606
7.8540779999999994 -1.6 0.86 5000006.09013
7.8540779999999994 -1.62 0.86 5000006.09013
13.4736 -3.38 0.86 5000015.456
28.29636 -4.64 0.86 5000040.1606
28.29636 -4.72 0.86 5000040.1606
44.33376 -4.96 0.86 5000066.8896
28.29636 -5.02 0.86 5000040.1606
44.33376 -5.38 0.86 5000066.8896
28.29636 -5.44 0.86 5000040.1606
28.29636 -5.6 0.86 5000040.1606
17.592840000000002 -6.12 0.86 5000022.3214
44.33376 4.88 0.84 5000066.8896
44.33376 4.86 0.84 5000066.8896
28.29636 4.6 0.84 5000040.1606
44.33376 4.48 0.84 5000066.8896
44.33376 4.34 0.84 5000066.8896
13.4736 4.2 0.84 5000015.456
13.4736 4.12 0.84 5000015.456
13.4736 4.0 0.84 5000015.456
10.54584 3.9 0.84 5000010.5764
11.29218 3.16 0.84 5000011.8203
44.33376 2.76 0.84 5000066.8896
44.33376 2.74 0.84 5000066.8896
44.33376 2.72 0.84 5000066.8896
124.19999999999999 2.7 0.84 5000200.0
21.41664 2.58 0.84 5000028.6944
17.592840000000002 1.38 0.84 5000022.3214
17.592840000000002 1.36 0.84 5000022.3214
44.33376 1.3 0.84 5000066.8896
17.592840000000002 1.12 0.84 5000022.3214
17.592840000000002 1.1 0.84 5000022.3214
124.19999999999999 0.84 0.84 5000200.0
44.33376 0.6 0.84 5000066.8896
124.19999999999999 0.12 0.84 5000200.0
11.29218 -0.28 0.84 5000011.8203
124.19999999999999 -0.54 0.84 5000200.0
124.19999999999999 -0.64 0.84 5000200.0
124.19999999999999 -0.66 0.84 5000200.0
28.29636 -0.72 0.84 5000040.1606
7.8540779999999994 -1.6 0.84 5000006.09013
7.8540779999999994 -1.62 0.84 5000006.09013
28.29636 -2.7 0.84 5000040.1606
28.29636 -2.72 0.84 5000040.1606
13.4736 -3.38 0.84 5000015.456
28.29636 -4.72 0.84 5000040.1606
44.33376 -4.92 0.84 5000066.8896
44.33376 -4.96 0.84 5000066.8896
28.29636 -5.02 0.84 5000040.1606
28.29636 -5.72 0.84 5000040.1606
17.592840000000002 -6.12 0.84 5000022.3214
44.33376 4.86 0.82 5000066.8896
44.33376 4.48 0.82 5000066.8896
13.4736 4.2 0.82 5000015.456
13.4736 4.12 0.82 5000015.456
13.4736 4.08 0.82 5000015.456
13.4736 4.0 0.82 5000015.456
10.54584 3.9 0.82 5000010.5764
10.54584 3.88 0.82 5000010.5764
10.54584 3.82 0.82 5000010.5764
11.29218 3.16 0.82 5000011.8203
124.19999999999999 2.7 0.82 5000200.0
124.19999999999999 2.68 0.82 5000200.0
124.19999999999999 2.44 0.82 5000200.0
17.592840000000002 1.38 0.82 5000022.3214
17.592840000000002 1.36 0.82 5000022.3214
44.33376 1.3 0.82 5000066.8896
17.592840000000002 1.12 0.82 5000022.3214
12.23748 1.02 0.82 5000013.3958
124.19999999999999 0.84 0.82 5000200.0
44.33376 0.6 0.82 5000066.8896
44.33376 0.12 0.82 5000066.8896
21.41664 -0.02 0.82 5000028.6944
124.19999999999999 -0.52 0.82 5000200.0
44.33376 -0.58 0.82 5000066.8896
44.33376 -0.6 0.82 5000066.8896
44.33376 -0.62 0.82 5000066.8896
124.19999999999999 -0.64 0.82 5000200.0
28.29636 -0.74 0.82 5000040.1606
28.29636 -0.76 0.82 5000040.1606
7.8540779999999994 -1.6 0.82 5000006.09013
12.23748 -1.9 0.82 5000013.3958
28.29636 -2.7 0.82 5000040.1606
28.29636 -2.72 0.82 5000040.1606
15.15888 -3.3 0.82 5000018.2648
13.4736 -3.38 0.82 5000015.456
11.29218 -3.54 0.82 5000011.8203
28.29636 -4.72 0.82 5000040.1606
44.33376 -4.96 0.82 5000066.8896
28.29636 -5.02 0.82 5000040.1606
28.29636 -5.22 0.82 5000040.1606
28.29636 -5.24 0.82 5000040.1606
28.29636 -5.34 0.82 5000040.1606
17.592840000000002 -6.1 0.82 5000022.3214
44.33376 4.48 0.8 5000066.8896
44.33376 4.36 0.8 5000066.8896
44.33376 4.26 0.8 5000066.8896
13.4736 4.12 0.8 5000015.456
13.4736 4.0 0.8 5000015.456
11.29218 3.9 0.8 5000011.8203
11.29218 3.88 0.8 5000011.8203
10.54584 3.82 0.8 5000010.5764
11.29218 3.16 0.8 5000011.8203
11.29218 3.14 0.8 5000011.8203
124.19999999999999 2.68 0.8 5000200.0
124.19999999999999 2.66 0.8 5000200.0
124.19999999999999 2.64 0.8 5000200.0
124.19999999999999 2.62 0.8 5000200.0
124.19999999999999 2.44 0.8 5000200.0
17.592840000000002 1.38 0.8 5000022.3214
17.592840000000002 1.36 0.8 5000022.3214
44.33376 1.3 0.8 5000066.8896
44.33376 1.28 0.8 5000066.8896
17.592840000000002 1.12 0.8 5000022.3214
12.23748 1.0 0.8 5000013.3958
124.19999999999999 0.84 0.8 5000200.0
44.33376 0.12 0.8 5000066.8896
44.33376 0.06 0.8 5000066.8896
12.23748 -0.22 0.8 5000013.3958
11.29218 -0.3 0.8 5000011.8203
124.19999999999999 -0.52 0.8 5000200.0
44.33376 -0.58 0.8 5000066.8896
28.29636 -0.76 0.8 5000040.1606
12.23748 -1.9 0.8 5000013.3958
15.15888 -3.3 0.8 5000018.2648
13.4736 -3.38 0.8 5000015.456
9.941628000000001 -3.66 0.8 5000009.56938
28.29636 -4.64 0.8 5000040.1606
28.29636 -4.66 0.8 5000040.1606
44.33376 -4.96 0.8 5000066.8896
28.29636 -5.02 0.8 5000040.1606
28.29636 -5.22 0.8 5000040.1606
28.29636 -5.34 0.8 5000040.1606
44.33376 4.48 0.78 5000066.8896
44.33376 4.36 0.78 5000066.8896
13.4736 4.12 0.78 5000015.456
13.4736 4.08 0.78 5000015.456
13.4736 4.0 0.78 5000015.456
11.29218 3.88 0.78 5000011.8203
