VERSION .7
FIELDS x y z rgb
SIZE 4 4 4 4
TYPE F F F F
COUNT 1 1 1 1
WIDTH 1606
HEIGHT 1
VIEWPOINT 0 0 0 1 0 0 0
POINTS 1606
DATA ascii
28.29636 -5.62 1.92 40.1606
10.54584 4.66 1.9 10.5764
10.54584 4.64 1.9 10.5764
10.54584 4.58 1.9 10.5764
10.54584 4.34 1.9 10.5764
10.54584 3.74 1.9 10.5764
10.54584 3.72 1.9 10.5764
17.592840000000002 3.6 1.9 22.3214
17.592840000000002 2.88 1.9 22.3214
17.592840000000002 2.84 1.9 22.3214
28.29636 2.32 1.9 40.1606
28.29636 2.2 1.9 40.1606
44.33376 1.68 1.9 66.8896
28.29636 1.66 1.9 40.1606
28.29636 1.62 1.9 40.1606
17.592840000000002 1.5 1.9 22.3214
17.592840000000002 1.28 1.9 22.3214
17.592840000000002 1.26 1.9 22.3214
17.592840000000002 1.06 1.9 22.3214
17.592840000000002 1.04 1.9 22.3214
21.41664 1.0 1.9 28.6944
17.592840000000002 0.88 1.9 22.3214
17.592840000000002 0.84 1.9 22.3214
28.29636 0.28 1.9 40.1606
44.33376 -0.14 1.9 66.8896
44.33376 -0.16 1.9 66.8896
44.33376 -0.18 1.9 66.8896
21.41664 -0.26 1.9 28.6944
10.54584 -0.66 1.9 10.5764
44.33376 -1.56 1.9 66.8896
44.33376 -1.58 1.9 66.8896
28.29636 -2.38 1.9 40.1606
17.592840000000002 -2.54 1.9 22.3214
21.41664 -2.62 1.9 28.6944
15.15888 -2.82 1.9 18.2648
28.29636 -3.0 1.9 40.1606
17.592840000000002 -3.7 1.9 22.3214
15.15888 -3.78 1.9 18.2648
44.33376 -4.62 1.9 66.8896
44.33376 -4.74 1.9 66.8896
44.33376 -5.08 1.9 66.8896
28.29636 -5.58 1.9 40.1606
28.29636 -5.6 1.9 40.1606
10.54584 4.64 1.88 10.5764
10.54584 4.62 1.88 10.5764
9.442464 4.52 1.88 8.73744
10.54584 3.76 1.88 10.5764
10.54584 3.74 1.88 10.5764
10.54584 3.72 1.88 10.5764
17.592840000000002 2.84 1.88 22.3214
44.33376 2.78 1.88 66.8896
21.41664 2.64 1.88 28.6944
17.592840000000002 2.54 1.88 22.3214
17.592840000000002 2.24 1.88 22.3214
17.592840000000002 2.22 1.88 22.3214
28.29636 2.2 1.88 40.1606
28.29636 2.18 1.88 40.1606
17.592840000000002 2.02 1.88 22.3214
28.29636 1.66 1.88 40.1606
28.29636 1.62 1.88 40.1606
17.592840000000002 1.52 1.88 22.3214
17.592840000000002 1.5 1.88 22.3214
15.15888 1.46 1.88 18.2648
17.592840000000002 1.3 1.88 22.3214
17.592840000000002 1.28 1.88 22.3214
44.33376 0.84 1.88 66.8896
44.33376 0.4 1.88 66.8896
44.33376 -0.14 1.88 66.8896
44.33376 -0.16 1.88 66.8896
44.33376 -0.18 1.88 66.8896
28.29636 -0.24 1.88 40.1606
28.29636 -0.8 1.88 40.1606
44.33376 -1.44 1.88 66.8896
44.33376 -1.46 1.88 66.8896
44.33376 -2.12 1.88 66.8896
44.33376 -2.16 1.88 66.8896
28.29636 -2.38 1.88 40.1606
17.592840000000002 -2.54 1.88 22.3214
21.41664 -2.62 1.88 28.6944
15.15888 -2.9 1.88 18.2648
5.851979999999999 -3.32 1.88 2.7533
44.33376 -4.62 1.88 66.8896
44.33376 -4.64 1.88 66.8896
28.29636 -5.58 1.88 40.1606
28.29636 -5.6 1.88 40.1606
17.592840000000002 -5.92 1.88 22.3214
10.54584 4.64 1.86 10.5764
10.54584 4.62 1.86 10.5764
10.54584 3.74 1.86 10.5764
10.54584 3.72 1.86 10.5764
44.33376 2.76 1.86 66.8896
21.41664 2.68 1.86 28.6944
21.41664 2.64 1.86 28.6944
21.41664 2.6 1.86 28.6944
21.41664 2.56 1.86 28.6944
17.592840000000002 2.54 1.86 22.3214
21.41664 2.38 1.86 28.6944
28.29636 2.34 1.86 40.1606
28.29636 2.3 1.86 40.1606
17.592840000000002 2.22 1.86 22.3214
28.29636 2.18 1.86 40.1606
21.41664 2.1 1.86 28.6944
17.592840000000002 2.04 1.86 22.3214
17.592840000000002 2.02 1.86 22.3214
17.592840000000002 2.0 1.86 22.3214
17.592840000000002 1.52 1.86 22.3214
15.15888 1.48 1.86 18.2648
15.15888 1.46 1.86 18.2648
17.592840000000002 1.3 1.86 22.3214
21.41664 1.1 1.86 28.6944
17.592840000000002 0.62 1.86 22.3214
44.33376 0.4 1.86 66.8896
44.33376 0.38 1.86 66.8896
44.33376 -0.76 1.86 66.8896
28.29636 -0.78 1.86 40.1606
15.15888 -0.94 1.86 18.2648
124.19999999999999 -1.38 1.86 200.0
17.592840000000002 -2.54 1.86 22.3214
21.41664 -2.62 1.86 28.6944
15.15888 -2.86 1.86 18.2648
44.33376 -3.42 1.86 66.8896
28.29636 -4.34 1.86 40.1606
28.29636 -5.02 1.86 40.1606
44.33376 -5.52 1.86 66.8896
28.29636 -5.58 1.86 40.1606
28.29636 -5.6 1.86 40.1606
10.54584 4.64 1.84 10.5764
10.54584 4.62 1.84 10.5764
10.54584 3.74 1.84 10.5764
10.54584 3.72 1.84 10.5764
10.54584 3.7 1.84 10.5764
17.592840000000002 2.68 1.84 22.3214
21.41664 2.6 1.84 28.6944
21.41664 2.58 1.84 28.6944
17.592840000000002 2.54 1.84 22.3214
21.41664 2.38 1.84 28.6944
28.29636 2.3 1.84 40.1606
28.29636 2.28 1.84 40.1606
17.592840000000002 2.22 1.84 22.3214
17.592840000000002 2.2 1.84 22.3214
28.29636 2.16 1.84 40.1606
21.41664 2.1 1.84 28.6944
21.41664 2.08 1.84 28.6944
17.592840000000002 2.02 1.84 22.3214
17.592840000000002 2.0 1.84 22.3214
15.15888 1.48 1.84 18.2648
17.592840000000002 1.3 1.84 22.3214
28.29636 0.7 1.84 40.1606
21.41664 0.62 1.84 28.6944
44.33376 0.4 1.84 66.8896
44.33376 -0.2 1.84 66.8896
44.33376 -0.72 1.84 66.8896
44.33376 -0.74 1.84 66.8896
28.29636 -2.38 1.84 40.1606
17.592840000000002 -2.54 1.84 22.3214
21.41664 -2.62 1.84 28.6944
15.15888 -2.86 1.84 18.2648
28.29636 -4.34 1.84 40.1606
44.33376 -4.84 1.84 66.8896
28.29636 -4.92 1.84 40.1606
28.29636 -4.98 1.84 40.1606
28.29636 -5.02 1.84 40.1606
44.33376 -5.52 1.84 66.8896
28.29636 -5.58 1.84 40.1606
28.29636 -5.6 1.84 40.1606
17.592840000000002 -5.66 1.84 22.3214
44.33376 5.62 1.82 66.8896
10.54584 4.62 1.82 10.5764
10.54584 3.74 1.82 10.5764
10.54584 3.72 1.82 10.5764
10.54584 3.7 1.82 10.5764
21.41664 2.58 1.82 28.6944
124.19999999999999 2.42 1.82 200.0
28.29636 2.28 1.82 40.1606
17.592840000000002 2.2 1.82 22.3214
21.41664 2.08 1.82 28.6944
17.592840000000002 2.02 1.82 22.3214
17.592840000000002 2.0 1.82 22.3214
28.29636 1.66 1.82 40.1606
15.15888 1.5 1.82 18.2648
15.15888 1.48 1.82 18.2648
28.29636 1.4 1.82 40.1606
17.592840000000002 1.3 1.82 22.3214
28.29636 0.7 1.82 40.1606
21.41664 0.64 1.82 28.6944
44.33376 0.4 1.82 66.8896
44.33376 -0.16 1.82 66.8896
44.33376 -0.72 1.82 66.8896
44.33376 -1.06 1.82 66.8896
124.19999999999999 -2.5 1.82 200.0
44.33376 -2.54 1.82 66.8896
21.41664 -2.62 1.82 28.6944
44.33376 -4.52 1.82 66.8896
44.33376 -4.84 1.82 66.8896
44.33376 -4.92 1.82 66.8896
28.29636 -4.96 1.82 40.1606
28.29636 -4.98 1.82 40.1606
28.29636 -5.58 1.82 40.1606
28.29636 -5.6 1.82 40.1606
44.33376 5.82 1.8 66.8896
44.33376 5.62 1.8 66.8896
44.33376 5.1 1.8 66.8896
10.54584 4.62 1.8 10.5764
10.54584 3.76 1.8 10.5764
10.54584 3.74 1.8 10.5764
10.54584 3.72 1.8 10.5764
17.592840000000002 3.02 1.8 22.3214
17.592840000000002 3.0 1.8 22.3214
17.592840000000002 2.68 1.8 22.3214
17.592840000000002 2.66 1.8 22.3214
124.19999999999999 2.4 1.8 200.0
28.29636 2.28 1.8 40.1606
21.41664 2.18 1.8 28.6944
28.29636 2.16 1.8 40.1606
28.29636 2.14 1.8 40.1606
21.41664 2.06 1.8 28.6944
17.592840000000002 2.02 1.8 22.3214
17.592840000000002 2.0 1.8 22.3214
124.19999999999999 1.94 1.8 200.0
15.15888 1.5 1.8 18.2648
15.15888 1.48 1.8 18.2648
17.592840000000002 1.32 1.8 22.3214
17.592840000000002 1.3 1.8 22.3214
28.29636 0.7 1.8 40.1606
21.41664 0.64 1.8 28.6944
44.33376 0.4 1.8 66.8896
44.33376 -0.14 1.8 66.8896
44.33376 -0.16 1.8 66.8896
28.29636 -0.42 1.8 40.1606
124.19999999999999 -0.66 1.8 200.0
44.33376 -0.72 1.8 66.8896
44.33376 -1.04 1.8 66.8896
28.29636 -2.38 1.8 40.1606
124.19999999999999 -2.5 1.8 200.0
21.41664 -2.58 1.8 28.6944
6.39258 -3.24 1.8 3.6543
44.33376 -4.5 1.8 66.8896
44.33376 -4.52 1.8 66.8896
44.33376 -4.92 1.8 66.8896
28.29636 -4.96 1.8 40.1606
44.33376 -5.52 1.8 66.8896
28.29636 -5.6 1.8 40.1606
44.33376 5.62 1.78 66.8896
44.33376 5.6 1.78 66.8896
44.33376 5.08 1.78 66.8896
44.33376 5.06 1.78 66.8896
44.33376 5.04 1.78 66.8896
10.54584 4.64 1.78 10.5764
10.54584 4.62 1.78 10.5764
10.54584 3.78 1.78 10.5764
10.54584 3.76 1.78 10.5764
10.54584 3.74 1.78 10.5764
9.442464 3.62 1.78 8.73744
17.592840000000002 2.86 1.78 22.3214
17.592840000000002 2.82 1.78 22.3214
17.592840000000002 2.8 1.78 22.3214
21.41664 2.54 1.78 28.6944
21.41664 2.44 1.78 28.6944
124.19999999999999 2.38 1.78 200.0
28.29636 2.28 1.78 40.1606
28.29636 2.26 1.78 40.1606
28.29636 2.14 1.78 40.1606
28.29636 2.12 1.78 40.1606
21.41664 2.06 1.78 28.6944
17.592840000000002 2.0 1.78 22.3214
17.592840000000002 1.98 1.78 22.3214
124.19999999999999 1.92 1.78 200.0
17.592840000000002 1.68 1.78 22.3214
28.29636 1.64 1.78 40.1606
28.29636 1.62 1.78 40.1606
15.15888 1.5 1.78 18.2648
15.15888 1.48 1.78 18.2648
28.29636 1.42 1.78 40.1606
17.592840000000002 1.32 1.78 22.3214
21.41664 0.64 1.78 28.6944
44.33376 0.36 1.78 66.8896
44.33376 -0.72 1.78 66.8896
21.41664 -0.8 1.78 28.6944
15.15888 -0.92 1.78 18.2648
28.29636 -2.38 1.78 40.1606
124.19999999999999 -2.5 1.78 200.0
6.39258 -3.24 1.78 3.6543
44.33376 -4.5 1.78 66.8896
124.19999999999999 -4.76 1.78 200.0
44.33376 -4.88 1.78 66.8896
124.19999999999999 -5.36 1.78 200.0
124.19999999999999 -5.46 1.78 200.0
44.33376 -5.52 1.78 66.8896
28.29636 -5.6 1.78 40.1606
44.33376 5.6 1.76 66.8896
44.33376 5.04 1.76 66.8896
44.33376 5.02 1.76 66.8896
10.54584 4.64 1.76 10.5764
10.54584 4.62 1.76 10.5764
10.54584 3.78 1.76 10.5764
10.54584 3.76 1.76 10.5764
10.54584 3.74 1.76 10.5764
17.592840000000002 2.88 1.76 22.3214
17.592840000000002 2.86 1.76 22.3214
17.592840000000002 2.84 1.76 22.3214
21.41664 2.5 1.76 28.6944
21.41664 2.48 1.76 28.6944
21.41664 2.44 1.76 28.6944
124.19999999999999 2.38 1.76 200.0
124.19999999999999 2.36 1.76 200.0
28.29636 2.12 1.76 40.1606
28.29636 2.1 1.76 40.1606
21.41664 2.06 1.76 28.6944
21.41664 2.04 1.76 28.6944
17.592840000000002 2.0 1.76 22.3214
17.592840000000002 1.98 1.76 22.3214
17.592840000000002 1.96 1.76 22.3214
124.19999999999999 1.9 1.76 200.0
17.592840000000002 1.68 1.76 22.3214
28.29636 1.66 1.76 40.1606
28.29636 1.62 1.76 40.1606
15.15888 1.5 1.76 18.2648
28.29636 1.42 1.76 40.1606
17.592840000000002 1.32 1.76 22.3214
13.4736 1.22 1.76 15.456
21.41664 0.66 1.76 28.6944
28.29636 0.38 1.76 40.1606
28.29636 0.36 1.76 40.1606
44.33376 -0.12 1.76 66.8896
44.33376 -0.72 1.76 66.8896
44.33376 -0.74 1.76 66.8896
21.41664 -0.8 1.76 28.6944
15.15888 -0.94 1.76 18.2648
6.39258 -3.2 1.76 3.6543
15.15888 -4.22 1.76 18.2648
44.33376 -4.3 1.76 66.8896
44.33376 -4.5 1.76 66.8896
28.29636 -4.58 1.76 40.1606
28.29636 -5.6 1.76 40.1606
44.33376 4.98 1.74 66.8896
44.33376 4.96 1.74 66.8896
10.54584 4.64 1.74 10.5764
10.54584 4.62 1.74 10.5764
10.54584 3.78 1.74 10.5764
10.54584 3.76 1.74 10.5764
17.592840000000002 3.04 1.74 22.3214
28.29636 2.76 1.74 40.1606
21.41664 2.48 1.74 28.6944
124.19999999999999 2.36 1.74 200.0
124.19999999999999 2.2 1.74 200.0
124.19999999999999 2.18 1.74 200.0
28.29636 2.1 1.74 40.1606
21.41664 2.06 1.74 28.6944
21.41664 2.04 1.74 28.6944
17.592840000000002 1.98 1.74 22.3214
17.592840000000002 1.96 1.74 22.3214
124.19999999999999 1.9 1.74 200.0
124.19999999999999 1.88 1.74 200.0
28.29636 1.66 1.74 40.1606
28.29636 1.62 1.74 40.1606
15.15888 1.52 1.74 18.2648
15.15888 1.5 1.74 18.2648
28.29636 1.42 1.74 40.1606
17.592840000000002 1.32 1.74 22.3214
17.592840000000002 0.72 1.74 22.3214
17.592840000000002 0.66 1.74 22.3214
28.29636 0.38 1.74 40.1606
28.29636 0.34 1.74 40.1606
21.41664 -0.8 1.74 28.6944
15.15888 -0.94 1.74 18.2648
6.765750000000001 -1.58 1.74 4.27625
44.33376 -4.28 1.74 66.8896
44.33376 -4.3 1.74 66.8896
28.29636 -4.56 1.74 40.1606
28.29636 -5.6 1.74 40.1606
17.592840000000002 -5.94 1.74 22.3214
44.33376 5.9 1.72 66.8896
44.33376 5.88 1.72 66.8896
44.33376 4.96 1.72 66.8896
44.33376 4.94 1.72 66.8896
10.54584 4.64 1.72 10.5764
10.54584 4.62 1.72 10.5764
10.54584 3.8 1.72 10.5764
10.54584 3.78 1.72 10.5764
10.54584 3.76 1.72 10.5764
17.592840000000002 3.08 1.72 22.3214
17.592840000000002 3.04 1.72 22.3214
124.19999999999999 2.34 1.72 200.0
124.19999999999999 2.32 1.72 200.0
124.19999999999999 2.18 1.72 200.0
124.19999999999999 2.16 1.72 200.0
17.592840000000002 1.98 1.72 22.3214
17.592840000000002 1.96 1.72 22.3214
124.19999999999999 1.88 1.72 200.0
124.19999999999999 1.86 1.72 200.0
17.592840000000002 1.66 1.72 22.3214
28.29636 1.62 1.72 40.1606
17.592840000000002 1.52 1.72 22.3214
17.592840000000002 1.5 1.72 22.3214
17.592840000000002 1.48 1.72 22.3214
28.29636 1.42 1.72 40.1606
17.592840000000002 1.32 1.72 22.3214
21.41664 1.14 1.72 28.6944
17.592840000000002 0.72 1.72 22.3214
12.23748 0.52 1.72 13.3958
28.29636 0.34 1.72 40.1606
21.41664 -0.28 1.72 28.6944
17.592840000000002 -0.38 1.72 22.3214
44.33376 -0.7 1.72 66.8896
44.33376 -0.74 1.72 66.8896
6.765750000000001 -1.58 1.72 4.27625
10.54584 -2.9 1.72 10.5764
6.661032 -3.06 1.72 4.10172
21.41664 -3.48 1.72 28.6944
44.33376 -4.28 1.72 66.8896
28.29636 -5.06 1.72 40.1606
28.29636 -5.6 1.72 40.1606
44.33376 5.9 1.7 66.8896
44.33376 5.88 1.7 66.8896
124.19999999999999 4.9 1.7 200.0
10.54584 4.64 1.7 10.5764
10.54584 4.62 1.7 10.5764
10.54584 3.8 1.7 10.5764
10.54584 3.78 1.7 10.5764
10.54584 3.76 1.7 10.5764
17.592840000000002 3.16 1.7 22.3214
17.592840000000002 3.06 1.7 22.3214
21.41664 2.84 1.7 28.6944
124.19999999999999 2.3 1.7 200.0
124.19999999999999 2.28 1.7 200.0
124.19999999999999 2.16 1.7 200.0
124.19999999999999 2.14 1.7 200.0
17.592840000000002 1.98 1.7 22.3214
17.592840000000002 1.96 1.7 22.3214
17.592840000000002 1.94 1.7 22.3214
124.19999999999999 1.86 1.7 200.0
28.29636 1.66 1.7 40.1606
28.29636 1.62 1.7 40.1606
15.15888 1.52 1.7 18.2648
15.15888 1.5 1.7 18.2648
15.15888 1.48 1.7 18.2648
28.29636 1.42 1.7 40.1606
17.592840000000002 1.26 1.7 22.3214
21.41664 1.14 1.7 28.6944
17.592840000000002 0.62 1.7 22.3214
28.29636 -0.18 1.7 40.1606
28.29636 -0.2 1.7 40.1606
28.29636 -0.22 1.7 40.1606
44.33376 -0.7 1.7 66.8896
28.29636 -0.96 1.7 40.1606
28.29636 -3.38 1.7 40.1606
44.33376 -4.94 1.7 66.8896
44.33376 -4.96 1.7 66.8896
28.29636 -5.6 1.7 40.1606
28.29636 -5.62 1.7 40.1606
17.592840000000002 -5.94 1.7 22.3214
44.33376 5.9 1.68 66.8896
10.54584 4.64 1.68 10.5764
10.54584 4.62 1.68 10.5764
10.54584 4.52 1.68 10.5764
10.54584 4.46 1.68 10.5764
10.54584 3.8 1.68 10.5764
10.54584 3.78 1.68 10.5764
17.592840000000002 3.2 1.68 22.3214
124.19999999999999 2.64 1.68 200.0
44.33376 2.14 1.68 66.8896
17.592840000000002 1.96 1.68 22.3214
17.592840000000002 1.94 1.68 22.3214
124.19999999999999 1.84 1.68 200.0
28.29636 1.66 1.68 40.1606
28.29636 1.62 1.68 40.1606
15.15888 1.5 1.68 18.2648
28.29636 1.4 1.68 40.1606
17.592840000000002 1.3 1.68 22.3214
17.592840000000002 1.28 1.68 22.3214
21.41664 1.14 1.68 28.6944
17.592840000000002 0.72 1.68 22.3214
17.592840000000002 0.7 1.68 22.3214
17.592840000000002 0.68 1.68 22.3214
124.19999999999999 0.44 1.68 200.0
28.29636 -0.18 1.68 40.1606
28.29636 -0.2 1.68 40.1606
44.33376 -0.7 1.68 66.8896
124.19999999999999 -0.84 1.68 200.0
44.33376 -0.9 1.68 66.8896
11.29218 -2.88 1.68 11.8203
6.475314 -3.04 1.68 3.79219
6.564533999999999 -3.12 1.68 3.94089
28.29636 -5.0 1.68 40.1606
28.29636 -5.6 1.68 40.1606
28.29636 -5.62 1.68 40.1606
17.592840000000002 -5.94 1.68 22.3214
44.33376 5.92 1.66 66.8896
44.33376 5.9 1.66 66.8896
10.54584 4.64 1.66 10.5764
10.54584 4.62 1.66 10.5764
10.54584 4.48 1.66 10.5764
10.54584 3.8 1.66 10.5764
10.54584 3.78 1.66 10.5764
15.15888 2.78 1.66 18.2648
17.592840000000002 2.7 1.66 22.3214
17.592840000000002 2.68 1.66 22.3214
124.19999999999999 2.38 1.66 200.0
21.41664 2.22 1.66 28.6944
21.41664 2.2 1.66 28.6944
21.41664 2.16 1.66 28.6944
44.33376 2.14 1.66 66.8896
44.33376 2.12 1.66 66.8896
44.33376 2.1 1.66 66.8896
17.592840000000002 1.96 1.66 22.3214
17.592840000000002 1.94 1.66 22.3214
124.19999999999999 1.84 1.66 200.0
28.29636 1.66 1.66 40.1606
28.29636 1.62 1.66 40.1606
15.15888 1.5 1.66 18.2648
15.15888 1.48 1.66 18.2648
17.592840000000002 1.3 1.66 22.3214
17.592840000000002 1.28 1.66 22.3214
11.29218 1.04 1.66 11.8203
17.592840000000002 0.72 1.66 22.3214
17.592840000000002 0.7 1.66 22.3214
124.19999999999999 0.44 1.66 200.0
44.33376 0.36 1.66 66.8896
28.29636 -0.18 1.66 40.1606
28.29636 -0.2 1.66 40.1606
44.33376 -0.88 1.66 66.8896
7.141176 -1.4 1.66 4.90196
7.141176 -1.42 1.66 4.90196
28.29636 -2.12 1.66 40.1606
28.29636 -2.38 1.66 40.1606
11.29218 -2.84 1.66 11.8203
6.564533999999999 -3.1 1.66 3.94089
28.29636 -3.28 1.66 40.1606
17.592840000000002 -3.62 1.66 22.3214
17.592840000000002 -3.64 1.66 22.3214
15.15888 -3.72 1.66 18.2648
28.29636 -4.18 1.66 40.1606
28.29636 -4.2 1.66 40.1606
28.29636 -5.0 1.66 40.1606
28.29636 -5.6 1.66 40.1606
28.29636 -5.62 1.66 40.1606
44.33376 5.92 1.64 66.8896
44.33376 5.9 1.64 66.8896
10.54584 4.64 1.64 10.5764
10.54584 4.62 1.64 10.5764
10.54584 4.48 1.64 10.5764
10.54584 3.86 1.64 10.5764
10.54584 3.82 1.64 10.5764
10.54584 3.8 1.64 10.5764
10.54584 3.78 1.64 10.5764
17.592840000000002 2.84 1.64 22.3214
15.15888 2.82 1.64 18.2648
15.15888 2.78 1.64 18.2648
17.592840000000002 2.72 1.64 22.3214
124.19999999999999 2.38 1.64 200.0
124.19999999999999 2.36 1.64 200.0
44.33376 2.3 1.64 66.8896
21.41664 2.2 1.64 28.6944
44.33376 2.14 1.64 66.8896
44.33376 2.1 1.64 66.8896
44.33376 2.08 1.64 66.8896
17.592840000000002 1.94 1.64 22.3214
17.592840000000002 1.9 1.64 22.3214
124.19999999999999 1.84 1.64 200.0
124.19999999999999 1.82 1.64 200.0
28.29636 1.66 1.64 40.1606
28.29636 1.62 1.64 40.1606
28.29636 1.6 1.64 40.1606
15.15888 1.5 1.64 18.2648
15.15888 1.48 1.64 18.2648
28.29636 1.38 1.64 40.1606
17.592840000000002 1.3 1.64 22.3214
17.592840000000002 1.28 1.64 22.3214
21.41664 1.14 1.64 28.6944
28.29636 0.78 1.64 40.1606
124.19999999999999 0.4 1.64 200.0
44.33376 -0.18 1.64 66.8896
44.33376 -0.2 1.64 66.8896
21.41664 -0.26 1.64 28.6944
21.41664 -0.28 1.64 28.6944
7.8540779999999994 -1.12 1.64 6.09013
28.29636 -2.12 1.64 40.1606
11.29218 -2.82 1.64 11.8203
11.29218 -2.84 1.64 11.8203
6.661032 -3.0 1.64 4.10172
6.39258 -3.1 1.64 3.6543
28.29636 -3.24 1.64 40.1606
17.592840000000002 -3.62 1.64 22.3214
28.29636 -5.0 1.64 40.1606
28.29636 -5.6 1.64 40.1606
28.29636 -5.62 1.64 40.1606
17.592840000000002 -5.94 1.64 22.3214
44.33376 5.92 1.62 66.8896
44.33376 5.9 1.62 66.8896
11.29218 4.68 1.62 11.8203
10.54584 4.62 1.62 10.5764
13.4736 3.92 1.62 15.456
10.54584 3.82 1.62 10.5764
10.54584 3.8 1.62 10.5764
10.54584 3.78 1.62 10.5764
15.15888 2.82 1.62 18.2648
44.33376 2.26 1.62 66.8896
44.33376 2.08 1.62 66.8896
44.33376 2.06 1.62 66.8896
17.592840000000002 1.94 1.62 22.3214
17.592840000000002 1.9 1.62 22.3214
124.19999999999999 1.82 1.62 200.0
28.29636 1.66 1.62 40.1606
28.29636 1.62 1.62 40.1606
28.29636 1.6 1.62 40.1606
15.15888 1.5 1.62 18.2648
15.15888 1.48 1.62 18.2648
28.29636 1.38 1.62 40.1606
17.592840000000002 1.3 1.62 22.3214
17.592840000000002 1.28 1.62 22.3214
21.41664 0.84 1.62 28.6944
28.29636 0.8 1.62 40.1606
124.19999999999999 0.4 1.62 200.0
44.33376 0.32 1.62 66.8896
44.33376 -0.18 1.62 66.8896
44.33376 -0.2 1.62 66.8896
21.41664 -0.26 1.62 28.6944
21.41664 -0.28 1.62 28.6944
44.33376 -0.72 1.62 66.8896
44.33376 -0.74 1.62 66.8896
7.8540779999999994 -1.12 1.62 6.09013
28.29636 -2.38 1.62 40.1606
11.29218 -2.82 1.62 11.8203
6.564533999999999 -3.06 1.62 3.94089
17.592840000000002 -4.14 1.62 22.3214
28.29636 -5.0 1.62 40.1606
28.29636 -5.6 1.62 40.1606
44.33376 5.92 1.6 66.8896
44.33376 5.9 1.6 66.8896
11.29218 4.68 1.6 11.8203
10.54584 4.62 1.6 10.5764
10.54584 3.8 1.6 10.5764
10.54584 3.78 1.6 10.5764
10.54584 3.76 1.6 10.5764
17.592840000000002 2.86 1.6 22.3214
17.592840000000002 2.84 1.6 22.3214
17.592840000000002 2.82 1.6 22.3214
44.33376 2.22 1.6 66.8896
44.33376 2.06 1.6 66.8896
17.592840000000002 1.92 1.6 22.3214
17.592840000000002 1.9 1.6 22.3214
17.592840000000002 1.66 1.6 22.3214
28.29636 1.62 1.6 40.1606
28.29636 1.6 1.6 40.1606
15.15888 1.48 1.6 18.2648
15.15888 1.46 1.6 18.2648
28.29636 1.42 1.6 40.1606
28.29636 1.38 1.6 40.1606
17.592840000000002 0.92 1.6 22.3214
17.592840000000002 0.9 1.6 22.3214
17.592840000000002 0.88 1.6 22.3214
17.592840000000002 0.86 1.6 22.3214
124.19999999999999 0.4 1.6 200.0
124.19999999999999 0.38 1.6 200.0
44.33376 0.32 1.6 66.8896
44.33376 -0.16 1.6 66.8896
21.41664 -0.26 1.6 28.6944
21.41664 -0.28 1.6 28.6944
124.19999999999999 -0.64 1.6 200.0
44.33376 -0.7 1.6 66.8896
7.8540779999999994 -1.12 1.6 6.09013
7.2919860000000005 -1.4 1.6 5.15331
28.29636 -2.08 1.6 40.1606
28.29636 -2.38 1.6 40.1606
9.941628000000001 -2.96 1.6 9.56938
6.661032 -3.04 1.6 4.10172
6.661032 -3.06 1.6 4.10172
28.29636 -3.22 1.6 40.1606
8.665944 -3.52 1.6 7.44324
17.592840000000002 -4.14 1.6 22.3214
28.29636 -5.0 1.6 40.1606
21.41664 -5.08 1.6 28.6944
28.29636 -5.6 1.6 40.1606
28.29636 -5.62 1.6 40.1606
17.592840000000002 -5.94 1.6 22.3214
44.33376 5.92 1.58 66.8896
44.33376 5.9 1.58 66.8896
10.54584 4.62 1.58 10.5764
10.54584 4.6 1.58 10.5764
10.54584 3.8 1.58 10.5764
10.54584 3.78 1.58 10.5764
10.54584 3.76 1.58 10.5764
17.592840000000002 3.28 1.58 22.3214
17.592840000000002 2.88 1.58 22.3214
17.592840000000002 2.8 1.58 22.3214
124.19999999999999 2.18 1.58 200.0
44.33376 2.04 1.58 66.8896
17.592840000000002 1.92 1.58 22.3214
17.592840000000002 1.9 1.58 22.3214
17.592840000000002 1.66 1.58 22.3214
28.29636 1.62 1.58 40.1606
28.29636 1.6 1.58 40.1606
15.15888 1.48 1.58 18.2648
28.29636 1.42 1.58 40.1606
28.29636 1.38 1.58 40.1606
17.592840000000002 1.28 1.58 22.3214
21.41664 1.22 1.58 28.6944
21.41664 1.2 1.58 28.6944
17.592840000000002 1.1 1.58 22.3214
17.592840000000002 1.08 1.58 22.3214
17.592840000000002 1.06 1.58 22.3214
17.592840000000002 1.04 1.58 22.3214
17.592840000000002 1.02 1.58 22.3214
17.592840000000002 0.94 1.58 22.3214
17.592840000000002 0.92 1.58 22.3214
124.19999999999999 0.4 1.58 200.0
124.19999999999999 0.38 1.58 200.0
124.19999999999999 -0.16 1.58 200.0
124.19999999999999 -0.2 1.58 200.0
28.29636 -0.3 1.58 40.1606
8.089788 -1.12 1.58 6.48298
7.2919860000000005 -1.4 1.58 5.15331
28.29636 -2.38 1.58 40.1606
6.661032 -3.02 1.58 4.10172
6.661032 -3.04 1.58 4.10172
21.41664 -3.8 1.58 28.6944
17.592840000000002 -4.14 1.58 22.3214
28.29636 -5.0 1.58 40.1606
21.41664 -5.08 1.58 28.6944
28.29636 -5.6 1.58 40.1606
28.29636 -5.62 1.58 40.1606
17.592840000000002 -5.94 1.58 22.3214
44.33376 5.92 1.56 66.8896
44.33376 5.9 1.56 66.8896
10.54584 4.62 1.56 10.5764
10.54584 4.6 1.56 10.5764
10.54584 3.8 1.56 10.5764
10.54584 3.78 1.56 10.5764
17.592840000000002 2.9 1.56 22.3214
17.592840000000002 2.88 1.56 22.3214
124.19999999999999 2.16 1.56 200.0
17.592840000000002 1.92 1.56 22.3214
17.592840000000002 1.9 1.56 22.3214
17.592840000000002 1.88 1.56 22.3214
17.592840000000002 1.66 1.56 22.3214
28.29636 1.6 1.56 40.1606
15.15888 1.5 1.56 18.2648
15.15888 1.48 1.56 18.2648
28.29636 1.42 1.56 40.1606
17.592840000000002 1.3 1.56 22.3214
17.592840000000002 1.28 1.56 22.3214
21.41664 1.18 1.56 28.6944
21.41664 1.16 1.56 28.6944
17.592840000000002 1.08 1.56 22.3214
17.592840000000002 1.06 1.56 22.3214
17.592840000000002 1.0 1.56 22.3214
17.592840000000002 0.94 1.56 22.3214
44.33376 0.4 1.56 66.8896
124.19999999999999 -0.18 1.56 200.0
124.19999999999999 -0.2 1.56 200.0
28.29636 -0.28 1.56 40.1606
28.29636 -0.3 1.56 40.1606
10.54584 -2.02 1.56 10.5764
28.29636 -2.38 1.56 40.1606
6.879768 -2.9 1.56 4.46628
21.41664 -3.42 1.56 28.6944
21.41664 -4.06 1.56 28.6944
17.592840000000002 -4.14 1.56 22.3214
44.33376 -4.94 1.56 66.8896
28.29636 -5.0 1.56 40.1606
21.41664 -5.08 1.56 28.6944
28.29636 -5.6 1.56 40.1606
28.29636 -5.62 1.56 40.1606
17.592840000000002 -5.94 1.56 22.3214
44.33376 5.92 1.54 66.8896
44.33376 5.9 1.54 66.8896
10.54584 4.62 1.54 10.5764
10.54584 4.6 1.54 10.5764
10.54584 3.8 1.54 10.5764
10.54584 3.78 1.54 10.5764
17.592840000000002 2.9 1.54 22.3214
21.41664 2.06 1.54 28.6944
28.29636 2.02 1.54 40.1606
17.592840000000002 1.9 1.54 22.3214
17.592840000000002 1.88 1.54 22.3214
124.19999999999999 1.78 1.54 200.0
17.592840000000002 1.66 1.54 22.3214
28.29636 1.6 1.54 40.1606
15.15888 1.5 1.54 18.2648
15.15888 1.48 1.54 18.2648
28.29636 1.42 1.54 40.1606
28.29636 1.38 1.54 40.1606
17.592840000000002 1.32 1.54 22.3214
17.592840000000002 1.3 1.54 22.3214
17.592840000000002 1.24 1.54 22.3214
21.41664 1.18 1.54 28.6944
44.33376 0.4 1.54 66.8896
124.19999999999999 -0.18 1.54 200.0
28.29636 -0.26 1.54 40.1606
28.29636 -0.28 1.54 40.1606
8.089788 -1.12 1.54 6.48298
28.29636 -2.34 1.54 40.1606
7.8540779999999994 -2.5 1.54 6.09013
15.15888 -2.58 1.54 18.2648
15.15888 -2.9 1.54 18.2648
13.4736 -3.0 1.54 15.456
21.41664 -3.42 1.54 28.6944
17.592840000000002 -3.78 1.54 22.3214
17.592840000000002 -4.14 1.54 22.3214
28.29636 -5.0 1.54 40.1606
44.33376 -5.54 1.54 66.8896
28.29636 -5.6 1.54 40.1606
28.29636 -5.62 1.54 40.1606
17.592840000000002 -5.94 1.54 22.3214
44.33376 5.92 1.52 66.8896
44.33376 5.9 1.52 66.8896
10.54584 4.66 1.52 10.5764
10.54584 4.62 1.52 10.5764
10.54584 4.6 1.52 10.5764
10.54584 3.96 1.52 10.5764
10.54584 3.8 1.52 10.5764
10.54584 3.78 1.52 10.5764
17.592840000000002 2.9 1.52 22.3214
17.592840000000002 2.88 1.52 22.3214
21.41664 2.1 1.52 28.6944
21.41664 2.06 1.52 28.6944
28.29636 2.02 1.52 40.1606
28.29636 2.0 1.52 40.1606
17.592840000000002 1.9 1.52 22.3214
17.592840000000002 1.88 1.52 22.3214
124.19999999999999 1.78 1.52 200.0
17.592840000000002 1.66 1.52 22.3214
28.29636 1.62 1.52 40.1606
28.29636 1.6 1.52 40.1606
15.15888 1.5 1.52 18.2648
17.592840000000002 1.48 1.52 22.3214
28.29636 1.42 1.52 40.1606
28.29636 1.38 1.52 40.1606
17.592840000000002 1.32 1.52 22.3214
17.592840000000002 1.3 1.52 22.3214
28.29636 1.24 1.52 40.1606
124.19999999999999 0.46 1.52 200.0
44.33376 0.4 1.52 66.8896
44.33376 -0.24 1.52 66.8896
44.33376 -0.26 1.52 66.8896
8.089788 -1.12 1.52 6.48298
28.29636 -1.56 1.52 40.1606
28.29636 -1.58 1.52 40.1606
21.41664 -2.72 1.52 28.6944
17.592840000000002 -2.88 1.52 22.3214
13.4736 -2.98 1.52 15.456
13.4736 -3.0 1.52 15.456
13.4736 -3.9 1.52 15.456
17.592840000000002 -4.28 1.52 22.3214
28.29636 -5.0 1.52 40.1606
44.33376 -5.54 1.52 66.8896
28.29636 -5.6 1.52 40.1606
28.29636 -5.62 1.52 40.1606
17.592840000000002 -5.94 1.52 22.3214
44.33376 5.92 1.5 66.8896
44.33376 5.9 1.5 66.8896
44.33376 4.88 1.5 66.8896
44.33376 4.86 1.5 66.8896
10.54584 4.62 1.5 10.5764
10.54584 4.6 1.5 10.5764
10.54584 3.96 1.5 10.5764
10.54584 3.8 1.5 10.5764
10.54584 3.78 1.5 10.5764
17.592840000000002 2.9 1.5 22.3214
28.29636 2.16 1.5 40.1606
21.41664 2.14 1.5 28.6944
21.41664 2.1 1.5 28.6944
28.29636 2.04 1.5 40.1606
28.29636 2.0 1.5 40.1606
17.592840000000002 1.88 1.5 22.3214
17.592840000000002 1.86 1.5 22.3214
17.592840000000002 1.66 1.5 22.3214
28.29636 1.62 1.5 40.1606
28.29636 1.6 1.5 40.1606
17.592840000000002 1.48 1.5 22.3214
28.29636 1.44 1.5 40.1606
28.29636 1.42 1.5 40.1606
17.592840000000002 1.32 1.5 22.3214
28.29636 1.26 1.5 40.1606
17.592840000000002 0.72 1.5 22.3214
124.19999999999999 0.46 1.5 200.0
124.19999999999999 0.44 1.5 200.0
44.33376 0.4 1.5 66.8896
44.33376 -0.24 1.5 66.8896
44.33376 -0.26 1.5 66.8896
17.592840000000002 -0.38 1.5 22.3214
17.592840000000002 -0.4 1.5 22.3214
8.089788 -1.12 1.5 6.48298
13.4736 -1.4 1.5 15.456
28.29636 -1.54 1.5 40.1606
28.29636 -1.56 1.5 40.1606
28.29636 -2.7 1.5 40.1606
17.592840000000002 -2.86 1.5 22.3214
13.4736 -2.94 1.5 15.456
13.4736 -2.98 1.5 15.456
11.29218 -3.1 1.5 11.8203
21.41664 -3.62 1.5 28.6944
17.592840000000002 -3.72 1.5 22.3214
17.592840000000002 -3.74 1.5 22.3214
17.592840000000002 -4.12 1.5 22.3214
44.33376 -4.94 1.5 66.8896
28.29636 -5.0 1.5 40.1606
21.41664 -5.08 1.5 28.6944
44.33376 -5.54 1.5 66.8896
28.29636 -5.6 1.5 40.1606
28.29636 -5.62 1.5 40.1606
44.33376 4.88 1.48 66.8896
44.33376 4.86 1.48 66.8896
10.54584 4.62 1.48 10.5764
10.54584 4.6 1.48 10.5764
12.23748 3.88 1.48 13.3958
10.54584 3.82 1.48 10.5764
10.54584 3.8 1.48 10.5764
10.54584 3.78 1.48 10.5764
17.592840000000002 2.9 1.48 22.3214
21.41664 2.1 1.48 28.6944
17.592840000000002 2.04 1.48 22.3214
28.29636 2.0 1.48 40.1606
28.29636 1.98 1.48 40.1606
17.592840000000002 1.86 1.48 22.3214
17.592840000000002 1.66 1.48 22.3214
28.29636 1.62 1.48 40.1606
28.29636 1.6 1.48 40.1606
28.29636 1.48 1.48 40.1606
28.29636 1.44 1.48 40.1606
28.29636 1.42 1.48 40.1606
17.592840000000002 1.34 1.48 22.3214
17.592840000000002 1.32 1.48 22.3214
44.33376 1.26 1.48 66.8896
17.592840000000002 0.74 1.48 22.3214
17.592840000000002 0.72 1.48 22.3214
124.19999999999999 0.46 1.48 200.0
124.19999999999999 0.44 1.48 200.0
44.33376 -0.24 1.48 66.8896
44.33376 -0.26 1.48 66.8896
13.4736 -1.4 1.48 15.456
28.29636 -1.52 1.48 40.1606
28.29636 -1.54 1.48 40.1606
28.29636 -1.56 1.48 40.1606
28.29636 -2.7 1.48 40.1606
17.592840000000002 -2.84 1.48 22.3214
15.15888 -2.92 1.48 18.2648
13.4736 -3.02 1.48 15.456
11.29218 -3.1 1.48 11.8203
28.29636 -3.54 1.48 40.1606
21.41664 -3.62 1.48 28.6944
17.592840000000002 -3.72 1.48 22.3214
17.592840000000002 -4.1 1.48 22.3214
28.29636 -5.0 1.48 40.1606
28.29636 -5.08 1.48 40.1606
28.29636 -5.18 1.48 40.1606
124.19999999999999 -5.48 1.48 200.0
44.33376 -5.54 1.48 66.8896
28.29636 -5.6 1.48 40.1606
17.592840000000002 -5.94 1.48 22.3214
44.33376 4.82 1.46 66.8896
10.54584 4.62 1.46 10.5764
10.54584 4.6 1.46 10.5764
10.54584 3.82 1.46 10.5764
10.54584 3.8 1.46 10.5764
17.592840000000002 3.52 1.46 22.3214
17.592840000000002 2.9 1.46 22.3214
21.41664 2.1 1.46 28.6944
17.592840000000002 2.02 1.46 22.3214
28.29636 1.98 1.46 40.1606
17.592840000000002 1.86 1.46 22.3214
17.592840000000002 1.84 1.46 22.3214
124.19999999999999 1.76 1.46 200.0
17.592840000000002 1.66 1.46 22.3214
28.29636 1.6 1.46 40.1606
28.29636 1.44 1.46 40.1606
17.592840000000002 1.34 1.46 22.3214
17.592840000000002 1.32 1.46 22.3214
44.33376 1.24 1.46 66.8896
21.41664 0.78 1.46 28.6944
44.33376 -0.22 1.46 66.8896
44.33376 -0.24 1.46 66.8896
44.33376 -0.42 1.46 66.8896
13.4736 -1.4 1.46 15.456
28.29636 -1.54 1.46 40.1606
28.29636 -1.56 1.46 40.1606
28.29636 -1.98 1.46 40.1606
44.33376 -2.38 1.46 66.8896
28.29636 -2.68 1.46 40.1606
17.592840000000002 -2.82 1.46 22.3214
13.4736 -2.92 1.46 15.456
12.23748 -3.02 1.46 13.3958
11.29218 -3.08 1.46 11.8203
17.592840000000002 -4.1 1.46 22.3214
44.33376 -4.94 1.46 66.8896
28.29636 -5.0 1.46 40.1606
28.29636 -5.12 1.46 40.1606
28.29636 -5.14 1.46 40.1606
28.29636 -5.6 1.46 40.1606
28.29636 -5.62 1.46 40.1606
44.33376 5.72 1.44 66.8896
44.33376 5.66 1.44 66.8896
44.33376 5.64 1.44 66.8896
28.29636 5.08 1.44 40.1606
44.33376 4.76 1.44 66.8896
10.54584 4.62 1.44 10.5764
9.442464 4.52 1.44 8.73744
10.54584 3.96 1.44 10.5764
10.54584 3.82 1.44 10.5764
10.54584 3.8 1.44 10.5764
17.592840000000002 2.02 1.44 22.3214
28.29636 1.96 1.44 40.1606
17.592840000000002 1.86 1.44 22.3214
17.592840000000002 1.84 1.44 22.3214
17.592840000000002 1.66 1.44 22.3214
28.29636 1.6 1.44 40.1606
28.29636 1.44 1.44 40.1606
17.592840000000002 1.36 1.44 22.3214
17.592840000000002 1.34 1.44 22.3214
44.33376 1.24 1.44 66.8896
44.33376 1.22 1.44 66.8896
44.33376 0.46 1.44 66.8896
44.33376 -0.22 1.44 66.8896
44.33376 -0.24 1.44 66.8896
28.29636 -0.3 1.44 40.1606
44.33376 -0.36 1.44 66.8896
44.33376 -0.4 1.44 66.8896
44.33376 -0.42 1.44 66.8896
28.29636 -1.12 1.44 40.1606
13.4736 -1.4 1.44 15.456
28.29636 -1.54 1.44 40.1606
28.29636 -1.98 1.44 40.1606
28.29636 -2.04 1.44 40.1606
44.33376 -2.36 1.44 66.8896
17.592840000000002 -2.8 1.44 22.3214
13.4736 -2.9 1.44 15.456
12.23748 -3.0 1.44 13.3958
17.592840000000002 -4.1 1.44 22.3214
44.33376 -4.94 1.44 66.8896
28.29636 -5.0 1.44 40.1606
28.29636 -5.12 1.44 40.1606
28.29636 -5.14 1.44 40.1606
124.19999999999999 -5.48 1.44 200.0
28.29636 -5.6 1.44 40.1606
28.29636 -5.62 1.44 40.1606
17.592840000000002 -5.94 1.44 22.3214
44.33376 5.72 1.42 66.8896
44.33376 5.66 1.42 66.8896
44.33376 5.64 1.42 66.8896
28.29636 5.08 1.42 40.1606
44.33376 4.76 1.42 66.8896
10.54584 4.62 1.42 10.5764
9.442464 4.52 1.42 8.73744
10.54584 3.96 1.42 10.5764
10.54584 3.92 1.42 10.5764
10.54584 3.82 1.42 10.5764
10.54584 3.8 1.42 10.5764
17.592840000000002 2.0 1.42 22.3214
28.29636 1.96 1.42 40.1606
28.29636 1.94 1.42 40.1606
17.592840000000002 1.84 1.42 22.3214
17.592840000000002 1.82 1.42 22.3214
17.592840000000002 1.66 1.42 22.3214
28.29636 1.6 1.42 40.1606
17.592840000000002 1.36 1.42 22.3214
17.592840000000002 1.34 1.42 22.3214
44.33376 0.44 1.42 66.8896
44.33376 0.42 1.42 66.8896
44.33376 -0.2 1.42 66.8896
44.33376 -0.22 1.42 66.8896
44.33376 -0.38 1.42 66.8896
28.29636 -1.16 1.42 40.1606
13.4736 -1.4 1.42 15.456
17.592840000000002 -1.54 1.42 22.3214
17.592840000000002 -1.56 1.42 22.3214
28.29636 -1.96 1.42 40.1606
44.33376 -2.34 1.42 66.8896
124.19999999999999 -2.52 1.42 200.0
17.592840000000002 -2.78 1.42 22.3214
13.4736 -2.88 1.42 15.456
12.23748 -2.98 1.42 13.3958
44.33376 -4.94 1.42 66.8896
28.29636 -5.0 1.42 40.1606
28.29636 -5.12 1.42 40.1606
28.29636 -5.6 1.42 40.1606
28.29636 -5.62 1.42 40.1606
44.33376 5.66 1.4 66.8896
44.33376 4.76 1.4 66.8896
10.54584 4.62 1.4 10.5764
10.54584 3.96 1.4 10.5764
12.23748 3.9 1.4 13.3958
10.54584 3.84 1.4 10.5764
10.54584 3.82 1.4 10.5764
10.54584 3.8 1.4 10.5764
17.592840000000002 3.38 1.4 22.3214
17.592840000000002 2.94 1.4 22.3214
17.592840000000002 2.0 1.4 22.3214
17.592840000000002 1.98 1.4 22.3214
28.29636 1.94 1.4 40.1606
17.592840000000002 1.84 1.4 22.3214
17.592840000000002 1.82 1.4 22.3214
28.29636 1.76 1.4 40.1606
17.592840000000002 1.66 1.4 22.3214
28.29636 1.6 1.4 40.1606
17.592840000000002 1.36 1.4 22.3214
17.592840000000002 1.34 1.4 22.3214
44.33376 0.44 1.4 66.8896
44.33376 0.4 1.4 66.8896
28.29636 -0.2 1.4 40.1606
28.29636 -0.22 1.4 40.1606
44.33376 -0.38 1.4 66.8896
28.29636 -1.16 1.4 40.1606
21.41664 -1.22 1.4 28.6944
28.29636 -1.4 1.4 40.1606
17.592840000000002 -1.54 1.4 22.3214
17.592840000000002 -1.56 1.4 22.3214
44.33376 -2.32 1.4 66.8896
44.33376 -2.38 1.4 66.8896
124.19999999999999 -2.5 1.4 200.0
17.592840000000002 -2.76 1.4 22.3214
13.4736 -2.86 1.4 15.456
12.23748 -2.96 1.4 13.3958
9.442464 -3.2 1.4 8.73744
21.41664 -4.02 1.4 28.6944
28.29636 -4.36 1.4 40.1606
44.33376 -4.94 1.4 66.8896
28.29636 -5.0 1.4 40.1606
44.33376 -5.54 1.4 66.8896
28.29636 -5.6 1.4 40.1606
28.29636 -5.62 1.4 40.1606
44.33376 5.42 1.38 66.8896
28.29636 5.08 1.38 40.1606
44.33376 4.76 1.38 66.8896
10.54584 4.62 1.38 10.5764
10.54584 3.84 1.38 10.5764
10.54584 3.82 1.38 10.5764
10.54584 3.8 1.38 10.5764
17.592840000000002 3.38 1.38 22.3214
17.592840000000002 3.1 1.38 22.3214
21.41664 2.96 1.38 28.6944
44.33376 2.84 1.38 66.8896
17.592840000000002 1.98 1.38 22.3214
28.29636 1.94 1.38 40.1606
28.29636 1.92 1.38 40.1606
17.592840000000002 1.82 1.38 22.3214
17.592840000000002 1.8 1.38 22.3214
28.29636 1.76 1.38 40.1606
17.592840000000002 1.66 1.38 22.3214
17.592840000000002 1.64 1.38 22.3214
17.592840000000002 1.36 1.38 22.3214
17.592840000000002 1.34 1.38 22.3214
124.19999999999999 1.26 1.38 200.0
44.33376 0.42 1.38 66.8896
44.33376 0.38 1.38 66.8896
28.29636 -0.2 1.38 40.1606
28.29636 -0.22 1.38 40.1606
44.33376 -0.38 1.38 66.8896
28.29636 -1.16 1.38 40.1606
21.41664 -1.22 1.38 28.6944
28.29636 -1.4 1.38 40.1606
17.592840000000002 -1.54 1.38 22.3214
17.592840000000002 -1.56 1.38 22.3214
44.33376 -2.38 1.38 66.8896
44.33376 -2.54 1.38 66.8896
21.41664 -2.66 1.38 28.6944
17.592840000000002 -2.74 1.38 22.3214
13.4736 -2.84 1.38 15.456
12.23748 -2.92 1.38 13.3958
12.23748 -2.94 1.38 13.3958
9.941628000000001 -3.12 1.38 9.56938
9.442464 -3.2 1.38 8.73744
15.15888 -3.82 1.38 18.2648
44.33376 -4.3 1.38 66.8896
44.33376 -4.9 1.38 66.8896
28.29636 -5.0 1.38 40.1606
124.19999999999999 -5.48 1.38 200.0
44.33376 -5.54 1.38 66.8896
28.29636 -5.6 1.38 40.1606
28.29636 -5.62 1.38 40.1606
44.33376 5.44 1.36 66.8896
44.33376 5.42 1.36 66.8896
124.19999999999999 5.3 1.36 200.0
28.29636 5.08 1.36 40.1606
44.33376 4.76 1.36 66.8896
10.54584 4.62 1.36 10.5764
10.54584 3.84 1.36 10.5764
10.54584 3.82 1.36 10.5764
10.54584 3.8 1.36 10.5764
17.592840000000002 3.12 1.36 22.3214
21.41664 3.0 1.36 28.6944
44.33376 2.86 1.36 66.8896
44.33376 2.84 1.36 66.8896
17.592840000000002 1.96 1.36 22.3214
28.29636 1.92 1.36 40.1606
17.592840000000002 1.8 1.36 22.3214
17.592840000000002 1.76 1.36 22.3214
28.29636 1.74 1.36 40.1606
17.592840000000002 1.66 1.36 22.3214
17.592840000000002 1.36 1.36 22.3214
17.592840000000002 1.34 1.36 22.3214
124.19999999999999 1.26 1.36 200.0
44.33376 0.42 1.36 66.8896
44.33376 0.4 1.36 66.8896
44.33376 0.38 1.36 66.8896
124.19999999999999 -0.12 1.36 200.0
28.29636 -0.22 1.36 40.1606
28.29636 -1.16 1.36 40.1606
21.41664 -1.24 1.36 28.6944
28.29636 -1.4 1.36 40.1606
17.592840000000002 -1.54 1.36 22.3214
17.592840000000002 -1.56 1.36 22.3214
28.29636 -2.38 1.36 40.1606
44.33376 -2.52 1.36 66.8896
21.41664 -2.64 1.36 28.6944
21.41664 -2.66 1.36 28.6944
17.592840000000002 -2.72 1.36 22.3214
13.4736 -2.82 1.36 15.456
12.23748 -2.9 1.36 13.3958
12.23748 -2.92 1.36 13.3958
12.23748 -2.98 1.36 13.3958
17.592840000000002 -3.74 1.36 22.3214
17.592840000000002 -4.08 1.36 22.3214
44.33376 -4.82 1.36 66.8896
28.29636 -4.9 1.36 40.1606
21.41664 -5.0 1.36 28.6944
124.19999999999999 -5.48 1.36 200.0
44.33376 -5.54 1.36 66.8896
28.29636 -5.6 1.36 40.1606
28.29636 -5.62 1.36 40.1606
44.33376 5.44 1.34 66.8896
124.19999999999999 5.28 1.34 200.0
28.29636 5.08 1.34 40.1606
44.33376 4.76 1.34 66.8896
10.54584 4.62 1.34 10.5764
10.54584 3.84 1.34 10.5764
10.54584 3.82 1.34 10.5764
10.54584 3.8 1.34 10.5764
21.41664 3.02 1.34 28.6944
21.41664 3.0 1.34 28.6944
44.33376 2.94 1.34 66.8896
17.592840000000002 1.96 1.34 22.3214
28.29636 1.92 1.34 40.1606
28.29636 1.9 1.34 40.1606
17.592840000000002 1.8 1.34 22.3214
17.592840000000002 1.78 1.34 22.3214
21.41664 1.74 1.34 28.6944
17.592840000000002 1.66 1.34 22.3214
17.592840000000002 1.36 1.34 22.3214
17.592840000000002 1.34 1.34 22.3214
124.19999999999999 1.28 1.34 200.0
124.19999999999999 1.26 1.34 200.0
44.33376 0.4 1.34 66.8896
28.29636 -0.2 1.34 40.1606
28.29636 -0.22 1.34 40.1606
9.941628000000001 -0.68 1.34 9.56938
28.29636 -1.16 1.34 40.1606
28.29636 -1.4 1.34 40.1606
17.592840000000002 -1.54 1.34 22.3214
17.592840000000002 -1.56 1.34 22.3214
28.29636 -2.36 1.34 40.1606
28.29636 -2.38 1.34 40.1606
44.33376 -2.5 1.34 66.8896
21.41664 -2.62 1.34 28.6944
21.41664 -2.64 1.34 28.6944
17.592840000000002 -2.76 1.34 22.3214
13.4736 -2.82 1.34 15.456
17.592840000000002 -4.06 1.34 22.3214
44.33376 -4.82 1.34 66.8896
124.19999999999999 -5.48 1.34 200.0
44.33376 -5.54 1.34 66.8896
28.29636 -5.6 1.34 40.1606
28.29636 -5.62 1.34 40.1606
44.33376 5.26 1.32 66.8896
44.33376 5.22 1.32 66.8896
28.29636 5.08 1.32 40.1606
44.33376 4.76 1.32 66.8896
10.54584 4.62 1.32 10.5764
12.23748 3.92 1.32 13.3958
10.54584 3.84 1.32 10.5764
10.54584 3.82 1.32 10.5764
21.41664 3.08 1.32 28.6944
17.592840000000002 2.0 1.32 22.3214
17.592840000000002 1.96 1.32 22.3214
17.592840000000002 1.94 1.32 22.3214
28.29636 1.9 1.32 40.1606
28.29636 1.88 1.32 40.1606
17.592840000000002 1.78 1.32 22.3214
21.41664 1.76 1.32 28.6944
17.592840000000002 1.68 1.32 22.3214
17.592840000000002 1.66 1.32 22.3214
124.19999999999999 1.54 1.32 200.0
17.592840000000002 1.38 1.32 22.3214
17.592840000000002 1.36 1.32 22.3214
124.19999999999999 1.28 1.32 200.0
124.19999999999999 1.26 1.32 200.0
44.33376 0.4 1.32 66.8896
44.33376 0.36 1.32 66.8896
21.41664 0.26 1.32 28.6944
28.29636 -0.18 1.32 40.1606
28.29636 -0.22 1.32 40.1606
9.941628000000001 -0.68 1.32 9.56938
28.29636 -1.16 1.32 40.1606
21.41664 -1.24 1.32 28.6944
28.29636 -1.4 1.32 40.1606
17.592840000000002 -1.54 1.32 22.3214
17.592840000000002 -1.56 1.32 22.3214
124.19999999999999 -2.38 1.32 200.0
28.29636 -2.54 1.32 40.1606
15.15888 -2.62 1.32 18.2648
28.29636 -3.04 1.32 40.1606
17.592840000000002 -4.02 1.32 22.3214
44.33376 -4.72 1.32 66.8896
28.29636 -5.12 1.32 40.1606
124.19999999999999 -5.48 1.32 200.0
44.33376 -5.54 1.32 66.8896
28.29636 -5.6 1.32 40.1606
28.29636 -5.62 1.32 40.1606
124.19999999999999 5.24 1.3 200.0
44.33376 5.22 1.3 66.8896
28.29636 5.08 1.3 40.1606
44.33376 4.76 1.3 66.8896
10.54584 4.62 1.3 10.5764
10.54584 3.84 1.3 10.5764
10.54584 3.82 1.3 10.5764
17.592840000000002 1.96 1.3 22.3214
17.592840000000002 1.94 1.3 22.3214
28.29636 1.88 1.3 40.1606
21.41664 1.76 1.3 28.6944
21.41664 1.74 1.3 28.6944
21.41664 1.72 1.3 28.6944
21.41664 1.68 1.3 28.6944
124.19999999999999 1.54 1.3 200.0
17.592840000000002 1.38 1.3 22.3214
17.592840000000002 1.36 1.3 22.3214
124.19999999999999 1.3 1.3 200.0
124.19999999999999 1.28 1.3 200.0
124.19999999999999 1.26 1.3 200.0
44.33376 0.38 1.3 66.8896
44.33376 0.36 1.3 66.8896
28.29636 -0.18 1.3 40.1606
28.29636 -0.22 1.3 40.1606
15.15888 -0.34 1.3 18.2648
15.15888 -0.38 1.3 18.2648
9.941628000000001 -0.68 1.3 9.56938
28.29636 -1.16 1.3 40.1606
21.41664 -1.24 1.3 28.6944
28.29636 -1.4 1.3 40.1606
17.592840000000002 -1.54 1.3 22.3214
17.592840000000002 -1.56 1.3 22.3214
28.29636 -2.52 1.3 40.1606
17.592840000000002 -2.56 1.3 22.3214
15.15888 -2.64 1.3 18.2648
15.15888 -2.66 1.3 18.2648
44.33376 -2.94 1.3 66.8896
17.592840000000002 -4.02 1.3 22.3214
28.29636 -4.32 1.3 40.1606
44.33376 -4.96 1.3 66.8896
28.29636 -5.02 1.3 40.1606
28.29636 -5.12 1.3 40.1606
124.19999999999999 -5.48 1.3 200.0
44.33376 -5.54 1.3 66.8896
28.29636 -5.6 1.3 40.1606
28.29636 -5.62 1.3 40.1606
44.33376 5.22 1.28 66.8896
28.29636 5.08 1.28 40.1606
44.33376 4.76 1.28 66.8896
10.54584 4.62 1.28 10.5764
10.54584 3.86 1.28 10.5764
10.54584 3.84 1.28 10.5764
10.54584 3.82 1.28 10.5764
28.29636 1.88 1.28 40.1606
21.41664 1.74 1.28 28.6944
21.41664 1.72 1.28 28.6944
124.19999999999999 1.54 1.28 200.0
124.19999999999999 1.52 1.28 200.0
17.592840000000002 1.4 1.28 22.3214
17.592840000000002 1.38 1.28 22.3214
124.19999999999999 1.3 1.28 200.0
124.19999999999999 1.26 1.28 200.0
124.19999999999999 0.48 1.28 200.0
124.19999999999999 0.44 1.28 200.0
44.33376 0.38 1.28 66.8896
28.29636 0.34 1.28 40.1606
28.29636 -0.18 1.28 40.1606
28.29636 -0.2 1.28 40.1606
28.29636 -0.22 1.28 40.1606
15.15888 -0.34 1.28 18.2648
15.15888 -0.38 1.28 18.2648
124.19999999999999 -1.04 1.28 200.0
28.29636 -1.16 1.28 40.1606
21.41664 -1.24 1.28 28.6944
28.29636 -1.4 1.28 40.1606
17.592840000000002 -1.54 1.28 22.3214
17.592840000000002 -1.56 1.28 22.3214
28.29636 -1.98 1.28 40.1606
21.41664 -2.06 1.28 28.6944
17.592840000000002 -2.56 1.28 22.3214
13.4736 -2.64 1.28 15.456
13.4736 -2.66 1.28 15.456
44.33376 -2.94 1.28 66.8896
17.592840000000002 -4.02 1.28 22.3214
44.33376 -4.96 1.28 66.8896
28.29636 -5.02 1.28 40.1606
28.29636 -5.12 1.28 40.1606
124.19999999999999 -5.48 1.28 200.0
28.29636 -5.6 1.28 40.1606
28.29636 -5.62 1.28 40.1606
44.33376 4.76 1.26 66.8896
10.54584 4.62 1.26 10.5764
10.54584 4.0 1.26 10.5764
10.54584 3.86 1.26 10.5764
10.54584 3.84 1.26 10.5764
10.54584 3.82 1.26 10.5764
21.41664 1.92 1.26 28.6944
21.41664 1.88 1.26 28.6944
17.592840000000002 1.86 1.26 22.3214
124.19999999999999 1.66 1.26 200.0
124.19999999999999 1.64 1.26 200.0
17.592840000000002 1.42 1.26 22.3214
17.592840000000002 1.4 1.26 22.3214
124.19999999999999 1.3 1.26 200.0
124.19999999999999 1.26 1.26 200.0
124.19999999999999 0.48 1.26 200.0
124.19999999999999 0.44 1.26 200.0
44.33376 0.36 1.26 66.8896
44.33376 0.34 1.26 66.8896
28.29636 -0.18 1.26 40.1606
28.29636 -0.2 1.26 40.1606
15.15888 -0.38 1.26 18.2648
124.19999999999999 -1.04 1.26 200.0
28.29636 -1.16 1.26 40.1606
21.41664 -1.24 1.26 28.6944
28.29636 -1.4 1.26 40.1606
17.592840000000002 -1.56 1.26 22.3214
17.592840000000002 -2.56 1.26 22.3214
13.4736 -2.66 1.26 15.456
44.33376 -2.94 1.26 66.8896
28.29636 -3.06 1.26 40.1606
11.29218 -3.12 1.26 11.8203
11.29218 -3.14 1.26 11.8203
17.592840000000002 -4.02 1.26 22.3214
44.33376 -4.92 1.26 66.8896
124.19999999999999 -5.48 1.26 200.0
44.33376 -5.54 1.26 66.8896
28.29636 -5.6 1.26 40.1606
28.29636 -5.62 1.26 40.1606
12.23748 4.92 1.24 13.3958
12.23748 4.8 1.24 13.3958
10.54584 4.64 1.24 10.5764
10.54584 4.62 1.24 10.5764
10.54584 4.0 1.24 10.5764
10.54584 3.86 1.24 10.5764
10.54584 3.84 1.24 10.5764
10.54584 3.82 1.24 10.5764
17.592840000000002 3.44 1.24 22.3214
17.592840000000002 1.86 1.24 22.3214
124.19999999999999 1.66 1.24 200.0
124.19999999999999 1.64 1.24 200.0
124.19999999999999 1.62 1.24 200.0
17.592840000000002 1.42 1.24 22.3214
17.592840000000002 1.4 1.24 22.3214
124.19999999999999 1.3 1.24 200.0
124.19999999999999 1.26 1.24 200.0
44.33376 1.24 1.24 66.8896
124.19999999999999 0.44 1.24 200.0
124.19999999999999 0.42 1.24 200.0
44.33376 0.36 1.24 66.8896
44.33376 0.34 1.24 66.8896
44.33376 -0.16 1.24 66.8896
44.33376 -0.18 1.24 66.8896
28.29636 -0.2 1.24 40.1606
124.19999999999999 -1.04 1.24 200.0
28.29636 -1.16 1.24 40.1606
28.29636 -1.4 1.24 40.1606
28.29636 -1.42 1.24 40.1606
17.592840000000002 -1.56 1.24 22.3214
28.29636 -2.4 1.24 40.1606
17.592840000000002 -2.56 1.24 22.3214
13.4736 -2.66 1.24 15.456
44.33376 -2.94 1.24 66.8896
44.33376 -2.96 1.24 66.8896
28.29636 -3.04 1.24 40.1606
11.29218 -3.12 1.24 11.8203
13.4736 -3.32 1.24 15.456
44.33376 -4.84 1.24 66.8896
44.33376 -5.54 1.24 66.8896
28.29636 -5.6 1.24 40.1606
28.29636 -5.62 1.24 40.1606
44.33376 5.74 1.22 66.8896
44.33376 5.66 1.22 66.8896
44.33376 5.64 1.22 66.8896
12.23748 4.92 1.22 13.3958
12.23748 4.8 1.22 13.3958
10.54584 4.64 1.22 10.5764
12.23748 3.94 1.22 13.3958
12.23748 3.92 1.22 13.3958
10.54584 3.86 1.22 10.5764
10.54584 3.84 1.22 10.5764
10.54584 3.82 1.22 10.5764
21.41664 3.52 1.22 28.6944
17.592840000000002 1.86 1.22 22.3214
17.592840000000002 1.84 1.22 22.3214
124.19999999999999 1.62 1.22 200.0
17.592840000000002 1.42 1.22 22.3214
124.19999999999999 1.3 1.22 200.0
124.19999999999999 1.28 1.22 200.0
44.33376 0.36 1.22 66.8896
44.33376 0.34 1.22 66.8896
44.33376 -0.16 1.22 66.8896
44.33376 -0.18 1.22 66.8896
44.33376 -0.76 1.22 66.8896
124.19999999999999 -1.04 1.22 200.0
44.33376 -1.14 1.22 66.8896
44.33376 -1.16 1.22 66.8896
28.29636 -1.18 1.22 40.1606
28.29636 -1.2 1.22 40.1606
21.41664 -1.24 1.22 28.6944
21.41664 -1.28 1.22 28.6944
44.33376 -1.34 1.22 66.8896
28.29636 -1.4 1.22 40.1606
28.29636 -2.38 1.22 40.1606
28.29636 -2.4 1.22 40.1606
17.592840000000002 -2.56 1.22 22.3214
13.4736 -2.66 1.22 15.456
44.33376 -2.94 1.22 66.8896
28.29636 -3.04 1.22 40.1606
13.4736 -3.32 1.22 15.456
17.592840000000002 -3.98 1.22 22.3214
44.33376 -4.74 1.22 66.8896
44.33376 -4.84 1.22 66.8896
28.29636 -4.9 1.22 40.1606
28.29636 -5.0 1.22 40.1606
44.33376 -5.54 1.22 66.8896
28.29636 -5.6 1.22 40.1606
28.29636 -5.62 1.22 40.1606
44.33376 5.74 1.2 66.8896
44.33376 5.66 1.2 66.8896
44.33376 5.64 1.2 66.8896
12.23748 5.06 1.2 13.3958
12.23748 4.8 1.2 13.3958
10.54584 4.64 1.2 10.5764
12.23748 3.92 1.2 13.3958
10.54584 3.86 1.2 10.5764
10.54584 3.84 1.2 10.5764
10.54584 3.82 1.2 10.5764
17.592840000000002 1.84 1.2 22.3214
17.592840000000002 1.82 1.2 22.3214
17.592840000000002 1.44 1.2 22.3214
17.592840000000002 1.42 1.2 22.3214
124.19999999999999 1.3 1.2 200.0
44.33376 1.12 1.2 66.8896
44.33376 0.44 1.2 66.8896
44.33376 0.38 1.2 66.8896
44.33376 0.36 1.2 66.8896
44.33376 -0.14 1.2 66.8896
44.33376 -0.16 1.2 66.8896
124.19999999999999 -0.66 1.2 200.0
44.33376 -0.72 1.2 66.8896
44.33376 -0.74 1.2 66.8896
124.19999999999999 -1.02 1.2 200.0
124.19999999999999 -1.04 1.2 200.0
44.33376 -1.12 1.2 66.8896
44.33376 -1.14 1.2 66.8896
44.33376 -1.16 1.2 66.8896
44.33376 -1.34 1.2 66.8896
28.29636 -2.4 1.2 40.1606
17.592840000000002 -2.56 1.2 22.3214
13.4736 -2.64 1.2 15.456
13.4736 -2.66 1.2 15.456
44.33376 -2.94 1.2 66.8896
28.29636 -3.04 1.2 40.1606
17.592840000000002 -3.98 1.2 22.3214
44.33376 -4.7 1.2 66.8896
44.33376 -4.74 1.2 66.8896
28.29636 -4.9 1.2 40.1606
28.29636 -4.96 1.2 40.1606
28.29636 -5.12 1.2 40.1606
124.19999999999999 -5.38 1.2 200.0
44.33376 -5.54 1.2 66.8896
28.29636 -5.6 1.2 40.1606
28.29636 -5.62 1.2 40.1606
44.33376 5.74 1.18 66.8896
44.33376 5.66 1.18 66.8896
44.33376 5.64 1.18 66.8896
44.33376 5.54 1.18 66.8896
12.23748 5.08 1.18 13.3958
12.23748 5.06 1.18 13.3958
12.23748 4.8 1.18 13.3958
10.54584 4.66 1.18 10.5764
10.54584 4.64 1.18 10.5764
10.54584 4.32 1.18 10.5764
10.54584 3.86 1.18 10.5764
10.54584 3.84 1.18 10.5764
10.54584 3.82 1.18 10.5764
44.33376 3.46 1.18 66.8896
17.592840000000002 1.82 1.18 22.3214
17.592840000000002 1.8 1.18 22.3214
17.592840000000002 1.44 1.18 22.3214
17.592840000000002 1.42 1.18 22.3214
124.19999999999999 1.3 1.18 200.0
124.19999999999999 1.26 1.18 200.0
124.19999999999999 1.24 1.18 200.0
44.33376 1.18 1.18 66.8896
44.33376 0.46 1.18 66.8896
44.33376 0.44 1.18 66.8896
44.33376 -0.12 1.18 66.8896
21.41664 -0.22 1.18 28.6944
44.33376 -0.4 1.18 66.8896
124.19999999999999 -0.66 1.18 200.0
44.33376 -0.72 1.18 66.8896
124.19999999999999 -1.02 1.18 200.0
124.19999999999999 -1.04 1.18 200.0
44.33376 -1.1 1.18 66.8896
44.33376 -1.12 1.18 66.8896
21.41664 -1.28 1.18 28.6944
17.592840000000002 -2.56 1.18 22.3214
