VERSION .7
FIELDS x y z rgb
SIZE 4 4 4 4
TYPE F F F F
COUNT 1 1 1 1
WIDTH 904
HEIGHT 1
VIEWPOINT 0 0 0 1 0 0 0
POINTS 904
DATA ascii
5.710500000000001 -0.8 -4.24 5000004.27625
5.710500000000001 -3.76 -4.24 5000004.27625
5.640688000000001 4.94 -4.26 5000004.10172
5.640688000000001 4.38 -4.26 5000004.10172
5.640688000000001 4.36 -4.26 5000004.10172
5.710500000000001 -3.76 -4.26 5000004.27625
5.710500000000001 -3.78 -4.26 5000004.27625
5.5763560000000005 5.22 -4.28 5000003.94089
5.640688000000001 4.94 -4.28 5000004.10172
5.710500000000001 4.42 -4.28 5000004.27625
5.640688000000001 4.38 -4.28 5000004.10172
5.640688000000001 4.36 -4.28 5000004.10172
5.640688000000001 4.34 -4.28 5000004.10172
5.640688000000001 4.32 -4.28 5000004.10172
5.46172 4.18 -4.28 5000003.6543
5.46172 4.16 -4.28 5000003.6543
5.710500000000001 -3.88 -4.28 5000004.27625
5.640688000000001 4.94 -4.3 5000004.10172
5.710500000000001 3.32 -4.3 5000004.27625
5.640688000000001 4.94 -4.32 5000004.10172
5.640688000000001 4.04 -4.32 5000004.10172
5.640688000000001 4.94 -4.34 5000004.10172
5.640688000000001 4.14 -4.34 5000004.10172
5.640688000000001 1.64 -4.34 5000004.10172
5.640688000000001 4.46 -4.36 5000004.10172
5.640688000000001 4.18 -4.36 5000004.10172
5.640688000000001 4.16 -4.36 5000004.10172
5.640688000000001 4.1 -4.36 5000004.10172
5.640688000000001 4.08 -4.36 5000004.10172
5.640688000000001 1.64 -4.36 5000004.10172
5.640688000000001 1.62 -4.36 5000004.10172
5.5763560000000005 4.82 -4.38 5000003.94089
5.640688000000001 3.22 -4.38 5000004.10172
5.516876 5.52 -4.4 5000003.79219
5.5763560000000005 4.9 -4.4 5000003.94089
5.5763560000000005 4.88 -4.4 5000003.94089
5.516876 5.52 -4.42 5000003.79219
5.5763560000000005 4.9 -4.42 5000003.94089
5.5763560000000005 4.88 -4.42 5000003.94089
5.5763560000000005 4.9 -4.44 5000003.94089
5.5763560000000005 4.88 -4.44 5000003.94089
5.5763560000000005 4.86 -4.44 5000003.94089
5.5763560000000005 4.84 -4.44 5000003.94089
5.5763560000000005 3.9 -4.44 5000003.94089
5.640688000000001 -3.62 -4.44 5000004.10172
5.5763560000000005 3.88 -4.46 5000003.94089
5.5763560000000005 4.96 -4.48 5000003.94089
5.5763560000000005 4.94 -4.48 5000003.94089
5.5763560000000005 4.6 -4.48 5000003.94089
5.5763560000000005 4.5 -4.48 5000003.94089
5.5763560000000005 4.48 -4.48 5000003.94089
5.5763560000000005 3.86 -4.48 5000003.94089
5.5763560000000005 4.6 -4.5 5000003.94089
5.5763560000000005 4.58 -4.5 5000003.94089
5.5763560000000005 5.26 -4.52 5000003.94089
5.5763560000000005 4.64 -4.52 5000003.94089
5.5763560000000005 4.62 -4.52 5000003.94089
5.5763560000000005 4.6 -4.52 5000003.94089
5.5763560000000005 4.58 -4.52 5000003.94089
5.710500000000001 3.56 -4.52 5000004.27625
5.640688000000001 4.68 -4.54 5000004.10172
5.5763560000000005 4.66 -4.54 5000003.94089
5.5763560000000005 4.62 -4.54 5000003.94089
5.5763560000000005 4.58 -4.54 5000003.94089
5.5763560000000005 3.48 -4.54 5000003.94089
5.5763560000000005 3.46 -4.54 5000003.94089
5.5763560000000005 -2.34 -4.54 5000003.94089
5.5763560000000005 4.06 -4.56 5000003.94089
5.5763560000000005 4.78 -4.6 5000003.94089
5.5763560000000005 4.76 -4.6 5000003.94089
5.516876 4.7 -4.6 5000003.79219
5.516876 4.66 -4.6 5000003.79219
5.5763560000000005 -3.58 -4.6 5000003.94089
5.516876 4.72 -4.62 5000003.79219
5.516876 4.7 -4.62 5000003.79219
5.516876 4.68 -4.62 5000003.79219
5.516876 3.62 -4.62 5000003.79219
5.516876 3.62 -4.64 5000003.79219
5.516876 3.6 -4.64 5000003.79219
5.516876 3.56 -4.64 5000003.79219
5.516876 4.48 -4.66 5000003.79219
5.5763560000000005 3.98 -4.66 5000003.94089
5.516876 3.96 -4.66 5000003.79219
5.516876 4.72 -4.7 5000003.79219
5.516876 4.0 -4.7 5000003.79219
5.516876 3.94 -4.7 5000003.79219
5.516876 3.92 -4.7 5000003.79219
5.516876 4.0 -4.72 5000003.79219
5.516876 3.98 -4.72 5000003.79219
5.516876 3.92 -4.72 5000003.79219
5.516876 -2.92 -4.72 5000003.79219
5.516876 -3.42 -4.72 5000003.79219
5.516876 -3.44 -4.72 5000003.79219
5.516876 3.98 -4.74 5000003.79219
5.516876 3.96 -4.74 5000003.79219
5.516876 3.94 -4.74 5000003.79219
5.516876 4.58 -4.76 5000003.79219
5.5763560000000005 5.26 -4.78 5000003.94089
5.516876 4.56 -4.78 5000003.79219
5.516876 -6.64 -4.78 5000003.79219
5.516876 -6.66 -4.78 5000003.79219
5.5763560000000005 5.26 -4.8 5000003.94089
5.5763560000000005 5.26 -4.82 5000003.94089
5.46172 2.1 -4.84 5000003.6543
5.46172 5.28 -4.86 5000003.6543
5.46172 5.26 -4.86 5000003.6543
5.46172 5.24 -4.86 5000003.6543
5.46172 5.34 -4.88 5000003.6543
5.46172 5.24 -4.88 5000003.6543
5.46172 -1.02 -4.88 5000003.6543
5.46172 5.36 -4.9 5000003.6543
5.46172 5.24 -4.9 5000003.6543
5.410436 5.22 -4.9 5000003.52609
5.46172 3.5 -4.9 5000003.6543
5.46172 3.0 -4.9 5000003.6543
5.46172 1.5 -4.9 5000003.6543
5.46172 0.38 -4.9 5000003.6543
5.46172 -0.82 -4.9 5000003.6543
5.46172 -4.14 -4.9 5000003.6543
5.46172 5.38 -4.92 5000003.6543
5.46172 5.36 -4.92 5000003.6543
5.410436 5.24 -4.92 5000003.52609
5.410436 5.22 -4.92 5000003.52609
5.46172 3.02 -4.92 5000003.6543
5.46172 0.38 -4.92 5000003.6543
5.46172 -0.08 -4.92 5000003.6543
5.410436 5.36 -4.94 5000003.52609
5.46172 -0.38 -4.94 5000003.6543
5.410436 5.4 -4.96 5000003.52609
5.410436 5.38 -4.96 5000003.52609
5.410436 5.36 -4.96 5000003.52609
5.410436 5.34 -4.96 5000003.52609
5.46172 3.18 -4.96 5000003.6543
5.46172 3.14 -4.96 5000003.6543
5.410436 3.12 -4.96 5000003.52609
5.410436 3.1 -4.96 5000003.52609
5.410436 5.34 -4.98 5000003.52609
5.410436 5.32 -4.98 5000003.52609
5.46172 3.14 -4.98 5000003.6543
5.410436 3.12 -4.98 5000003.52609
5.410436 3.1 -4.98 5000003.52609
5.410436 3.08 -4.98 5000003.52609
5.410436 3.06 -4.98 5000003.52609
5.410436 5.4 -5.0 5000003.52609
5.410436 5.38 -5.0 5000003.52609
5.46172 3.72 -5.0 5000003.6543
5.410436 3.52 -5.02 5000003.52609
5.410436 3.48 -5.04 5000003.52609
5.410436 3.46 -5.04 5000003.52609
5.410436 0.48 -5.04 5000003.52609
5.410436 0.46 -5.04 5000003.52609
5.46172 5.34 -5.06 5000003.6543
5.410436 3.54 -5.06 5000003.52609
5.410436 3.52 -5.06 5000003.52609
5.410436 5.34 -5.08 5000003.52609
5.410436 3.52 -5.08 5000003.52609
5.410436 5.38 -5.1 5000003.52609
5.362628000000001 5.28 -5.1 5000003.40657
5.410436 3.5 -5.1 5000003.52609
5.410436 3.48 -5.1 5000003.52609
5.362628000000001 5.36 -5.12 5000003.40657
5.410436 5.34 -5.12 5000003.52609
5.410436 3.94 -5.12 5000003.52609
5.362628000000001 5.4 -5.14 5000003.40657
5.362628000000001 5.38 -5.14 5000003.40657
5.362628000000001 5.36 -5.14 5000003.40657
5.362628000000001 5.34 -5.14 5000003.40657
5.362628000000001 5.32 -5.14 5000003.40657
5.410436 -6.58 -5.16 5000003.52609
5.410436 -6.6 -5.16 5000003.52609
5.362628000000001 -4.14 -5.2 5000003.40657
5.362628000000001 -0.18 -5.22 5000003.40657
5.362628000000001 3.64 -5.24 5000003.40657
5.362628000000001 1.04 -5.24 5000003.40657
5.362628000000001 1.02 -5.24 5000003.40657
5.362628000000001 0.16 -5.24 5000003.40657
5.362628000000001 0.14 -5.24 5000003.40657
5.362628000000001 3.72 -5.26 5000003.40657
5.317956000000001 5.4 -5.28 5000003.29489
5.317956000000001 3.7 -5.28 5000003.29489
5.317956000000001 3.68 -5.3 5000003.29489
5.317956000000001 3.66 -5.3 5000003.29489
5.362628000000001 -1.24 -5.3 5000003.40657
5.362628000000001 -1.26 -5.3 5000003.40657
5.317956000000001 3.66 -5.32 5000003.29489
5.362628000000001 4.56 -5.34 5000003.40657
5.317956000000001 4.08 -5.34 5000003.29489
5.317956000000001 4.06 -5.34 5000003.29489
5.317956000000001 3.4 -5.34 5000003.29489
5.317956000000001 4.58 -5.36 5000003.29489
5.317956000000001 4.54 -5.36 5000003.29489
5.317956000000001 3.9 -5.36 5000003.29489
5.317956000000001 3.46 -5.36 5000003.29489
5.317956000000001 4.52 -5.38 5000003.29489
5.317956000000001 3.96 -5.38 5000003.29489
5.317956000000001 4.6 -5.4 5000003.29489
5.317956000000001 4.58 -5.4 5000003.29489
5.317956000000001 3.96 -5.4 5000003.29489
5.317956000000001 3.94 -5.4 5000003.29489
5.317956000000001 4.58 -5.42 5000003.29489
5.317956000000001 4.56 -5.42 5000003.29489
5.317956000000001 3.94 -5.42 5000003.29489
5.317956000000001 3.92 -5.42 5000003.29489
5.23686 3.84 -5.42 5000003.09215
5.317956000000001 3.06 -5.42 5000003.29489
5.317956000000001 0.76 -5.42 5000003.29489
5.317956000000001 0.74 -5.42 5000003.29489
5.317956000000001 -0.06 -5.44 5000003.29489
5.317956000000001 3.72 -5.46 5000003.29489
5.27612 4.32 -5.52 5000003.1903
5.27612 3.62 -5.52 5000003.1903
5.27612 4.58 -5.54 5000003.1903
5.27612 4.56 -5.54 5000003.1903
5.27612 1.86 -5.54 5000003.1903
066.8896
10.318979333333333 1.6666666666666667 4.1 5000009.56938
10.318979333333333 1.2 4.1 5000009.56938
10.318979333333333 1.1666666666666667 4.1 5000009.56938
10.318979333333333 1.1333333333333333 4.1 5000009.56938
10.318979333333333 1.0666666666666667 4.1 5000009.56938
12.229653333333333 0.5333333333333333 4.1 5000066.8896
12.229653333333333 0.5 4.1 5000066.8896
10.744046666666666 -1.1333333333333333 4.1 5000022.3214
10.744046666666666 -1.1666666666666667 4.1 5000022.3214
16.666666666666668 -1.9 4.1 5000200.0
16.666666666666668 -2.1666666666666665 4.1 5000200.0
10.744046666666666 -2.7666666666666666 4.1 5000022.3214
10.744046666666666 -2.8 4.1 5000022.3214
11.338686666666668 -3.8 4.1 5000040.1606
12.229653333333333 -3.8666666666666667 4.1 5000066.8896
11.338686666666668 -5.533333333333333 4.1 5000040.1606
11.338686666666668 -6.166666666666667 4.1 5000040.1606
11.338686666666668 -6.566666666666666 4.1 5000040.1606
11.338686666666668 -6.8 4.1 5000040.1606
11.338686666666668 -6.833333333333333 4.1 5000040.1606
11.338686666666668 -6.866666666666666 4.1 5000040.1606
11.338686666666668 -7.266666666666667 4.1 5000040.1606
11.338686666666668 -7.333333333333333 4.1 5000040.1606
10.95648 -7.866666666666666 4.1 5000028.6944
10.95648 -8.0 4.1 5000028.6944
10.95648 -8.033333333333333 4.1 5000028.6944
10.5152 -8.366666666666667 4.1 5000015.456
10.39401 -8.533333333333333 4.1 5000011.8203
10.231000333333334 -9.166666666666666 4.1 5000006.93001
10.446526666666667 -9.7 4.1 5000013.3958
12.229653333333333 -13.266666666666667 4.1 5000066.8896
11.338686666666668 -13.666666666666666 4.1 5000040.1606
11.338686666666668 -13.933333333333334 4.1 5000040.1606
11.338686666666668 -14.4 4.1 5000040.1606
11.338686666666668 -15.133333333333333 4.1 5000040.1606
11.338686666666668 -15.5 4.1 5000040.1606
11.338686666666668 -15.533333333333333 4.1 5000040.1606
11.338686666666668 -16.633333333333333 4.1 5000040.1606
11.338686666666668 -16.766666666666666 4.1 5000040.1606
11.338686666666668 -17.133333333333333 4.1 5000040.1606
11.338686666666668 -17.166666666666668 4.1 5000040.1606
12.229653333333333 3.1666666666666665 4.066666666666666 5000066.8896
12.229653333333333 2.9 4.066666666666666 5000066.8896
10.318979333333333 2.7666666666666666 4.066666666666666 5000009.56938
16.666666666666668 2.0 4.066666666666666 5000200.0
12.229653333333333 1.9 4.066666666666666 5000066.8896
10.318979333333333 1.6666666666666667 4.066666666666666 5000009.56938
10.318979333333333 1.2333333333333334 4.066666666666666 5000009.56938
10.318979333333333 1.2 4.066666666666666 5000009.56938
10.318979333333333 1.1666666666666667 4.066666666666666 5000009.56938
12.229653333333333 0.5333333333333333 4.066666666666666 5000066.8896
12.229653333333333 0.5 4.066666666666666 5000066.8896
16.666666666666668 0.4 4.066666666666666 5000200.0
16.666666666666668 0.36666666666666664 4.066666666666666 5000200.0
16.666666666666668 0.3333333333333333 4.066666666666666 5000200.0
10.744046666666666 -1.1666666666666667 4.066666666666666 5000022.3214
16.666666666666668 -1.9 4.066666666666666 5000200.0
10.744046666666666 -2.7666666666666666 4.066666666666666 5000022.3214
10.744046666666666 -2.8 4.066666666666666 5000022.3214
10.744046666666666 -3.2333333333333334 4.066666666666666 5000022.3214
11.338686666666668 -5.533333333333333 4.066666666666666 5000040.1606
16.666666666666668 -6.0 4.066666666666666 5000200.0
11.338686666666668 -6.533333333333333 4.066666666666666 5000040.1606
11.338686666666668 -6.8 4.066666666666666 5000040.1606
11.338686666666668 -6.833333333333333 4.066666666666666 5000040.1606
10.95648 -7.866666666666666 4.066666666666666 5000028.6944
10.95648 -8.0 4.066666666666666 5000028.6944
10.95648 -8.033333333333333 4.066666666666666 5000028.6944
12.229653333333333 -8.2 4.066666666666666 5000066.8896
10.5152 -8.366666666666667 4.066666666666666 5000015.456
10.5152 -8.4 4.066666666666666 5000015.456
10.39401 -8.533333333333333 4.066666666666666 5000011.8203
10.231000333333334 -9.166666666666666 4.066666666666666 5000006.93001
10.446526666666667 -9.7 4.066666666666666 5000013.3958
12.229653333333333 -13.066666666666666 4.066666666666666 5000066.8896
12.229653333333333 -13.266666666666667 4.066666666666666 5000066.8896
11.338686666666668 -13.666666666666666 4.066666666666666 5000040.1606
11.338686666666668 -13.7 4.066666666666666 5000040.1606
11.338686666666668 -13.933333333333334 4.066666666666666 5000040.1606
11.338686666666668 -14.033333333333333 4.066666666666666 5000040.1606
11.338686666666668 -14.066666666666666 4.066666666666666 5000040.1606
11.338686666666668 -14.4 4.066666666666666 5000040.1606
11.338686666666668 -15.0 4.066666666666666 5000040.1606
11.338686666666668 -15.133333333333333 4.066666666666666 5000040.1606
11.338686666666668 -15.5 4.066666666666666 5000040.1606
11.338686666666668 -15.533333333333333 4.066666666666666 5000040.1606
10.95648 -15.8 4.066666666666666 5000028.6944
10.95648 -16.266666666666666 4.066666666666666 5000028.6944
16.666666666666668 -16.4 4.066666666666666 5000200.0
11.338686666666668 -16.633333333333333 4.066666666666666 5000040.1606
11.338686666666668 -16.766666666666666 4.066666666666666 5000040.1606
11.338686666666668 -17.133333333333333 4.066666666666666 5000040.1606
11.338686666666668 -17.166666666666668 4.066666666666666 5000040.1606
12.229653333333333 3.1666666666666665 4.033333333333333 5000066.8896
10.318979333333333 2.8 4.033333333333333 5000009.56938
10.318979333333333 2.7666666666666666 4.033333333333333 5000009.56938
16.666666666666668 2.0 4.033333333333333 5000200.0
10.318979333333333 1.2333333333333334 4.033333333333333 5000009.56938
10.318979333333333 1.2 4.033333333333333 5000009.56938
10.318979333333333 1.1666666666666667 4.033333333333333 5000009.56938
12.229653333333333 0.5333333333333333 4.033333333333333 5000066.8896
16.666666666666668 -1.9 4.033333333333333 5000200.0
16.666666666666668 -1.9333333333333333 4.033333333333333 5000200.0
10.744046666666666 -2.7666666666666666 4.033333333333333 5000022.3214
10.744046666666666 -2.8 4.033333333333333 5000022.3214
12.229653333333333 -2.9 4.033333333333333 5000066.8896
10.744046666666666 -3.2333333333333334 4.033333333333333 5000022.3214
10.744046666666666 -3.2666666666666666 4.033333333333333 5000022.3214
10.352546666666667 -3.7 4.033333333333333 5000010.5764
12.229653333333333 -4.7 4.033333333333333 5000066.8896
16.666666666666668 -5.966666666666667 4.033333333333333 5000200.0
16.666666666666668 -6.133333333333334 4.033333333333333 5000200.0
11.338686666666668 -6.533333333333333 4.033333333333333 5000040.1606
11.338686666666668 -6.766666666666667 4.033333333333333 5000040.1606
11.338686666666668 -6.8 4.033333333333333 5000040.1606
11.338686666666668 -6.833333333333333 4.033333333333333 5000040.1606
10.608826666666667 -7.1 4.033333333333333 5000018.2648
10.608826666666667 -7.133333333333334 4.033333333333333 5000018.2648
16.666666666666668 -7.7 4.033333333333333 5000200.0
16.666666666666668 -7.733333333333333 4.033333333333333 5000200.0
11.338686666666668 -7.9 4.033333333333333 5000040.1606
10.95648 -8.0 4.033333333333333 5000028.6944
10.95648 -8.033333333333333 4.033333333333333 5000028.6944
10.5152 -8.366666666666667 4.033333333333333 5000015.456
10.39401 -8.533333333333333 4.033333333333333 5000011.8203
10.352546666666667 -8.633333333333333 4.033333333333333 5000010.5764
16.666666666666668 -8.966666666666667 4.033333333333333 5000200.0
10.231000333333334 -9.066666666666666 4.033333333333333 5000006.93001
10.231000333333334 -9.133333333333333 4.033333333333333 5000006.93001
10.231000333333334 -9.166666666666666 4.033333333333333 5000006.93001
10.744046666666666 -9.366666666666667 4.033333333333333 5000022.3214
10.191406 -9.466666666666667 4.033333333333333 5000005.74218
10.446526666666667 -9.666666666666666 4.033333333333333 5000013.3958
10.446526666666667 -9.7 4.033333333333333 5000013.3958
10.39401 -9.8 4.033333333333333 5000011.8203
16.666666666666668 -12.966666666666667 4.033333333333333 5000200.0
12.229653333333333 -13.066666666666666 4.033333333333333 5000066.8896
12.229653333333333 -13.266666666666667 4.033333333333333 5000066.8896
11.338686666666668 -13.433333333333334 4.033333333333333 5000040.1606
11.338686666666668 -13.466666666666667 4.033333333333333 5000040.1606
11.338686666666668 -13.7 4.033333333333333 5000040.1606
11.338686666666668 -13.933333333333334 4.033333333333333 5000040.1606
11.338686666666668 -14.4 4.033333333333333 5000040.1606
11.338686666666668 -15.0 4.033333333333333 5000040.1606
11.338686666666668 -15.133333333333333 4.033333333333333 5000040.1606
12.229653333333333 -15.4 4.033333333333333 5000066.8896
11.338686666666668 -15.5 4.033333333333333 5000040.1606
10.95648 -15.8 4.033333333333333 5000028.6944
11.338686666666668 -16.1 4.033333333333333 5000040.1606
11.338686666666668 -16.633333333333333 4.033333333333333 5000040.1606
11.338686666666668 -16.766666666666666 4.033333333333333 5000040.1606
11.338686666666668 -17.133333333333333 4.033333333333333 5000040.1606
11.338686666666668 -17.166666666666668 4.033333333333333 5000040.1606
12.229653333333333 3.1666666666666665 4.0 5000066.8896
12.229653333333333 2.9 4.0 5000066.8896
10.318979333333333 2.8 4.0 5000009.56938
10.318979333333333 2.7666666666666666 4.0 5000009.56938
16.666666666666668 2.0 4.0 5000200.0
10.318979333333333 1.4333333333333333 4.0 5000009.56938
10.318979333333333 1.2333333333333334 4.0 5000009.56938
10.318979333333333 1.2 4.0 5000009.56938
10.318979333333333 1.1666666666666667 4.0 5000009.56938
16.666666666666668 -1.9333333333333333 4.0 5000200.0
10.744046666666666 -2.7666666666666666 4.0 5000022.3214
12.229653333333333 -2.9 4.0 5000066.8896
10.744046666666666 -3.2333333333333334 4.0 5000022.3214
12.229653333333333 -3.3666666666666667 4.0 5000066.8896
12.229653333333333 -3.4 4.0 5000066.8896
10.95648 -3.966666666666667 4.0 5000028.6944
16.666666666666668 -6.333333333333333 4.0 5000200.0
11.338686666666668 -6.766666666666667 4.0 5000040.1606
11.338686666666668 -6.8 4.0 5000040.1606
11.338686666666668 -6.833333333333333 4.0 5000040.1606
10.608826666666667 -7.1 4.0 5000018.2648
10.608826666666667 -7.133333333333334 4.0 5000018.2648
16.666666666666668 -7.733333333333333 4.0 5000200.0
11.338686666666668 -7.9 4.0 5000040.1606
10.95648 -8.0 4.0 5000028.6944
10.95648 -8.033333333333333 4.0 5000028.6944
10.39401 -8.533333333333333 4.0 5000011.8203
16.666666666666668 -8.9 4.0 5000200.0
16.666666666666668 -8.933333333333334 4.0 5000200.0
10.231000333333334 -9.133333333333333 4.0 5000006.93001
10.191406 -9.466666666666667 4.0 5000005.74218
16.666666666666668 -12.966666666666667 4.0 5000200.0
12.229653333333333 -13.066666666666666 4.0 5000066.8896
11.338686666666668 -13.366666666666667 4.0 5000040.1606
11.338686666666668 -13.433333333333334 4.0 5000040.1606
11.338686666666668 -13.466666666666667 4.0 5000040.1606
11.338686666666668 -13.7 4.0 5000040.1606
11.338686666666668 -14.0 4.0 5000040.1606
11.338686666666668 -14.5 4.0 5000040.1606
11.338686666666668 -15.0 4.0 5000040.1606
11.338686666666668 -15.133333333333333 4.0 5000040.1606
11.338686666666668 -15.166666666666666 4.0 5000040.1606
12.229653333333333 -15.4 4.0 5000066.8896
11.338686666666668 -15.5 4.0 5000040.1606
11.338686666666668 -16.1 4.0 5000040.1606
11.338686666666668 -16.166666666666668 4.0 5000040.1606
10.95648 -16.266666666666666 4.0 5000028.6944
11.338686666666668 -16.633333333333333 4.0 5000040.1606
11.338686666666668 -17.133333333333333 4.0 5000040.1606
11.338686666666668 -17.166666666666668 4.0 5000040.1606
12.229653333333333 3.1666666666666665 3.966666666666667 5000066.8896
12.229653333333333 2.9 3.966666666666667 5000066.8896
10.318979333333333 2.8 3.966666666666667 5000009.56938
10.318979333333333 2.7666666666666666 3.966666666666667 5000009.56938
16.666666666666668 2.0 3.966666666666667 5000200.0
12.229653333333333 1.9 3.966666666666667 5000066.8896
10.318979333333333 1.2666666666666666 3.966666666666667 5000009.56938
10.318979333333333 1.2333333333333334 3.966666666666667 5000009.56938
10.318979333333333 1.2 3.966666666666667 5000009.56938
16.666666666666668 -0.9 3.966666666666667 5000200.0
10.744046666666666 -1.1333333333333333 3.966666666666667 5000022.3214
10.744046666666666 -1.1666666666666667 3.966666666666667 5000022.3214
16.666666666666668 -2.533333333333333 3.966666666666667 5000200.0
16.666666666666668 -2.6 3.966666666666667 5000200.0
10.744046666666666 -2.7666666666666666 3.966666666666667 5000022.3214
12.229653333333333 -2.9 3.966666666666667 5000066.8896
10.744046666666666 -3.2333333333333334 3.966666666666667 5000022.3214
12.229653333333333 -3.3 3.966666666666667 5000066.8896
12.229653333333333 -3.3666666666666667 3.966666666666667 5000066.8896
12.229653333333333 -3.4 3.966666666666667 5000066.8896
10.95648 -3.933333333333333 3.966666666666667 5000028.6944
10.95648 -3.966666666666667 3.966666666666667 5000028.6944
12.229653333333333 -5.833333333333333 3.966666666666667 5000066.8896
16.666666666666668 -5.933333333333334 3.966666666666667 5000200.0
11.338686666666668 -6.766666666666667 3.966666666666667 5000040.1606
11.338686666666668 -6.8 3.966666666666667 5000040.1606
11.338686666666668 -6.833333333333333 3.966666666666667 5000040.1606
11.338686666666668 -7.866666666666666 3.966666666666667 5000040.1606
11.338686666666668 -7.9 3.966666666666667 5000040.1606
10.95648 -8.0 3.966666666666667 5000028.6944
10.95648 -8.033333333333333 3.966666666666667 5000028.6944
10.352546666666667 -8.633333333333333 3.966666666666667 5000010.5764
10.291248 -8.733333333333333 3.966666666666667 5000008.73744
10.291248 -8.8 3.966666666666667 5000008.73744
10.231000333333334 -9.133333333333333 3.966666666666667 5000006.93001
16.666666666666668 -12.966666666666667 3.966666666666667 5000200.0
12.229653333333333 -13.066666666666666 3.966666666666667 5000066.8896
12.229653333333333 -13.233333333333333 3.966666666666667 5000066.8896
11.338686666666668 -13.466666666666667 3.966666666666667 5000040.1606
11.338686666666668 -13.7 3.966666666666667 5000040.1606
11.338686666666668 -14.0 3.966666666666667 5000040.1606
11.338686666666668 -14.033333333333333 3.966666666666667 5000040.1606
11.338686666666668 -14.5 3.966666666666667 5000040.1606
11.338686666666668 -15.0 3.966666666666667 5000040.1606
11.338686666666668 -15.133333333333333 3.966666666666667 5000040.1606
11.338686666666668 -15.166666666666666 3.966666666666667 5000040.1606
11.338686666666668 -15.5 3.966666666666667 5000040.1606
10.95648 -16.266666666666666 3.966666666666667 5000028.6944
11.338686666666668 -16.633333333333333 3.966666666666667 5000040.1606
11.338686666666668 -17.133333333333333 3.966666666666667 5000040.1606
11.338686666666668 -17.166666666666668 3.966666666666667 5000040.1606
12.229653333333333 3.1666666666666665 3.933333333333333 5000066.8896
12.229653333333333 2.9 3.933333333333333 5000066.8896
10.318979333333333 2.8 3.933333333333333 5000009.56938
12.229653333333333 2.1333333333333333 3.933333333333333 5000066.8896
16.666666666666668 2.0 3.933333333333333 5000200.0
10.318979333333333 1.2666666666666666 3.933333333333333 5000009.56938
10.318979333333333 1.2333333333333334 3.933333333333333 5000009.56938
10.318979333333333 1.2 3.933333333333333 5000009.56938
12.229653333333333 0.6333333333333333 3.933333333333333 5000066.8896
12.229653333333333 0.0 3.933333333333333 5000066.8896
12.229653333333333 -0.1 3.933333333333333 5000066.8896
12.229653333333333 -0.5 3.933333333333333 5000066.8896
12.229653333333333 -0.5333333333333333 3.933333333333333 5000066.8896
16.666666666666668 -2.533333333333333 3.933333333333333 5000200.0
16.666666666666668 -2.566666666666667 3.933333333333333 5000200.0
16.666666666666668 -2.6 3.933333333333333 5000200.0
10.744046666666666 -2.7666666666666666 3.933333333333333 5000022.3214
12.229653333333333 -2.9 3.933333333333333 5000066.8896
12.229653333333333 -2.933333333333333 3.933333333333333 5000066.8896
10.744046666666666 -3.2333333333333334 3.933333333333333 5000022.3214
12.229653333333333 -3.3 3.933333333333333 5000066.8896
12.229653333333333 -3.3666666666666667 3.933333333333333 5000066.8896
12.229653333333333 -3.4 3.933333333333333 5000066.8896
12.229653333333333 -6.8 3.933333333333333 5000066.8896
11.338686666666668 -7.866666666666666 3.933333333333333 5000040.1606
11.338686666666668 -7.9 3.933333333333333 5000040.1606
10.95648 -8.0 3.933333333333333 5000028.6944
10.95648 -8.033333333333333 3.933333333333333 5000028.6944
10.352546666666667 -8.566666666666666 3.933333333333333 5000010.5764
10.352546666666667 -8.633333333333333 3.933333333333333 5000010.5764
10.291248 -8.733333333333333 3.933333333333333 5000008.73744
10.291248 -8.8 3.933333333333333 5000008.73744
11.338686666666668 -9.033333333333333 3.933333333333333 5000040.1606
10.231000333333334 -9.1 3.933333333333333 5000006.93001
10.744046666666666 -9.366666666666667 3.933333333333333 5000022.3214
11.338686666666668 -11.233333333333333 3.933333333333333 5000040.1606
10.95648 -11.333333333333334 3.933333333333333 5000028.6944
11.338686666666668 -13.466666666666667 3.933333333333333 5000040.1606
11.338686666666668 -13.7 3.933333333333333 5000040.1606
11.338686666666668 -14.0 3.933333333333333 5000040.1606
11.338686666666668 -14.033333333333333 3.933333333333333 5000040.1606
11.338686666666668 -14.5 3.933333333333333 5000040.1606
11.338686666666668 -15.0 3.933333333333333 5000040.1606
11.338686666666668 -15.133333333333333 3.933333333333333 5000040.1606
11.338686666666668 -15.166666666666666 3.933333333333333 5000040.1606
11.338686666666668 -15.5 3.933333333333333 5000040.1606
10.95648 -16.266666666666666 3.933333333333333 5000028.6944
11.338686666666668 -16.633333333333333 3.933333333333333 5000040.1606
11.338686666666668 -17.133333333333333 3.933333333333333 5000040.1606
11.338686666666668 -17.166666666666668 3.933333333333333 5000040.1606
10.318979333333333 2.8 3.9 5000009.56938
16.666666666666668 2.0 3.9 5000200.0
10.318979333333333 1.2666666666666666 3.9 5000009.56938
10.318979333333333 1.2333333333333334 3.9 5000009.56938
10.318979333333333 1.2 3.9 5000009.56938
12.229653333333333 0.6333333333333333 3.9 5000066.8896
12.229653333333333 0.6 3.9 5000066.8896
12.229653333333333 -0.06666666666666667 3.9 5000066.8896
12.229653333333333 -0.1 3.9 5000066.8896
12.229653333333333 -0.5 3.9 5000066.8896
12.229653333333333 -0.5333333333333333 3.9 5000066.8896
16.666666666666668 -0.9666666666666667 3.9 5000200.0
12.229653333333333 -1.5333333333333334 3.9 5000066.8896
10.744046666666666 -2.7666666666666666 3.9 5000022.3214
12.229653333333333 -2.9 3.9 5000066.8896
10.744046666666666 -3.2333333333333334 3.9 5000022.3214
12.229653333333333 -3.3 3.9 5000066.8896
12.229653333333333 -3.4 3.9 5000066.8896
11.338686666666668 -5.633333333333334 3.9 5000040.1606
12.229653333333333 -6.8 3.9 5000066.8896
11.338686666666668 -6.9 3.9 5000040.1606
10.95648 -8.0 3.9 5000028.6944
10.95648 -8.033333333333333 3.9 5000028.6944
10.5152 -8.333333333333334 3.9 5000015.456
10.5152 -8.366666666666667 3.9 5000015.456
10.352546666666667 -8.566666666666666 3.9 5000010.5764
10.352546666666667 -8.633333333333333 3.9 5000010.5764
10.291248 -8.733333333333333 3.9 5000008.73744
10.291248 -8.8 3.9 5000008.73744
12.229653333333333 -9.0 3.9 5000066.8896
10.231000333333334 -9.1 3.9 5000006.93001
10.744046666666666 -9.333333333333334 3.9 5000022.3214
10.744046666666666 -9.366666666666667 3.9 5000022.3214
10.5152 -9.533333333333333 3.9 5000015.456
10.5152 -9.566666666666666 3.9 5000015.456
10.39401 -9.766666666666667 3.9 5000011.8203
11.338686666666668 -10.133333333333333 3.9 5000040.1606
11.338686666666668 -11.233333333333333 3.9 5000040.1606
11.338686666666668 -11.3 3.9 5000040.1606
10.95648 -11.333333333333334 3.9 5000028.6944
11.338686666666668 -13.466666666666667 3.9 5000040.1606
11.338686666666668 -13.7 3.9 5000040.1606
11.338686666666668 -14.0 3.9 5000040.1606
11.338686666666668 -14.033333333333333 3.9 5000040.1606
11.338686666666668 -14.5 3.9 5000040.1606
11.338686666666668 -15.0 3.9 5000040.1606
11.338686666666668 -15.133333333333333 3.9 5000040.1606
11.338686666666668 -15.166666666666666 3.9 5000040.1606
12.229653333333333 -15.4 3.9 5000066.8896
11.338686666666668 -15.5 3.9 5000040.1606
11.338686666666668 -16.1 3.9 5000040.1606
10.95648 -16.266666666666666 3.9 5000028.6944
11.338686666666668 -16.633333333333333 3.9 5000040.1606
11.338686666666668 -16.8 3.9 5000040.1606
11.338686666666668 -17.133333333333333 3.9 5000040.1606
11.338686666666668 -17.166666666666668 3.9 5000040.1606
10.318979333333333 2.8 3.8666666666666667 5000009.56938
16.666666666666668 2.0 3.8666666666666667 5000200.0
10.318979333333333 1.2666666666666666 3.8666666666666667 5000009.56938
10.318979333333333 1.2333333333333334 3.8666666666666667 5000009.56938
12.229653333333333 0.6333333333333333 3.8666666666666667 5000066.8896
12.229653333333333 0.6 3.8666666666666667 5000066.8896
12.229653333333333 -0.06666666666666667 3.8666666666666667 5000066.8896
12.229653333333333 -0.1 3.8666666666666667 5000066.8896
12.229653333333333 -0.5 3.8666666666666667 5000066.8896
12.229653333333333 -0.5333333333333333 3.8666666666666667 5000066.8896
16.666666666666668 -0.9666666666666667 3.8666666666666667 5000200.0
10.744046666666666 -2.7666666666666666 3.8666666666666667 5000022.3214
10.744046666666666 -3.2333333333333334 3.8666666666666667 5000022.3214
12.229653333333333 -3.3 3.8666666666666667 5000066.8896
12.229653333333333 -3.3666666666666667 3.8666666666666667 5000066.8896
12.229653333333333 -3.4 3.8666666666666667 5000066.8896
16.666666666666668 -5.466666666666667 3.8666666666666667 5000200.0
11.338686666666668 -5.633333333333334 3.8666666666666667 5000040.1606
10.95648 -5.733333333333333 3.8666666666666667 5000028.6944
10.95648 -5.766666666666667 3.8666666666666667 5000028.6944
12.229653333333333 -6.733333333333333 3.8666666666666667 5000066.8896
12.229653333333333 -6.8 3.8666666666666667 5000066.8896
12.229653333333333 -6.833333333333333 3.8666666666666667 5000066.8896
11.338686666666668 -6.9 3.8666666666666667 5000040.1606
10.95648 -8.033333333333333 3.8666666666666667 5000028.6944
10.5152 -8.333333333333334 3.8666666666666667 5000015.456
10.5152 -8.366666666666667 3.8666666666666667 5000015.456
10.352546666666667 -8.566666666666666 3.8666666666666667 5000010.5764
10.352546666666667 -8.633333333333333 3.8666666666666667 5000010.5764
10.291248 -8.733333333333333 3.8666666666666667 5000008.73744
10.291248 -8.8 3.8666666666666667 5000008.73744
10.231000333333334 -9.1 3.8666666666666667 5000006.93001
10.744046666666666 -9.366666666666667 3.8666666666666667 5000022.3214
11.338686666666668 -11.233333333333333 3.8666666666666667 5000040.1606
11.338686666666668 -11.3 3.8666666666666667 5000040.1606
10.95648 -11.333333333333334 3.8666666666666667 5000028.6944
11.338686666666668 -13.433333333333334 3.8666666666666667 5000040.1606
11.338686666666668 -13.466666666666667 3.8666666666666667 5000040.1606
11.338686666666668 -13.7 3.8666666666666667 5000040.1606
11.338686666666668 -14.0 3.8666666666666667 5000040.1606
11.338686666666668 -14.033333333333333 3.8666666666666667 5000040.1606
10.95648 -14.166666666666666 3.8666666666666667 5000028.6944
11.338686666666668 -14.5 3.8666666666666667 5000040.1606
11.338686666666668 -15.0 3.8666666666666667 5000040.1606
11.338686666666668 -15.133333333333333 3.8666666666666667 5000040.1606
11.338686666666668 -15.166666666666666 3.8666666666666667 5000040.1606
11.338686666666668 -15.5 3.8666666666666667 5000040.1606
10.95648 -16.266666666666666 3.8666666666666667 5000028.6944
11.338686666666668 -16.633333333333333 3.8666666666666667 5000040.1606
11.338686666666668 -16.766666666666666 3.8666666666666667 5000040.1606
11.338686666666668 -16.8 3.8666666666666667 5000040.1606
11.338686666666668 -17.133333333333333 3.8666666666666667 5000040.1606
11.338686666666668 -17.166666666666668 3.8666666666666667 5000040.1606
10.318979333333333 2.8333333333333335 3.8333333333333335 5000009.56938
10.318979333333333 2.8 3.8333333333333335 5000009.56938
16.666666666666668 2.0 3.8333333333333335 5000200.0
12.229653333333333 1.9 3.8333333333333335 5000066.8896
10.318979333333333 1.2666666666666666 3.8333333333333335 5000009.56938
10.318979333333333 1.2333333333333334 3.8333333333333335 5000009.56938
12.229653333333333 0.6333333333333333 3.8333333333333335 5000066.8896
12.229653333333333 0.6 3.8333333333333335 5000066.8896
12.229653333333333 -0.06666666666666667 3.8333333333333335 5000066.8896
12.229653333333333 -0.1 3.8333333333333335 5000066.8896
12.229653333333333 -0.5 3.8333333333333335 5000066.8896
10.744046666666666 -1.2 3.8333333333333335 5000022.3214
10.744046666666666 -2.7666666666666666 3.8333333333333335 5000022.3214
10.95648 -3.066666666666667 3.8333333333333335 5000028.6944
10.95648 -3.1 3.8333333333333335 5000028.6944
10.744046666666666 -3.2 3.8333333333333335 5000022.3214
10.744046666666666 -3.2333333333333334 3.8333333333333335 5000022.3214
10.744046666666666 -3.3 3.8333333333333335 5000022.3214
12.229653333333333 -3.4 3.8333333333333335 5000066.8896
16.666666666666668 -5.466666666666667 3.8333333333333335 5000200.0
11.338686666666668 -5.633333333333334 3.8333333333333335 5000040.1606
10.95648 -5.766666666666667 3.8333333333333335 5000028.6944
12.229653333333333 -6.833333333333333 3.8333333333333335 5000066.8896
11.338686666666668 -6.9 3.8333333333333335 5000040.1606
10.95648 -7.9 3.8333333333333335 5000028.6944
10.95648 -7.933333333333334 3.8333333333333335 5000028.6944
10.95648 -7.966666666666667 3.8333333333333335 5000028.6944
10.5152 -8.233333333333333 3.8333333333333335 5000015.456
10.352546666666667 -8.566666666666666 3.8333333333333335 5000010.5764
10.231000333333334 -9.1 3.8333333333333335 5000006.93001
11.338686666666668 -11.3 3.8333333333333335 5000040.1606
10.95648 -11.333333333333334 3.8333333333333335 5000028.6944
11.338686666666668 -13.433333333333334 3.8333333333333335 5000040.1606
11.338686666666668 -13.466666666666667 3.8333333333333335 5000040.1606
11.338686666666668 -13.7 3.8333333333333335 5000040.1606
11.338686666666668 -14.0 3.8333333333333335 5000040.1606
11.338686666666668 -14.033333333333333 3.8333333333333335 5000040.1606
11.338686666666668 -14.5 3.8333333333333335 5000040.1606
11.338686666666668 -15.0 3.8333333333333335 5000040.1606
11.338686666666668 -15.133333333333333 3.8333333333333335 5000040.1606
11.338686666666668 -15.166666666666666 3.8333333333333335 5000040.1606
12.229653333333333 -15.4 3.8333333333333335 5000066.8896
11.338686666666668 -15.5 3.8333333333333335 5000040.1606
10.95648 -15.8 3.8333333333333335 5000028.6944
10.95648 -16.266666666666666 3.8333333333333335 5000028.6944
12.229653333333333 -16.5 3.8333333333333335 5000066.8896
11.338686666666668 -16.633333333333333 3.8333333333333335 5000040.1606
11.338686666666668 -16.766666666666666 3.8333333333333335 5000040.1606
11.338686666666668 -16.8 3.8333333333333335 5000040.1606
11.338686666666668 -17.133333333333333 3.8333333333333335 5000040.1606
11.338686666666668 -17.166666666666668 3.8333333333333335 5000040.1606
10.318979333333333 2.8333333333333335 3.8 5000009.56938
10.318979333333333 2.8 3.8 5000009.56938
16.666666666666668 2.0 3.8 5000200.0
12.229653333333333 1.9 3.8 5000066.8896
10.318979333333333 1.2666666666666666 3.8 5000009.56938
10.318979333333333 1.2333333333333334 3.8 5000009.56938
12.229653333333333 0.6333333333333333 3.8 5000066.8896
12.229653333333333 0.6 3.8 5000066.8896
12.229653333333333 -0.06666666666666667 3.8 5000066.8896
12.229653333333333 -0.1 3.8 5000066.8896
12.229653333333333 -0.5 3.8 5000066.8896
10.744046666666666 -1.2 3.8 5000022.3214
12.229653333333333 -1.4 3.8 5000066.8896
12.229653333333333 -1.4333333333333333 3.8 5000066.8896
16.666666666666668 -1.9666666666666666 3.8 5000200.0
16.666666666666668 -2.4 3.8 5000200.0
10.744046666666666 -2.7666666666666666 3.8 5000022.3214
10.95648 -3.066666666666667 3.8 5000028.6944
10.744046666666666 -3.2 3.8 5000022.3214
10.744046666666666 -3.2333333333333334 3.8 5000022.3214
12.229653333333333 -6.833333333333333 3.8 5000066.8896
12.229653333333333 -6.866666666666666 3.8 5000066.8896
11.338686666666668 -6.9 3.8 5000040.1606
11.338686666666668 -7.8 3.8 5000040.1606
10.95648 -7.9 3.8 5000028.6944
10.95648 -7.933333333333334 3.8 5000028.6944
10.95648 -8.0 3.8 5000028.6944
10.608826666666667 -8.2 3.8 5000018.2648
10.5152 -8.233333333333333 3.8 5000015.456
10.231000333333334 -9.066666666666666 3.8 5000006.93001
11.338686666666668 -10.033333333333333 3.8 5000040.1606
11.338686666666668 -10.066666666666666 3.8 5000040.1606
10.95648 -11.333333333333334 3.8 5000028.6944
11.338686666666668 -13.466666666666667 3.8 5000040.1606
11.338686666666668 -13.7 3.8 5000040.1606
11.338686666666668 -14.0 3.8 5000040.1606
11.338686666666668 -14.033333333333333 3.8 5000040.1606
11.338686666666668 -14.5 3.8 5000040.1606
11.338686666666668 -15.0 3.8 5000040.1606
11.338686666666668 -15.133333333333333 3.8 5000040.1606
11.338686666666668 -15.166666666666666 3.8 5000040.1606
12.229653333333333 -15.4 3.8 5000066.8896
11.338686666666668 -15.5 3.8 5000040.1606
11.338686666666668 -16.1 3.8 5000040.1606
11.338686666666668 -16.133333333333333 3.8 5000040.1606
10.95648 -16.266666666666666 3.8 5000028.6944
12.229653333333333 -16.5 3.8 5000066.8896
11.338686666666668 -16.633333333333333 3.8 5000040.1606
11.338686666666668 -16.8 3.8 5000040.1606
11.338686666666668 -17.133333333333333 3.8 5000040.1606
11.338686666666668 -17.166666666666668 3.8 5000040.1606
10.318979333333333 2.8333333333333335 3.7666666666666666 5000009.56938
10.318979333333333 2.8 3.7666666666666666 5000009.56938
16.666666666666668 2.0 3.7666666666666666 5000200.0
10.318979333333333 1.2666666666666666 3.7666666666666666 5000009.56938
10.318979333333333 1.2333333333333334 3.7666666666666666 5000009.56938
12.229653333333333 0.6333333333333333 3.7666666666666666 5000066.8896
12.229653333333333 0.6 3.7666666666666666 5000066.8896
12.229653333333333 -0.06666666666666667 3.7666666666666666 5000066.8896
12.229653333333333 -0.1 3.7666666666666666 5000066.8896
12.229653333333333 -0.26666666666666666 3.7666666666666666 5000066.8896
12.229653333333333 -0.5 3.7666666666666666 5000066.8896
12.229653333333333 -0.5333333333333333 3.7666666666666666 5000066.8896
10.744046666666666 -1.2 3.7666666666666666 5000022.3214
16.666666666666668 -1.3666666666666667 3.7666666666666666 5000200.0
16.666666666666668 -1.4 3.7666666666666666 5000200.0
16.666666666666668 -1.7 3.7666666666666666 5000200.0
16.666666666666668 -2.0 3.7666666666666666 5000200.0
16.666666666666668 -2.033333333333333 3.7666666666666666 5000200.0
16.666666666666668 -2.2333333333333334 3.7666666666666666 5000200.0
16.666666666666668 -2.3666666666666667 3.7666666666666666 5000200.0
16.666666666666668 -2.4 3.7666666666666666 5000200.0
10.744046666666666 -2.7666666666666666 3.7666666666666666 5000022.3214
10.95648 -3.066666666666667 3.7666666666666666 5000028.6944
10.744046666666666 -3.2 3.7666666666666666 5000022.3214
10.744046666666666 -3.2333333333333334 3.7666666666666666 5000022.3214
11.338686666666668 -3.8 3.7666666666666666 5000040.1606
12.229653333333333 -6.766666666666667 3.7666666666666666 5000066.8896
12.229653333333333 -6.833333333333333 3.7666666666666666 5000066.8896
12.229653333333333 -6.866666666666666 3.7666666666666666 5000066.8896
16.666666666666668 -7.7 3.7666666666666666 5000200.0
10.95648 -7.9 3.7666666666666666 5000028.6944
10.95648 -7.933333333333334 3.7666666666666666 5000028.6944
10.95648 -8.0 3.7666666666666666 5000028.6944
10.608826666666667 -8.133333333333333 3.7666666666666666 5000018.2648
10.608826666666667 -8.166666666666666 3.7666666666666666 5000018.2648
10.446526666666667 -8.366666666666667 3.7666666666666666 5000013.3958
10.446526666666667 -8.4 3.7666666666666666 5000013.3958
10.267952666666666 -8.933333333333334 3.7666666666666666 5000008.03858
10.248108 -9.033333333333333 3.7666666666666666 5000007.44324
10.248108 -9.066666666666666 3.7666666666666666 5000007.44324
11.338686666666668 -9.866666666666667 3.7666666666666666 5000040.1606
11.338686666666668 -10.0 3.7666666666666666 5000040.1606
11.338686666666668 -10.033333333333333 3.7666666666666666 5000040.1606
10.5152 -11.133333333333333 3.7666666666666666 5000015.456
10.95648 -11.333333333333334 3.7666666666666666 5000028.6944
10.95648 -11.4 3.7666666666666666 5000028.6944
11.338686666666668 -13.466666666666667 3.7666666666666666 5000040.1606
11.338686666666668 -13.733333333333333 3.7666666666666666 5000040.1606
11.338686666666668 -13.933333333333334 3.7666666666666666 5000040.1606
11.338686666666668 -14.0 3.7666666666666666 5000040.1606
11.338686666666668 -14.033333333333333 3.7666666666666666 5000040.1606
11.338686666666668 -14.5 3.7666666666666666 5000040.1606
11.338686666666668 -16.1 3.7666666666666666 5000040.1606
11.338686666666668 -16.133333333333333 3.7666666666666666 5000040.1606
12.229653333333333 -16.5 3.7666666666666666 5000066.8896
11.338686666666668 -16.633333333333333 3.7666666666666666 5000040.1606
11.338686666666668 -16.8 3.7666666666666666 5000040.1606
11.338686666666668 -17.133333333333333 3.7666666666666666 5000040.1606
11.338686666666668 -17.166666666666668 3.7666666666666666 5000040.1606
10.318979333333333 2.8333333333333335 3.7333333333333334 5000009.56938
10.318979333333333 2.8 3.7333333333333334 5000009.56938
10.318979333333333 2.466666666666667 3.7333333333333334 5000009.56938
10.318979333333333 1.8 3.7333333333333334 5000009.56938
10.318979333333333 1.2666666666666666 3.7333333333333334 5000009.56938
10.318979333333333 1.2333333333333334 3.7333333333333334 5000009.56938
12.229653333333333 0.6333333333333333 3.7333333333333334 5000066.8896
12.229653333333333 0.6 3.7333333333333334 5000066.8896
12.229653333333333 0.0 3.7333333333333334 5000066.8896
12.229653333333333 -0.06666666666666667 3.7333333333333334 5000066.8896
12.229653333333333 -0.1 3.7333333333333334 5000066.8896
12.229653333333333 -0.26666666666666666 3.7333333333333334 5000066.8896
12.229653333333333 -0.5 3.7333333333333334 5000066.8896
12.229653333333333 -0.5333333333333333 3.7333333333333334 5000066.8896
11.338686666666668 -0.6333333333333333 3.7333333333333334 5000040.1606
16.666666666666668 -0.9333333333333333 3.7333333333333334 5000200.0
11.338686666666668 -1.0666666666666667 3.7333333333333334 5000040.1606
10.744046666666666 -1.2 3.7333333333333334 5000022.3214
16.666666666666668 -1.3666666666666667 3.7333333333333334 5000200.0
16.666666666666668 -1.6666666666666667 3.7333333333333334 5000200.0
16.666666666666668 -2.0 3.7333333333333334 5000200.0
16.666666666666668 -2.033333333333333 3.7333333333333334 5000200.0
16.666666666666668 -2.4 3.7333333333333334 5000200.0
10.744046666666666 -2.7666666666666666 3.7333333333333334 5000022.3214
10.744046666666666 -3.2 3.7333333333333334 5000022.3214
10.744046666666666 -3.2333333333333334 3.7333333333333334 5000022.3214
11.338686666666668 -5.6 3.7333333333333334 5000040.1606
11.338686666666668 -5.633333333333334 3.7333333333333334 5000040.1606
12.229653333333333 -6.133333333333334 3.7333333333333334 5000066.8896
12.229653333333333 -6.766666666666667 3.7333333333333334 5000066.8896
12.229653333333333 -6.8 3.7333333333333334 5000066.8896
12.229653333333333 -6.833333333333333 3.7333333333333334 5000066.8896
12.229653333333333 -6.866666666666666 3.7333333333333334 5000066.8896
16.666666666666668 -7.7 3.7333333333333334 5000200.0
10.95648 -7.9 3.7333333333333334 5000028.6944
10.744046666666666 -8.0 3.7333333333333334 5000022.3214
10.744046666666666 -8.033333333333333 3.7333333333333334 5000022.3214
10.608826666666667 -8.133333333333333 3.7333333333333334 5000018.2648
10.608826666666667 -8.166666666666666 3.7333333333333334 5000018.2648
10.5152 -8.266666666666667 3.7333333333333334 5000015.456
10.446526666666667 -8.366666666666667 3.7333333333333334 5000013.3958
10.446526666666667 -8.4 3.7333333333333334 5000013.3958
10.267952666666666 -8.9 3.7333333333333334 5000008.03858
10.267952666666666 -8.933333333333334 3.7333333333333334 5000008.03858
10.248108 -9.033333333333333 3.7333333333333334 5000007.44324
11.338686666666668 -11.233333333333333 3.7333333333333334 5000040.1606
10.95648 -11.333333333333334 3.7333333333333334 5000028.6944
10.95648 -11.4 3.7333333333333334 5000028.6944
10.95648 -13.533333333333333 3.7333333333333334 5000028.6944
10.744046666666666 -13.666666666666666 3.7333333333333334 5000022.3214
11.338686666666668 -15.766666666666667 3.7333333333333334 5000040.1606
10.95648 -15.9 3.7333333333333334 5000028.6944
11.338686666666668 -16.1 3.7333333333333334 5000040.1606
11.338686666666668 -16.133333333333333 3.7333333333333334 5000040.1606
10.95648 -16.266666666666666 3.7333333333333334 5000028.6944
12.229653333333333 -16.5 3.7333333333333334 5000066.8896
11.338686666666668 -16.633333333333333 3.7333333333333334 5000040.1606
11.338686666666668 -16.8 3.7333333333333334 5000040.1606
11.338686666666668 -17.133333333333333 3.7333333333333334 5000040.1606
11.338686666666668 -17.166666666666668 3.7333333333333334 5000040.1606
10.318979333333333 2.8333333333333335 3.7 5000009.56938
10.318979333333333 2.8 3.7 5000009.56938
10.318979333333333 2.466666666666667 3.7 5000009.56938
10.318979333333333 1.8 3.7 5000009.56938
10.318979333333333 1.3 3.7 5000009.56938
10.318979333333333 1.2666666666666666 3.7 5000009.56938
10.318979333333333 1.2333333333333334 3.7 5000009.56938
12.229653333333333 0.6333333333333333 3.7 5000066.8896
12.229653333333333 0.6 3.7 5000066.8896
16.666666666666668 0.03333333333333333 3.7 5000200.0
16.666666666666668 0.0 3.7 5000200.0
12.229653333333333 -0.06666666666666667 3.7 5000066.8896
12.229653333333333 -0.1 3.7 5000066.8896
12.229653333333333 -0.5 3.7 5000066.8896
12.229653333333333 -0.5333333333333333 3.7 5000066.8896
16.666666666666668 -0.9333333333333333 3.7 5000200.0
11.338686666666668 -1.0666666666666667 3.7 5000040.1606
10.744046666666666 -1.2 3.7 5000022.3214
16.666666666666668 -1.3666666666666667 3.7 5000200.0
16.666666666666668 -1.6666666666666667 3.7 5000200.0
16.666666666666668 -2.033333333333333 3.7 5000200.0
16.666666666666668 -2.066666666666667 3.7 5000200.0
16.666666666666668 -2.4 3.7 5000200.0
12.229653333333333 -2.6 3.7 5000066.8896
10.744046666666666 -2.7666666666666666 3.7 5000022.3214
10.744046666666666 -3.2333333333333334 3.7 5000022.3214
12.229653333333333 -3.433333333333333 3.7 5000066.8896
11.338686666666668 -4.066666666666666 3.7 5000040.1606
11.338686666666668 -4.1 3.7 5000040.1606
11.338686666666668 -4.366666666666666 3.7 5000040.1606
11.338686666666668 -4.4 3.7 5000040.1606
16.666666666666668 -5.6 3.7 5000200.0
12.229653333333333 -6.766666666666667 3.7 5000066.8896
10.95648 -7.0 3.7 5000028.6944
10.608826666666667 -7.2 3.7 5000018.2648
10.95648 -7.9 3.7 5000028.6944
10.95648 -7.933333333333334 3.7 5000028.6944
10.608826666666667 -8.133333333333333 3.7 5000018.2648
10.5152 -8.266666666666667 3.7 5000015.456
10.446526666666667 -8.366666666666667 3.7 5000013.3958
10.446526666666667 -8.4 3.7 5000013.3958
10.5152 -8.533333333333333 3.7 5000015.456
10.267952666666666 -8.9 3.7 5000008.03858
10.267952666666666 -8.933333333333334 3.7 5000008.03858
11.338686666666668 -9.033333333333333 3.7 5000040.1606
11.338686666666668 -11.233333333333333 3.7 5000040.1606
10.95648 -11.333333333333334 3.7 5000028.6944
11.338686666666668 -13.433333333333334 3.7 5000040.1606
10.95648 -13.5 3.7 5000028.6944
10.95648 -13.533333333333333 3.7 5000028.6944
10.95648 -15.9 3.7 5000028.6944
10.95648 -15.933333333333334 3.7 5000028.6944
11.338686666666668 -16.1 3.7 5000040.1606
11.338686666666668 -16.133333333333333 3.7 5000040.1606
11.338686666666668 -16.633333333333333 3.7 5000040.1606
