VERSION .7
FIELDS x y z rgb
SIZE 4 4 4 4
TYPE F F F F
COUNT 1 1 1 1
WIDTH 1703
HEIGHT 1
VIEWPOINT 0 0 0 1 0 0 0
POINTS 1703
DATA ascii
9.941628000000001 -1.0 2.46 9.56938
8.665944 -1.18 2.46 7.44324
28.29636 -1.38 2.46 40.1606
44.33376 -2.16 2.46 66.8896
44.33376 -2.18 2.46 66.8896
21.41664 -2.38 2.46 28.6944
17.592840000000002 -2.42 2.46 22.3214
15.15888 -2.46 2.46 18.2648
21.41664 -2.74 2.46 28.6944
15.15888 -3.12 2.46 18.2648
17.592840000000002 -3.28 2.46 22.3214
28.29636 -3.68 2.46 40.1606
28.29636 -4.3 2.46 40.1606
28.29636 -5.88 2.46 40.1606
15.15888 5.26 2.44 18.2648
15.15888 5.16 2.44 18.2648
15.15888 5.0 2.44 18.2648
17.592840000000002 4.94 2.44 22.3214
15.15888 4.52 2.44 18.2648
17.592840000000002 4.46 2.44 22.3214
17.592840000000002 4.42 2.44 22.3214
13.4736 4.34 2.44 15.456
13.4736 3.98 2.44 15.456
13.4736 3.94 2.44 15.456
15.15888 3.62 2.44 18.2648
15.15888 3.6 2.44 18.2648
15.15888 3.18 2.44 18.2648
17.592840000000002 2.72 2.44 22.3214
17.592840000000002 2.62 2.44 22.3214
17.592840000000002 2.58 2.44 22.3214
17.592840000000002 2.56 2.44 22.3214
15.15888 2.46 2.44 18.2648
15.15888 2.42 2.44 18.2648
28.29636 1.88 2.44 40.1606
28.29636 1.48 2.44 40.1606
28.29636 1.46 2.44 40.1606
28.29636 1.44 2.44 40.1606
13.4736 1.22 2.44 15.456
44.33376 0.52 2.44 66.8896
44.33376 0.5 2.44 66.8896
44.33376 0.48 2.44 66.8896
9.941628000000001 -1.0 2.44 9.56938
8.665944 -1.18 2.44 7.44324
28.29636 -1.4 2.44 40.1606
44.33376 -2.16 2.44 66.8896
21.41664 -2.38 2.44 28.6944
17.592840000000002 -2.46 2.44 22.3214
17.592840000000002 -2.5 2.44 22.3214
15.15888 -2.52 2.44 18.2648
21.41664 -2.74 2.44 28.6944
28.29636 -3.12 2.44 40.1606
21.41664 -3.16 2.44 28.6944
17.592840000000002 -3.26 2.44 22.3214
17.592840000000002 -3.28 2.44 22.3214
28.29636 -3.68 2.44 40.1606
28.29636 -4.3 2.44 40.1606
9.442464 5.76 2.42 8.73744
15.15888 5.0 2.42 18.2648
15.15888 4.66 2.42 18.2648
17.592840000000002 4.42 2.42 22.3214
17.592840000000002 4.4 2.42 22.3214
13.4736 4.34 2.42 15.456
13.4736 4.26 2.42 15.456
12.23748 4.24 2.42 13.3958
15.15888 3.96 2.42 18.2648
15.15888 3.84 2.42 18.2648
15.15888 3.8 2.42 18.2648
15.15888 3.6 2.42 18.2648
13.4736 3.5 2.42 15.456
15.15888 3.2 2.42 18.2648
15.15888 3.18 2.42 18.2648
15.15888 2.68 2.42 18.2648
17.592840000000002 2.58 2.42 22.3214
17.592840000000002 2.44 2.42 22.3214
28.29636 1.88 2.42 40.1606
28.29636 1.48 2.42 40.1606
28.29636 1.46 2.42 40.1606
44.33376 0.54 2.42 66.8896
44.33376 0.52 2.42 66.8896
44.33376 0.5 2.42 66.8896
28.29636 0.18 2.42 40.1606
9.941628000000001 -1.0 2.42 9.56938
8.665944 -1.18 2.42 7.44324
44.33376 -1.34 2.42 66.8896
28.29636 -1.42 2.42 40.1606
124.19999999999999 -2.16 2.42 200.0
21.41664 -2.38 2.42 28.6944
17.592840000000002 -2.46 2.42 22.3214
17.592840000000002 -2.5 2.42 22.3214
21.41664 -3.16 2.42 28.6944
15.15888 -3.2 2.42 18.2648
17.592840000000002 -3.26 2.42 22.3214
28.29636 -3.4 2.42 40.1606
28.29636 -4.3 2.42 40.1606
9.442464 5.76 2.4 8.73744
13.4736 5.5 2.4 15.456
15.15888 5.3 2.4 18.2648
15.15888 5.1 2.4 18.2648
13.4736 5.06 2.4 15.456
15.15888 4.96 2.4 18.2648
13.4736 4.92 2.4 15.456
10.54584 4.82 2.4 10.5764
15.15888 4.66 2.4 18.2648
15.15888 4.64 2.4 18.2648
15.15888 4.46 2.4 18.2648
17.592840000000002 4.42 2.4 22.3214
17.592840000000002 4.4 2.4 22.3214
17.592840000000002 4.38 2.4 22.3214
13.4736 4.32 2.4 15.456
13.4736 4.3 2.4 15.456
15.15888 3.94 2.4 18.2648
15.15888 3.8 2.4 18.2648
15.15888 3.56 2.4 18.2648
13.4736 3.54 2.4 15.456
13.4736 3.52 2.4 15.456
13.4736 3.5 2.4 15.456
12.23748 3.34 2.4 13.3958
15.15888 3.2 2.4 18.2648
15.15888 3.18 2.4 18.2648
15.15888 2.86 2.4 18.2648
15.15888 2.82 2.4 18.2648
15.15888 2.8 2.4 18.2648
15.15888 2.78 2.4 18.2648
15.15888 2.76 2.4 18.2648
15.15888 2.64 2.4 18.2648
17.592840000000002 2.56 2.4 22.3214
28.29636 1.88 2.4 40.1606
28.29636 1.86 2.4 40.1606
28.29636 1.5 2.4 40.1606
28.29636 1.48 2.4 40.1606
44.33376 0.58 2.4 66.8896
44.33376 0.56 2.4 66.8896
44.33376 0.54 2.4 66.8896
28.29636 0.26 2.4 40.1606
28.29636 0.24 2.4 40.1606
9.941628000000001 -1.0 2.4 9.56938
28.29636 -1.44 2.4 40.1606
21.41664 -2.38 2.4 28.6944
17.592840000000002 -2.46 2.4 22.3214
44.33376 -3.06 2.4 66.8896
15.15888 -3.12 2.4 18.2648
15.15888 -3.16 2.4 18.2648
17.592840000000002 -3.24 2.4 22.3214
28.29636 -3.68 2.4 40.1606
28.29636 -4.28 2.4 40.1606
28.29636 -4.3 2.4 40.1606
17.592840000000002 -4.84 2.4 22.3214
9.442464 5.76 2.38 8.73744
15.15888 5.3 2.38 18.2648
15.15888 5.1 2.38 18.2648
15.15888 5.08 2.38 18.2648
13.4736 5.06 2.38 15.456
13.4736 4.96 2.38 15.456
13.4736 4.94 2.38 15.456
13.4736 4.9 2.38 15.456
15.15888 4.64 2.38 18.2648
12.23748 4.54 2.38 13.3958
15.15888 4.46 2.38 18.2648
17.592840000000002 4.4 2.38 22.3214
13.4736 4.3 2.38 15.456
15.15888 3.92 2.38 18.2648
15.15888 3.78 2.38 18.2648
11.29218 3.72 2.38 11.8203
11.29218 3.7 2.38 11.8203
15.15888 3.56 2.38 18.2648
13.4736 3.54 2.38 15.456
15.15888 3.4 2.38 18.2648
12.23748 3.34 2.38 13.3958
15.15888 3.28 2.38 18.2648
15.15888 3.26 2.38 18.2648
12.23748 3.12 2.38 13.3958
15.15888 3.0 2.38 18.2648
15.15888 2.98 2.38 18.2648
15.15888 2.96 2.38 18.2648
15.15888 2.8 2.38 18.2648
17.592840000000002 2.56 2.38 22.3214
28.29636 1.88 2.38 40.1606
28.29636 1.86 2.38 40.1606
28.29636 1.5 2.38 40.1606
28.29636 1.46 2.38 40.1606
44.33376 0.62 2.38 66.8896
44.33376 0.6 2.38 66.8896
44.33376 0.58 2.38 66.8896
28.29636 0.34 2.38 40.1606
28.29636 0.32 2.38 40.1606
9.941628000000001 -1.0 2.38 9.56938
21.41664 -2.38 2.38 28.6944
15.15888 -2.52 2.38 18.2648
11.29218 -2.74 2.38 11.8203
44.33376 -2.86 2.38 66.8896
124.19999999999999 -3.0 2.38 200.0
15.15888 -3.14 2.38 18.2648
28.29636 -3.68 2.38 40.1606
28.29636 -4.28 2.38 40.1606
28.29636 -4.3 2.38 40.1606
17.592840000000002 -4.84 2.38 22.3214
28.29636 -5.88 2.38 40.1606
28.29636 -5.9 2.38 40.1606
9.442464 5.78 2.36 8.73744
13.4736 5.46 2.36 15.456
15.15888 5.12 2.36 18.2648
13.4736 4.92 2.36 15.456
13.4736 4.9 2.36 15.456
13.4736 4.88 2.36 15.456
15.15888 4.64 2.36 18.2648
15.15888 4.62 2.36 18.2648
15.15888 4.44 2.36 18.2648
15.15888 3.9 2.36 18.2648
15.15888 3.84 2.36 18.2648
15.15888 3.8 2.36 18.2648
15.15888 3.78 2.36 18.2648
11.29218 3.7 2.36 11.8203
15.15888 3.6 2.36 18.2648
15.15888 3.58 2.36 18.2648
13.4736 3.56 2.36 15.456
15.15888 3.42 2.36 18.2648
15.15888 3.4 2.36 18.2648
15.15888 3.28 2.36 18.2648
15.15888 3.26 2.36 18.2648
15.15888 3.24 2.36 18.2648
17.592840000000002 3.06 2.36 22.3214
15.15888 3.04 2.36 18.2648
15.15888 3.0 2.36 18.2648
15.15888 2.98 2.36 18.2648
15.15888 2.94 2.36 18.2648
17.592840000000002 2.54 2.36 22.3214
28.29636 1.9 2.36 40.1606
28.29636 1.88 2.36 40.1606
28.29636 1.5 2.36 40.1606
28.29636 1.46 2.36 40.1606
28.29636 1.44 2.36 40.1606
44.33376 0.66 2.36 66.8896
44.33376 0.64 2.36 66.8896
44.33376 0.62 2.36 66.8896
28.29636 0.4 2.36 40.1606
28.29636 0.38 2.36 40.1606
13.4736 -0.48 2.36 15.456
9.941628000000001 -0.96 2.36 9.56938
9.941628000000001 -1.0 2.36 9.56938
9.941628000000001 -1.02 2.36 9.56938
17.592840000000002 -1.16 2.36 22.3214
28.29636 -1.5 2.36 40.1606
21.41664 -2.38 2.36 28.6944
15.15888 -2.52 2.36 18.2648
12.23748 -2.66 2.36 13.3958
11.29218 -2.72 2.36 11.8203
11.29218 -2.76 2.36 11.8203
44.33376 -2.86 2.36 66.8896
124.19999999999999 -2.96 2.36 200.0
28.29636 -3.1 2.36 40.1606
28.29636 -3.14 2.36 40.1606
124.19999999999999 -3.22 2.36 200.0
21.41664 -3.48 2.36 28.6944
17.592840000000002 -3.88 2.36 22.3214
28.29636 -4.28 2.36 40.1606
28.29636 -4.3 2.36 40.1606
28.29636 -5.88 2.36 40.1606
28.29636 -5.9 2.36 40.1606
15.15888 5.5 2.34 18.2648
15.15888 5.34 2.34 18.2648
13.4736 4.88 2.34 15.456
15.15888 4.64 2.34 18.2648
15.15888 4.62 2.34 18.2648
15.15888 4.44 2.34 18.2648
15.15888 4.38 2.34 18.2648
12.23748 4.32 2.34 13.3958
12.23748 4.3 2.34 13.3958
13.4736 4.24 2.34 15.456
124.19999999999999 4.16 2.34 200.0
44.33376 4.08 2.34 66.8896
15.15888 3.88 2.34 18.2648
15.15888 3.84 2.34 18.2648
15.15888 3.82 2.34 18.2648
15.15888 3.8 2.34 18.2648
15.15888 3.78 2.34 18.2648
15.15888 3.6 2.34 18.2648
15.15888 3.58 2.34 18.2648
15.15888 3.42 2.34 18.2648
15.15888 3.28 2.34 18.2648
15.15888 3.26 2.34 18.2648
15.15888 3.24 2.34 18.2648
15.15888 3.04 2.34 18.2648
17.592840000000002 2.58 2.34 22.3214
17.592840000000002 2.44 2.34 22.3214
15.15888 2.06 2.34 18.2648
15.15888 2.04 2.34 18.2648
28.29636 1.9 2.34 40.1606
28.29636 1.44 2.34 40.1606
28.29636 1.42 2.34 40.1606
44.33376 0.7 2.34 66.8896
44.33376 0.68 2.34 66.8896
44.33376 0.66 2.34 66.8896
28.29636 0.46 2.34 40.1606
13.4736 -0.48 2.34 15.456
13.4736 -0.52 2.34 15.456
9.941628000000001 -1.0 2.34 9.56938
9.941628000000001 -1.02 2.34 9.56938
44.33376 -2.22 2.34 66.8896
44.33376 -2.26 2.34 66.8896
15.15888 -2.52 2.34 18.2648
13.4736 -2.6 2.34 15.456
44.33376 -2.84 2.34 66.8896
44.33376 -2.86 2.34 66.8896
124.19999999999999 -2.96 2.34 200.0
28.29636 -3.1 2.34 40.1606
124.19999999999999 -3.2 2.34 200.0
44.33376 -3.38 2.34 66.8896
21.41664 -3.46 2.34 28.6944
17.592840000000002 -3.58 2.34 22.3214
28.29636 -3.72 2.34 40.1606
17.592840000000002 -3.86 2.34 22.3214
17.592840000000002 -3.88 2.34 22.3214
124.19999999999999 -4.12 2.34 200.0
28.29636 -4.28 2.34 40.1606
28.29636 -4.3 2.34 40.1606
17.592840000000002 -4.84 2.34 22.3214
15.15888 5.36 2.32 18.2648
15.15888 5.34 2.32 18.2648
15.15888 5.1 2.32 18.2648
15.15888 5.08 2.32 18.2648
15.15888 5.06 2.32 18.2648
21.41664 4.98 2.32 28.6944
13.4736 4.88 2.32 15.456
13.4736 4.84 2.32 15.456
13.4736 4.82 2.32 15.456
15.15888 4.62 2.32 18.2648
15.15888 4.6 2.32 18.2648
15.15888 4.44 2.32 18.2648
15.15888 4.42 2.32 18.2648
15.15888 4.38 2.32 18.2648
12.23748 4.3 2.32 13.3958
13.4736 4.24 2.32 15.456
15.15888 3.88 2.32 18.2648
13.4736 3.86 2.32 15.456
15.15888 3.8 2.32 18.2648
15.15888 3.78 2.32 18.2648
15.15888 3.6 2.32 18.2648
15.15888 3.42 2.32 18.2648
17.592840000000002 3.36 2.32 22.3214
15.15888 3.3 2.32 18.2648
15.15888 3.28 2.32 18.2648
15.15888 2.32 2.32 18.2648
28.29636 1.9 2.32 40.1606
28.29636 1.44 2.32 40.1606
28.29636 1.42 2.32 40.1606
44.33376 0.76 2.32 66.8896
44.33376 0.74 2.32 66.8896
44.33376 0.72 2.32 66.8896
44.33376 0.7 2.32 66.8896
28.29636 0.5 2.32 40.1606
13.4736 -0.48 2.32 15.456
13.4736 -0.52 2.32 15.456
10.54584 -0.96 2.32 10.5764
9.941628000000001 -1.02 2.32 9.56938
17.592840000000002 -1.16 2.32 22.3214
28.29636 -1.52 2.32 40.1606
44.33376 -2.24 2.32 66.8896
21.41664 -2.4 2.32 28.6944
17.592840000000002 -2.48 2.32 22.3214
13.4736 -2.6 2.32 15.456
44.33376 -2.84 2.32 66.8896
124.19999999999999 -2.94 2.32 200.0
124.19999999999999 -3.0 2.32 200.0
44.33376 -3.06 2.32 66.8896
28.29636 -3.34 2.32 40.1606
21.41664 -3.46 2.32 28.6944
44.33376 -3.66 2.32 66.8896
28.29636 -3.72 2.32 40.1606
124.19999999999999 -4.1 2.32 200.0
28.29636 -4.3 2.32 40.1606
17.592840000000002 -4.84 2.32 22.3214
15.15888 5.14 2.3 18.2648
15.15888 5.1 2.3 18.2648
13.4736 5.04 2.3 15.456
17.592840000000002 4.94 2.3 22.3214
15.15888 4.92 2.3 18.2648
13.4736 4.84 2.3 15.456
13.4736 4.82 2.3 15.456
15.15888 4.44 2.3 18.2648
15.15888 4.42 2.3 18.2648
13.4736 4.34 2.3 15.456
12.23748 4.3 2.3 13.3958
13.4736 4.28 2.3 15.456
13.4736 4.24 2.3 15.456
124.19999999999999 4.14 2.3 200.0
15.15888 3.78 2.3 18.2648
15.15888 3.74 2.3 18.2648
15.15888 3.6 2.3 18.2648
15.15888 3.44 2.3 18.2648
15.15888 3.3 2.3 18.2648
15.15888 3.28 2.3 18.2648
15.15888 2.46 2.3 18.2648
15.15888 2.32 2.3 18.2648
15.15888 2.3 2.3 18.2648
28.29636 1.9 2.3 40.1606
28.29636 1.88 2.3 40.1606
28.29636 1.44 2.3 40.1606
28.29636 1.42 2.3 40.1606
44.33376 0.78 2.3 66.8896
44.33376 0.76 2.3 66.8896
28.29636 -0.24 2.3 40.1606
28.29636 -0.28 2.3 40.1606
28.29636 -0.48 2.3 40.1606
28.29636 -0.52 2.3 40.1606
28.29636 -1.02 2.3 40.1606
17.592840000000002 -1.16 2.3 22.3214
28.29636 -1.52 2.3 40.1606
44.33376 -2.24 2.3 66.8896
21.41664 -2.4 2.3 28.6944
21.41664 -2.48 2.3 28.6944
13.4736 -2.58 2.3 15.456
124.19999999999999 -2.74 2.3 200.0
21.41664 -3.0 2.3 28.6944
44.33376 -3.06 2.3 66.8896
124.19999999999999 -3.16 2.3 200.0
124.19999999999999 -3.26 2.3 200.0
21.41664 -3.44 2.3 28.6944
44.33376 -3.66 2.3 66.8896
28.29636 -3.82 2.3 40.1606
28.29636 -4.3 2.3 40.1606
17.592840000000002 -4.84 2.3 22.3214
13.4736 5.7 2.28 15.456
13.4736 5.62 2.28 15.456
13.4736 5.56 2.28 15.456
13.4736 5.54 2.28 15.456
15.15888 5.5 2.28 18.2648
15.15888 5.12 2.28 18.2648
17.592840000000002 4.9 2.28 22.3214
13.4736 4.82 2.28 15.456
15.15888 4.68 2.28 18.2648
15.15888 4.58 2.28 18.2648
15.15888 4.42 2.28 18.2648
15.15888 4.4 2.28 18.2648
15.15888 4.34 2.28 18.2648
13.4736 4.24 2.28 15.456
13.4736 4.22 2.28 15.456
15.15888 3.6 2.28 18.2648
12.23748 3.54 2.28 13.3958
12.23748 3.52 2.28 13.3958
15.15888 3.44 2.28 18.2648
15.15888 3.3 2.28 18.2648
15.15888 3.28 2.28 18.2648
12.23748 3.2 2.28 13.3958
15.15888 2.48 2.28 18.2648
15.15888 2.46 2.28 18.2648
15.15888 2.3 2.28 18.2648
28.29636 1.88 2.28 40.1606
28.29636 1.86 2.28 40.1606
28.29636 1.44 2.28 40.1606
28.29636 1.42 2.28 40.1606
44.33376 0.86 2.28 66.8896
44.33376 0.82 2.28 66.8896
44.33376 0.8 2.28 66.8896
44.33376 0.78 2.28 66.8896
28.29636 -0.24 2.28 40.1606
28.29636 -0.28 2.28 40.1606
28.29636 -0.48 2.28 40.1606
28.29636 -0.52 2.28 40.1606
28.29636 -1.02 2.28 40.1606
17.592840000000002 -1.16 2.28 22.3214
28.29636 -1.52 2.28 40.1606
28.29636 -1.58 2.28 40.1606
21.41664 -2.4 2.28 28.6944
21.41664 -2.46 2.28 28.6944
21.41664 -2.48 2.28 28.6944
44.33376 -3.36 2.28 66.8896
17.592840000000002 -3.44 2.28 22.3214
124.19999999999999 -3.54 2.28 200.0
28.29636 -3.82 2.28 40.1606
28.29636 -4.3 2.28 40.1606
17.592840000000002 -4.84 2.28 22.3214
13.4736 5.7 2.26 15.456
13.4736 5.68 2.26 15.456
13.4736 5.58 2.26 15.456
13.4736 5.54 2.26 15.456
15.15888 5.46 2.26 18.2648
15.15888 5.34 2.26 18.2648
15.15888 5.14 2.26 18.2648
15.15888 5.1 2.26 18.2648
15.15888 5.08 2.26 18.2648
13.4736 4.78 2.26 15.456
13.4736 4.76 2.26 15.456
15.15888 4.4 2.26 18.2648
17.592840000000002 4.34 2.26 22.3214
15.15888 4.3 2.26 18.2648
13.4736 4.22 2.26 15.456
13.4736 4.2 2.26 15.456
15.15888 3.8 2.26 18.2648
15.15888 3.6 2.26 18.2648
15.15888 3.58 2.26 18.2648
12.23748 3.52 2.26 13.3958
15.15888 3.44 2.26 18.2648
15.15888 3.32 2.26 18.2648
15.15888 3.3 2.26 18.2648
17.592840000000002 2.52 2.26 22.3214
15.15888 2.46 2.26 18.2648
28.29636 1.98 2.26 40.1606
28.29636 1.88 2.26 40.1606
28.29636 1.44 2.26 40.1606
28.29636 1.42 2.26 40.1606
17.592840000000002 1.34 2.26 22.3214
44.33376 0.86 2.26 66.8896
44.33376 0.84 2.26 66.8896
28.29636 0.0 2.26 40.1606
28.29636 -0.24 2.26 40.1606
28.29636 -0.48 2.26 40.1606
28.29636 -0.52 2.26 40.1606
28.29636 -0.98 2.26 40.1606
28.29636 -1.02 2.26 40.1606
17.592840000000002 -1.16 2.26 22.3214
13.4736 -1.28 2.26 15.456
28.29636 -1.58 2.26 40.1606
44.33376 -2.46 2.26 66.8896
28.29636 -3.28 2.26 40.1606
28.29636 -3.7 2.26 40.1606
28.29636 -4.28 2.26 40.1606
28.29636 -4.3 2.26 40.1606
17.592840000000002 -4.84 2.26 22.3214
28.29636 -5.9 2.26 40.1606
13.4736 5.72 2.24 15.456
13.4736 5.7 2.24 15.456
13.4736 5.68 2.24 15.456
13.4736 5.66 2.24 15.456
15.15888 5.38 2.24 18.2648
13.4736 5.26 2.24 15.456
13.4736 5.22 2.24 15.456
15.15888 5.16 2.24 18.2648
15.15888 5.14 2.24 18.2648
13.4736 4.76 2.24 15.456
15.15888 4.72 2.24 18.2648
28.29636 4.46 2.24 40.1606
21.41664 4.36 2.24 28.6944
21.41664 4.34 2.24 28.6944
21.41664 4.32 2.24 28.6944
13.4736 4.22 2.24 15.456
13.4736 4.2 2.24 15.456
15.15888 3.8 2.24 18.2648
15.15888 3.78 2.24 18.2648
15.15888 3.6 2.24 18.2648
15.15888 3.58 2.24 18.2648
15.15888 3.44 2.24 18.2648
15.15888 3.32 2.24 18.2648
15.15888 3.3 2.24 18.2648
17.592840000000002 2.5 2.24 22.3214
28.29636 1.98 2.24 40.1606
28.29636 1.92 2.24 40.1606
28.29636 1.9 2.24 40.1606
28.29636 1.44 2.24 40.1606
28.29636 1.42 2.24 40.1606
21.41664 1.34 2.24 28.6944
44.33376 0.9 2.24 66.8896
44.33376 0.88 2.24 66.8896
28.29636 0.0 2.24 40.1606
28.29636 -0.24 2.24 40.1606
28.29636 -0.48 2.24 40.1606
28.29636 -0.52 2.24 40.1606
28.29636 -0.98 2.24 40.1606
28.29636 -1.02 2.24 40.1606
17.592840000000002 -1.16 2.24 22.3214
17.592840000000002 -1.18 2.24 22.3214
13.4736 -1.28 2.24 15.456
28.29636 -1.58 2.24 40.1606
13.4736 -2.54 2.24 15.456
44.33376 -3.18 2.24 66.8896
28.29636 -3.26 2.24 40.1606
28.29636 -3.7 2.24 40.1606
28.29636 -4.28 2.24 40.1606
28.29636 -4.3 2.24 40.1606
17.592840000000002 -4.84 2.24 22.3214
13.4736 5.74 2.22 15.456
13.4736 5.72 2.22 15.456
13.4736 5.68 2.22 15.456
13.4736 5.24 2.22 15.456
15.15888 5.16 2.22 18.2648
15.15888 4.7 2.22 18.2648
15.15888 4.66 2.22 18.2648
124.19999999999999 4.56 2.22 200.0
21.41664 4.32 2.22 28.6944
13.4736 4.2 2.22 15.456
15.15888 3.8 2.22 18.2648
15.15888 3.78 2.22 18.2648
21.41664 3.72 2.22 28.6944
15.15888 3.6 2.22 18.2648
15.15888 3.58 2.22 18.2648
15.15888 3.46 2.22 18.2648
15.15888 3.44 2.22 18.2648
15.15888 3.32 2.22 18.2648
15.15888 3.3 2.22 18.2648
17.592840000000002 2.5 2.22 22.3214
15.15888 2.42 2.22 18.2648
28.29636 1.96 2.22 40.1606
28.29636 1.42 2.22 40.1606
21.41664 1.34 2.22 28.6944
44.33376 0.94 2.22 66.8896
28.29636 0.0 2.22 40.1606
28.29636 -0.24 2.22 40.1606
28.29636 -0.52 2.22 40.1606
28.29636 -0.98 2.22 40.1606
28.29636 -1.02 2.22 40.1606
17.592840000000002 -1.16 2.22 22.3214
17.592840000000002 -1.18 2.22 22.3214
13.4736 -1.26 2.22 15.456
13.4736 -1.28 2.22 15.456
13.4736 -1.58 2.22 15.456
13.4736 -1.6 2.22 15.456
13.4736 -2.54 2.22 15.456
124.19999999999999 -3.1 2.22 200.0
44.33376 -3.16 2.22 66.8896
44.33376 -3.18 2.22 66.8896
28.29636 -3.3 2.22 40.1606
17.592840000000002 -3.44 2.22 22.3214
28.29636 -3.7 2.22 40.1606
28.29636 -4.28 2.22 40.1606
28.29636 -4.3 2.22 40.1606
17.592840000000002 -4.84 2.22 22.3214
28.29636 -5.9 2.22 40.1606
13.4736 5.74 2.2 15.456
15.15888 4.68 2.2 18.2648
15.15888 4.66 2.2 18.2648
15.15888 4.64 2.2 18.2648
13.4736 4.2 2.2 15.456
13.4736 4.18 2.2 15.456
21.41664 4.12 2.2 28.6944
21.41664 4.1 2.2 28.6944
21.41664 4.08 2.2 28.6944
15.15888 3.8 2.2 18.2648
15.15888 3.78 2.2 18.2648
15.15888 3.6 2.2 18.2648
15.15888 3.58 2.2 18.2648
15.15888 3.46 2.2 18.2648
15.15888 3.34 2.2 18.2648
15.15888 3.32 2.2 18.2648
13.4736 3.08 2.2 15.456
17.592840000000002 2.5 2.2 22.3214
124.19999999999999 2.04 2.2 200.0
28.29636 1.94 2.2 40.1606
28.29636 1.42 2.2 40.1606
21.41664 1.36 2.2 28.6944
21.41664 1.34 2.2 28.6944
28.29636 1.02 2.2 40.1606
28.29636 1.0 2.2 40.1606
44.33376 0.98 2.2 66.8896
44.33376 0.96 2.2 66.8896
28.29636 0.0 2.2 40.1606
28.29636 -0.24 2.2 40.1606
15.15888 -0.42 2.2 18.2648
28.29636 -0.52 2.2 40.1606
28.29636 -0.98 2.2 40.1606
28.29636 -1.02 2.2 40.1606
28.29636 -1.16 2.2 40.1606
28.29636 -1.18 2.2 40.1606
13.4736 -1.26 2.2 15.456
13.4736 -1.28 2.2 15.456
11.29218 -1.58 2.2 11.8203
21.41664 -2.42 2.2 28.6944
21.41664 -2.98 2.2 28.6944
44.33376 -3.16 2.2 66.8896
28.29636 -3.26 2.2 40.1606
28.29636 -3.7 2.2 40.1606
28.29636 -4.28 2.2 40.1606
28.29636 -4.3 2.2 40.1606
17.592840000000002 -4.84 2.2 22.3214
28.29636 -5.9 2.2 40.1606
13.4736 5.78 2.18 15.456
13.4736 5.76 2.18 15.456
13.4736 5.38 2.18 15.456
15.15888 5.14 2.18 18.2648
21.41664 4.76 2.18 28.6944
21.41664 4.74 2.18 28.6944
15.15888 4.66 2.18 18.2648
15.15888 4.64 2.18 18.2648
15.15888 4.48 2.18 18.2648
13.4736 4.18 2.18 15.456
21.41664 4.08 2.18 28.6944
15.15888 3.8 2.18 18.2648
15.15888 3.78 2.18 18.2648
15.15888 3.6 2.18 18.2648
15.15888 3.58 2.18 18.2648
12.23748 3.52 2.18 13.3958
15.15888 3.46 2.18 18.2648
15.15888 3.34 2.18 18.2648
15.15888 3.32 2.18 18.2648
11.29218 3.14 2.18 11.8203
13.4736 3.08 2.18 15.456
124.19999999999999 2.02 2.18 200.0
28.29636 1.94 2.18 40.1606
28.29636 1.92 2.18 40.1606
28.29636 1.42 2.18 40.1606
28.29636 1.4 2.18 40.1606
21.41664 1.36 2.18 28.6944
28.29636 1.34 2.18 40.1606
28.29636 1.3 2.18 40.1606
28.29636 1.04 2.18 40.1606
28.29636 0.0 2.18 40.1606
28.29636 -0.24 2.18 40.1606
15.15888 -0.42 2.18 18.2648
28.29636 -0.52 2.18 40.1606
28.29636 -0.98 2.18 40.1606
28.29636 -1.02 2.18 40.1606
28.29636 -1.16 2.18 40.1606
28.29636 -1.18 2.18 40.1606
21.41664 -1.26 2.18 28.6944
21.41664 -1.28 2.18 28.6944
13.4736 -1.56 2.18 15.456
28.29636 -1.64 2.18 40.1606
28.29636 -2.26 2.18 40.1606
21.41664 -2.42 2.18 28.6944
21.41664 -2.98 2.18 28.6944
44.33376 -3.14 2.18 66.8896
44.33376 -3.2 2.18 66.8896
44.33376 -3.22 2.18 66.8896
44.33376 -3.24 2.18 66.8896
44.33376 -3.26 2.18 66.8896
21.41664 -3.36 2.18 28.6944
124.19999999999999 -3.54 2.18 200.0
28.29636 -3.7 2.18 40.1606
28.29636 -4.28 2.18 40.1606
28.29636 -4.3 2.18 40.1606
17.592840000000002 -4.84 2.18 22.3214
28.29636 -5.9 2.18 40.1606
13.4736 5.8 2.16 15.456
13.4736 5.78 2.16 15.456
15.15888 5.18 2.16 18.2648
124.19999999999999 4.96 2.16 200.0
21.41664 4.72 2.16 28.6944
15.15888 4.62 2.16 18.2648
15.15888 4.6 2.16 18.2648
15.15888 4.48 2.16 18.2648
15.15888 4.46 2.16 18.2648
13.4736 4.18 2.16 15.456
13.4736 4.16 2.16 15.456
15.15888 3.8 2.16 18.2648
15.15888 3.78 2.16 18.2648
15.15888 3.6 2.16 18.2648
15.15888 3.58 2.16 18.2648
12.23748 3.52 2.16 13.3958
15.15888 3.46 2.16 18.2648
15.15888 3.34 2.16 18.2648
15.15888 3.32 2.16 18.2648
15.15888 2.94 2.16 18.2648
15.15888 2.58 2.16 18.2648
13.4736 2.12 2.16 15.456
124.19999999999999 2.0 2.16 200.0
28.29636 1.32 2.16 40.1606
28.29636 1.3 2.16 40.1606
21.41664 1.22 2.16 28.6944
28.29636 1.1 2.16 40.1606
28.29636 1.08 2.16 40.1606
28.29636 0.36 2.16 40.1606
28.29636 0.0 2.16 40.1606
28.29636 -0.24 2.16 40.1606
17.592840000000002 -0.36 2.16 22.3214
15.15888 -0.42 2.16 18.2648
28.29636 -0.5 2.16 40.1606
28.29636 -0.52 2.16 40.1606
28.29636 -0.98 2.16 40.1606
28.29636 -1.02 2.16 40.1606
28.29636 -1.16 2.16 40.1606
28.29636 -1.18 2.16 40.1606
21.41664 -1.26 2.16 28.6944
21.41664 -1.28 2.16 28.6944
28.29636 -1.64 2.16 40.1606
28.29636 -1.68 2.16 40.1606
21.41664 -2.4 2.16 28.6944
28.29636 -2.52 2.16 40.1606
28.29636 -2.9 2.16 40.1606
44.33376 -3.22 2.16 66.8896
44.33376 -3.24 2.16 66.8896
28.29636 -3.28 2.16 40.1606
21.41664 -3.36 2.16 28.6944
124.19999999999999 -3.5 2.16 200.0
124.19999999999999 -3.54 2.16 200.0
124.19999999999999 -3.56 2.16 200.0
44.33376 -3.62 2.16 66.8896
28.29636 -3.7 2.16 40.1606
28.29636 -4.28 2.16 40.1606
28.29636 -4.3 2.16 40.1606
17.592840000000002 -4.84 2.16 22.3214
28.29636 -5.9 2.16 40.1606
13.4736 5.88 2.14 15.456
13.4736 5.86 2.14 15.456
13.4736 5.82 2.14 15.456
15.15888 5.3 2.14 18.2648
15.15888 5.28 2.14 18.2648
15.15888 5.18 2.14 18.2648
13.4736 4.56 2.14 15.456
15.15888 4.44 2.14 18.2648
11.29218 4.28 2.14 11.8203
13.4736 4.18 2.14 15.456
13.4736 4.16 2.14 15.456
15.15888 3.78 2.14 18.2648
15.15888 3.6 2.14 18.2648
15.15888 3.58 2.14 18.2648
12.23748 3.52 2.14 13.3958
15.15888 3.46 2.14 18.2648
15.15888 3.32 2.14 18.2648
13.4736 3.08 2.14 15.456
12.23748 2.74 2.14 13.3958
15.15888 2.58 2.14 18.2648
15.15888 2.52 2.14 18.2648
15.15888 2.18 2.14 18.2648
28.29636 1.34 2.14 40.1606
28.29636 1.32 2.14 40.1606
28.29636 1.14 2.14 40.1606
28.29636 1.12 2.14 40.1606
28.29636 0.38 2.14 40.1606
28.29636 0.36 2.14 40.1606
28.29636 0.0 2.14 40.1606
28.29636 -0.24 2.14 40.1606
17.592840000000002 -0.36 2.14 22.3214
28.29636 -0.5 2.14 40.1606
28.29636 -0.98 2.14 40.1606
28.29636 -1.02 2.14 40.1606
28.29636 -1.16 2.14 40.1606
28.29636 -1.18 2.14 40.1606
21.41664 -1.26 2.14 28.6944
28.29636 -1.68 2.14 40.1606
28.29636 -1.94 2.14 40.1606
28.29636 -2.5 2.14 40.1606
28.29636 -2.9 2.14 40.1606
21.41664 -3.36 2.14 28.6944
124.19999999999999 -3.46 2.14 200.0
44.33376 -3.62 2.14 66.8896
28.29636 -3.7 2.14 40.1606
28.29636 -4.28 2.14 40.1606
28.29636 -4.3 2.14 40.1606
17.592840000000002 -4.84 2.14 22.3214
28.29636 -5.9 2.14 40.1606
13.4736 5.88 2.12 15.456
13.4736 5.84 2.12 15.456
13.4736 5.78 2.12 15.456
12.23748 5.4 2.12 13.3958
12.23748 5.38 2.12 13.3958
15.15888 5.3 2.12 18.2648
21.41664 4.68 2.12 28.6944
21.41664 4.66 2.12 28.6944
21.41664 4.52 2.12 28.6944
21.41664 4.5 2.12 28.6944
13.4736 4.16 2.12 15.456
15.15888 3.78 2.12 18.2648
15.15888 3.6 2.12 18.2648
15.15888 3.58 2.12 18.2648
12.23748 3.52 2.12 13.3958
15.15888 3.46 2.12 18.2648
15.15888 3.26 2.12 18.2648
15.15888 3.24 2.12 18.2648
15.15888 3.22 2.12 18.2648
15.15888 3.2 2.12 18.2648
15.15888 3.18 2.12 18.2648
13.4736 2.8 2.12 15.456
12.23748 2.72 2.12 13.3958
15.15888 2.54 2.12 18.2648
21.41664 2.42 2.12 28.6944
15.15888 2.24 2.12 18.2648
44.33376 1.9 2.12 66.8896
44.33376 1.88 2.12 66.8896
28.29636 1.36 2.12 40.1606
28.29636 1.34 2.12 40.1606
28.29636 1.32 2.12 40.1606
21.41664 1.26 2.12 28.6944
28.29636 1.18 2.12 40.1606
44.33376 0.42 2.12 66.8896
28.29636 0.38 2.12 40.1606
28.29636 0.36 2.12 40.1606
28.29636 0.0 2.12 40.1606
28.29636 -0.24 2.12 40.1606
28.29636 -0.44 2.12 40.1606
28.29636 -0.46 2.12 40.1606
28.29636 -0.62 2.12 40.1606
28.29636 -0.98 2.12 40.1606
28.29636 -1.02 2.12 40.1606
28.29636 -1.16 2.12 40.1606
28.29636 -1.18 2.12 40.1606
21.41664 -1.26 2.12 28.6944
21.41664 -1.28 2.12 28.6944
10.54584 -1.68 2.12 10.5764
21.41664 -2.0 2.12 28.6944
28.29636 -2.5 2.12 40.1606
15.15888 -2.56 2.12 18.2648
44.33376 -3.2 2.12 66.8896
21.41664 -3.34 2.12 28.6944
44.33376 -3.62 2.12 66.8896
28.29636 -3.7 2.12 40.1606
28.29636 -4.28 2.12 40.1606
28.29636 -4.3 2.12 40.1606
17.592840000000002 -4.84 2.12 22.3214
28.29636 -5.9 2.12 40.1606
13.4736 5.92 2.1 15.456
13.4736 5.9 2.1 15.456
12.23748 5.48 2.1 13.3958
12.23748 5.42 2.1 13.3958
12.23748 5.4 2.1 13.3958
15.15888 5.3 2.1 18.2648
21.41664 4.48 2.1 28.6944
15.15888 4.38 2.1 18.2648
13.4736 4.16 2.1 15.456
13.4736 4.14 2.1 15.456
17.592840000000002 4.08 2.1 22.3214
15.15888 3.78 2.1 18.2648
15.15888 3.6 2.1 18.2648
15.15888 3.58 2.1 18.2648
15.15888 3.46 2.1 18.2648
12.23748 3.36 2.1 13.3958
15.15888 3.3 2.1 18.2648
15.15888 3.28 2.1 18.2648
15.15888 3.26 2.1 18.2648
15.15888 3.12 2.1 18.2648
17.592840000000002 2.86 2.1 22.3214
15.15888 2.68 2.1 18.2648
15.15888 2.66 2.1 18.2648
15.15888 2.54 2.1 18.2648
15.15888 2.48 2.1 18.2648
15.15888 2.24 2.1 18.2648
17.592840000000002 2.04 2.1 22.3214
44.33376 1.94 2.1 66.8896
44.33376 1.88 2.1 66.8896
28.29636 1.36 2.1 40.1606
28.29636 1.34 2.1 40.1606
28.29636 1.28 2.1 40.1606
44.33376 0.42 2.1 66.8896
28.29636 0.38 2.1 40.1606
28.29636 0.02 2.1 40.1606
28.29636 0.0 2.1 40.1606
44.33376 -0.38 2.1 66.8896
28.29636 -0.44 2.1 40.1606
28.29636 -0.58 2.1 40.1606
28.29636 -0.98 2.1 40.1606
28.29636 -1.02 2.1 40.1606
28.29636 -1.16 2.1 40.1606
28.29636 -1.18 2.1 40.1606
21.41664 -1.26 2.1 28.6944
21.41664 -1.28 2.1 28.6944
15.15888 -2.56 2.1 18.2648
44.33376 -3.18 2.1 66.8896
44.33376 -3.2 2.1 66.8896
21.41664 -3.32 2.1 28.6944
28.29636 -3.7 2.1 40.1606
28.29636 -4.28 2.1 40.1606
28.29636 -4.3 2.1 40.1606
17.592840000000002 -4.84 2.1 22.3214
28.29636 -5.9 2.1 40.1606
13.4736 5.94 2.08 15.456
13.4736 5.92 2.08 15.456
15.15888 5.32 2.08 18.2648
17.592840000000002 5.18 2.08 22.3214
15.15888 4.38 2.08 18.2648
15.15888 4.36 2.08 18.2648
13.4736 4.16 2.08 15.456
13.4736 4.14 2.08 15.456
15.15888 3.78 2.08 18.2648
15.15888 3.6 2.08 18.2648
15.15888 3.58 2.08 18.2648
15.15888 3.46 2.08 18.2648
12.23748 3.36 2.08 13.3958
15.15888 3.3 2.08 18.2648
15.15888 3.28 2.08 18.2648
17.592840000000002 2.86 2.08 22.3214
17.592840000000002 2.58 2.08 22.3214
17.592840000000002 2.56 2.08 22.3214
13.4736 2.48 2.08 15.456
21.41664 2.42 2.08 28.6944
44.33376 1.94 2.08 66.8896
44.33376 1.42 2.08 66.8896
28.29636 1.36 2.08 40.1606
28.29636 1.34 2.08 40.1606
21.41664 1.24 2.08 28.6944
21.41664 0.6 2.08 28.6944
44.33376 0.42 2.08 66.8896
28.29636 0.02 2.08 40.1606
44.33376 -0.18 2.08 66.8896
28.29636 -0.98 2.08 40.1606
28.29636 -1.02 2.08 40.1606
28.29636 -1.16 2.08 40.1606
28.29636 -1.18 2.08 40.1606
21.41664 -1.26 2.08 28.6944
21.41664 -1.28 2.08 28.6944
12.23748 -1.66 2.08 13.3958
8.358006 -1.8 2.08 6.93001
8.089788 -1.88 2.08 6.48298
21.41664 -2.42 2.08 28.6944
44.33376 -3.18 2.08 66.8896
44.33376 -3.2 2.08 66.8896
28.29636 -3.26 2.08 40.1606
44.33376 -3.6 2.08 66.8896
28.29636 -3.7 2.08 40.1606
28.29636 -4.28 2.08 40.1606
28.29636 -4.3 2.08 40.1606
17.592840000000002 -4.84 2.08 22.3214
13.4736 5.62 2.06 15.456
13.4736 5.42 2.06 15.456
15.15888 5.3 2.06 18.2648
15.15888 4.36 2.06 18.2648
21.41664 4.28 2.06 28.6944
13.4736 4.14 2.06 15.456
13.4736 4.12 2.06 15.456
15.15888 3.78 2.06 18.2648
15.15888 3.6 2.06 18.2648
15.15888 3.58 2.06 18.2648
12.23748 3.52 2.06 13.3958
15.15888 3.46 2.06 18.2648
12.23748 3.36 2.06 13.3958
15.15888 3.3 2.06 18.2648
15.15888 3.28 2.06 18.2648
17.592840000000002 2.86 2.06 22.3214
17.592840000000002 2.56 2.06 22.3214
17.592840000000002 2.52 2.06 22.3214
15.15888 2.24 2.06 18.2648
13.4736 2.1 2.06 15.456
13.4736 2.08 2.06 15.456
28.29636 1.96 2.06 40.1606
28.29636 1.36 2.06 40.1606
28.29636 1.34 2.06 40.1606
28.29636 0.66 2.06 40.1606
44.33376 0.42 2.06 66.8896
124.19999999999999 -0.46 2.06 200.0
28.29636 -0.98 2.06 40.1606
28.29636 -1.02 2.06 40.1606
124.19999999999999 -1.16 2.06 200.0
124.19999999999999 -1.18 2.06 200.0
21.41664 -1.26 2.06 28.6944
124.19999999999999 -1.54 2.06 200.0
12.23748 -1.62 2.06 13.3958
8.089788 -1.88 2.06 6.48298
124.19999999999999 -3.12 2.06 200.0
44.33376 -3.18 2.06 66.8896
44.33376 -3.6 2.06 66.8896
28.29636 -3.7 2.06 40.1606
28.29636 -4.28 2.06 40.1606
28.29636 -4.3 2.06 40.1606
17.592840000000002 -4.84 2.06 22.3214
13.4736 5.8 2.04 15.456
13.4736 5.7 2.04 15.456
13.4736 5.68 2.04 15.456
13.4736 5.64 2.04 15.456
13.4736 4.9 2.04 15.456
13.4736 4.88 2.04 15.456
124.19999999999999 4.46 2.04 200.0
124.19999999999999 4.44 2.04 200.0
21.41664 4.26 2.04 28.6944
13.4736 4.12 2.04 15.456
15.15888 4.04 2.04 18.2648
15.15888 3.78 2.04 18.2648
15.15888 3.76 2.04 18.2648
15.15888 3.58 2.04 18.2648
15.15888 3.46 2.04 18.2648
15.15888 3.3 2.04 18.2648
15.15888 3.28 2.04 18.2648
17.592840000000002 2.56 2.04 22.3214
17.592840000000002 2.54 2.04 22.3214
13.4736 2.1 2.04 15.456
13.4736 2.08 2.04 15.456
28.29636 1.36 2.04 40.1606
28.29636 0.7 2.04 40.1606
44.33376 0.42 2.04 66.8896
44.33376 0.38 2.04 66.8896
28.29636 -0.02 2.04 40.1606
28.29636 -0.98 2.04 40.1606
124.19999999999999 -1.16 2.04 200.0
124.19999999999999 -1.18 2.04 200.0
21.41664 -1.26 2.04 28.6944
21.41664 -1.28 2.04 28.6944
12.23748 -1.64 2.04 13.3958
12.23748 -1.66 2.04 13.3958
11.29218 -1.72 2.04 11.8203
124.19999999999999 -3.1 2.04 200.0
124.19999999999999 -3.12 2.04 200.0
44.33376 -3.14 2.04 66.8896
44.33376 -3.18 2.04 66.8896
44.33376 -3.5 2.04 66.8896
44.33376 -4.22 2.04 66.8896
28.29636 -4.28 2.04 40.1606
28.29636 -4.3 2.04 40.1606
17.592840000000002 -4.84 2.04 22.3214
28.29636 -5.9 2.04 40.1606
13.4736 5.64 2.02 15.456
13.4736 4.9 2.02 15.456
44.33376 4.4 2.02 66.8896
11.29218 4.22 2.02 11.8203
13.4736 4.12 2.02 15.456
13.4736 4.1 2.02 15.456
15.15888 4.02 2.02 18.2648
15.15888 3.78 2.02 18.2648
15.15888 3.76 2.02 18.2648
13.4736 3.58 2.02 15.456
15.15888 3.46 2.02 18.2648
15.15888 3.3 2.02 18.2648
15.15888 3.28 2.02 18.2648
15.15888 2.7 2.02 18.2648
17.592840000000002 2.58 2.02 22.3214
17.592840000000002 2.56 2.02 22.3214
21.41664 2.48 2.02 28.6944
28.29636 1.36 2.02 40.1606
28.29636 0.72 2.02 40.1606
44.33376 -0.76 2.02 66.8896
44.33376 -0.98 2.02 66.8896
44.33376 -1.02 2.02 66.8896
28.29636 -1.04 2.02 40.1606
124.19999999999999 -1.16 2.02 200.0
124.19999999999999 -1.18 2.02 200.0
21.41664 -1.26 2.02 28.6944
12.23748 -1.62 2.02 13.3958
12.23748 -1.64 2.02 13.3958
124.19999999999999 -3.04 2.02 200.0
124.19999999999999 -3.08 2.02 200.0
124.19999999999999 -3.1 2.02 200.0
44.33376 -3.14 2.02 66.8896
44.33376 -3.3 2.02 66.8896
28.29636 -3.38 2.02 40.1606
28.29636 -3.78 2.02 40.1606
124.19999999999999 -4.1 2.02 200.0
124.19999999999999 -4.14 2.02 200.0
44.33376 -4.22 2.02 66.8896
28.29636 -4.28 2.02 40.1606
28.29636 -4.3 2.02 40.1606
28.29636 -5.9 2.02 40.1606
15.15888 5.2 2.0 18.2648
13.4736 4.88 2.0 15.456
13.4736 4.86 2.0 15.456
44.33376 4.36 2.0 66.8896
11.29218 4.2 2.0 11.8203
13.4736 4.12 2.0 15.456
13.4736 4.1 2.0 15.456
15.15888 3.78 2.0 18.2648
15.15888 3.76 2.0 18.2648
13.4736 3.58 2.0 15.456
17.592840000000002 3.52 2.0 22.3214
15.15888 3.46 2.0 18.2648
15.15888 3.28 2.0 18.2648
15.15888 2.7 2.0 18.2648
15.15888 2.68 2.0 18.2648
17.592840000000002 2.56 2.0 22.3214
28.29636 1.36 2.0 40.1606
28.29636 0.74 2.0 40.1606
28.29636 0.72 2.0 40.1606
28.29636 0.4 2.0 40.1606
28.29636 0.38 2.0 40.1606
44.33376 -0.98 2.0 66.8896
124.19999999999999 -1.16 2.0 200.0
124.19999999999999 -1.18 2.0 200.0
21.41664 -1.26 2.0 28.6944
21.41664 -1.28 2.0 28.6944
12.23748 -1.56 2.0 13.3958
12.23748 -1.62 2.0 13.3958
28.29636 -2.12 2.0 40.1606
124.19999999999999 -3.04 2.0 200.0
124.19999999999999 -3.06 2.0 200.0
44.33376 -3.14 2.0 66.8896
44.33376 -3.28 2.0 66.8896
124.19999999999999 -3.62 2.0 200.0
28.29636 -3.78 2.0 40.1606
124.19999999999999 -4.08 2.0 200.0
124.19999999999999 -4.1 2.0 200.0
124.19999999999999 -4.14 2.0 200.0
44.33376 -4.2 2.0 66.8896
44.33376 -4.22 2.0 66.8896
28.29636 -4.28 2.0 40.1606
28.29636 -4.3 2.0 40.1606
13.4736 5.5 1.98 15.456
15.15888 5.32 1.98 18.2648
15.15888 5.24 1.98 18.2648
124.19999999999999 4.42 1.98 200.0
15.15888 4.28 1.98 18.2648
15.15888 4.1 1.98 18.2648
15.15888 4.08 1.98 18.2648
15.15888 3.78 1.98 18.2648
15.15888 3.76 1.98 18.2648
15.15888 3.6 1.98 18.2648
15.15888 3.58 1.98 18.2648
15.15888 3.46 1.98 18.2648
15.15888 2.8 1.98 18.2648
15.15888 2.78 1.98 18.2648
15.15888 2.76 1.98 18.2648
17.592840000000002 2.28 1.98 22.3214
28.29636 1.94 1.98 40.1606
28.29636 1.38 1.98 40.1606
28.29636 1.36 1.98 40.1606
28.29636 0.72 1.98 40.1606
28.29636 0.4 1.98 40.1606
44.33376 -0.98 1.98 66.8896
124.19999999999999 -1.16 1.98 200.0
124.19999999999999 -1.18 1.98 200.0
21.41664 -1.26 1.98 28.6944
21.41664 -1.28 1.98 28.6944
12.23748 -1.6 1.98 13.3958
28.29636 -2.12 1.98 40.1606
124.19999999999999 -3.04 1.98 200.0
124.19999999999999 -3.06 1.98 200.0
44.33376 -3.28 1.98 66.8896
124.19999999999999 -3.6 1.98 200.0
124.19999999999999 -4.08 1.98 200.0
124.19999999999999 -4.1 1.98 200.0
124.19999999999999 -4.14 1.98 200.0
44.33376 -4.22 1.98 66.8896
28.29636 -4.28 1.98 40.1606
28.29636 -4.3 1.98 40.1606
15.15888 5.32 1.96 18.2648
15.15888 5.26 1.96 18.2648
15.15888 5.24 1.96 18.2648
13.4736 4.96 1.96 15.456
15.15888 4.28 1.96 18.2648
15.15888 4.1 1.96 18.2648
15.15888 4.08 1.96 18.2648
15.15888 3.78 1.96 18.2648
15.15888 3.76 1.96 18.2648
15.15888 3.6 1.96 18.2648
15.15888 3.58 1.96 18.2648
15.15888 3.48 1.96 18.2648
15.15888 3.46 1.96 18.2648
15.15888 3.3 1.96 18.2648
15.15888 3.28 1.96 18.2648
15.15888 3.26 1.96 18.2648
15.15888 3.24 1.96 18.2648
15.15888 3.22 1.96 18.2648
13.4736 3.06 1.96 15.456
15.15888 2.94 1.96 18.2648
15.15888 2.92 1.96 18.2648
15.15888 2.88 1.96 18.2648
15.15888 2.86 1.96 18.2648
15.15888 2.84 1.96 18.2648
15.15888 2.76 1.96 18.2648
15.15888 2.16 1.96 18.2648
28.29636 1.94 1.96 40.1606
28.29636 1.92 1.96 40.1606
28.29636 1.38 1.96 40.1606
44.33376 0.74 1.96 66.8896
44.33376 0.72 1.96 66.8896
15.15888 0.56 1.96 18.2648
44.33376 -0.98 1.96 66.8896
28.29636 -1.04 1.96 40.1606
124.19999999999999 -1.16 1.96 200.0
124.19999999999999 -1.18 1.96 200.0
28.29636 -1.26 1.96 40.1606
12.23748 -1.58 1.96 13.3958
12.23748 -1.76 1.96 13.3958
124.19999999999999 -3.04 1.96 200.0
44.33376 -3.72 1.96 66.8896
124.19999999999999 -4.08 1.96 200.0
124.19999999999999 -4.1 1.96 200.0
124.19999999999999 -4.14 1.96 200.0
44.33376 -4.22 1.96 66.8896
28.29636 -4.3 1.96 40.1606
13.4736 5.8 1.94 15.456
15.15888 5.32 1.94 18.2648
15.15888 5.3 1.94 18.2648
15.15888 5.24 1.94 18.2648
15.15888 4.28 1.94 18.2648
15.15888 4.26 1.94 18.2648
15.15888 4.08 1.94 18.2648
15.15888 4.06 1.94 18.2648
15.15888 3.78 1.94 18.2648
15.15888 3.6 1.94 18.2648
15.15888 3.58 1.94 18.2648
15.15888 3.48 1.94 18.2648
15.15888 3.32 1.94 18.2648
15.15888 3.3 1.94 18.2648
15.15888 3.28 1.94 18.2648
17.592840000000002 3.0 1.94 22.3214
15.15888 2.46 1.94 18.2648
15.15888 2.42 1.94 18.2648
15.15888 2.16 1.94 18.2648
12.23748 2.06 1.94 13.3958
28.29636 1.94 1.94 40.1606
28.29636 1.92 1.94 40.1606
44.33376 0.74 1.94 66.8896
44.33376 0.72 1.94 66.8896
21.41664 0.66 1.94 28.6944
15.15888 0.56 1.94 18.2648
28.29636 0.5 1.94 40.1606
44.33376 -0.98 1.94 66.8896
28.29636 -1.04 1.94 40.1606
124.19999999999999 -1.16 1.94 200.0
28.29636 -1.26 1.94 40.1606
9.023147999999999 -1.68 1.94 8.03858
12.23748 -1.76 1.94 13.3958
12.23748 -1.84 1.94 13.3958
28.29636 -3.34 1.94 40.1606
44.33376 -3.72 1.94 66.8896
124.19999999999999 -4.08 1.94 200.0
124.19999999999999 -4.1 1.94 200.0
124.19999999999999 -4.14 1.94 200.0
44.33376 -4.2 1.94 66.8896
44.33376 -4.22 1.94 66.8896
28.29636 -4.3 1.94 40.1606
15.15888 5.32 1.92 18.2648
15.15888 5.28 1.92 18.2648
15.15888 4.26 1.92 18.2648
15.15888 4.06 1.92 18.2648
15.15888 4.04 1.92 18.2648
15.15888 3.78 1.92 18.2648
15.15888 3.6 1.92 18.2648
15.15888 3.58 1.92 18.2648
15.15888 3.48 1.92 18.2648
12.23748 3.4 1.92 13.3958
15.15888 3.32 1.92 18.2648
17.592840000000002 3.0 1.92 22.3214
17.592840000000002 2.98 1.92 22.3214
17.592840000000002 2.5 1.92 22.3214
15.15888 2.16 1.92 18.2648
15.15888 2.14 1.92 18.2648
28.29636 1.92 1.92 40.1606
28.29636 1.9 1.92 40.1606
44.33376 0.74 1.92 66.8896
21.41664 0.66 1.92 28.6944
44.33376 -0.98 1.92 66.8896
28.29636 -1.04 1.92 40.1606
124.19999999999999 -1.16 1.92 200.0
10.54584 -1.5 1.92 10.5764
9.023147999999999 -1.68 1.92 8.03858
12.23748 -1.82 1.92 13.3958
9.442464 -2.06 1.92 8.73744
13.4736 -2.56 1.92 15.456
44.33376 -3.26 1.92 66.8896
44.33376 -3.72 1.92 66.8896
124.19999999999999 -4.1 1.92 200.0
124.19999999999999 -4.14 1.92 200.0
44.33376 -4.22 1.92 66.8896
28.29636 -4.3 1.92 40.1606
15.15888 5.34 1.9 18.2648
15.15888 5.32 1.9 18.2648
17.592840000000002 5.26 1.9 22.3214
15.15888 4.26 1.9 18.2648
15.15888 4.24 1.9 18.2648
15.15888 4.06 1.9 18.2648
15.15888 4.04 1.9 18.2648
15.15888 3.78 1.9 18.2648
15.15888 3.76 1.9 18.2648
15.15888 3.6 1.9 18.2648
15.15888 3.58 1.9 18.2648
15.15888 3.48 1.9 18.2648
12.23748 3.4 1.9 13.3958
15.15888 3.34 1.9 18.2648
15.15888 3.32 1.9 18.2648
28.29636 2.94 1.9 40.1606
124.19999999999999 2.88 1.9 200.0
28.29636 2.82 1.9 40.1606
15.15888 2.14 1.9 18.2648
28.29636 1.92 1.9 40.1606
28.29636 1.9 1.9 40.1606
28.29636 1.3 1.9 40.1606
44.33376 0.74 1.9 66.8896
21.41664 0.66 1.9 28.6944
28.29636 0.5 1.9 40.1606
44.33376 -0.98 1.9 66.8896
28.29636 -1.04 1.9 40.1606
10.54584 -1.48 1.9 10.5764
12.23748 -1.74 1.9 13.3958
12.23748 -1.82 1.9 13.3958
17.592840000000002 -2.42 1.9 22.3214
13.4736 -2.56 1.9 15.456
124.19999999999999 -3.62 1.9 200.0
44.33376 -3.72 1.9 66.8896
124.19999999999999 -4.08 1.9 200.0
124.19999999999999 -4.1 1.9 200.0
124.19999999999999 -4.14 1.9 200.0
44.33376 -4.22 1.9 66.8896
28.29636 -4.3 1.9 40.1606
13.4736 5.64 1.88 15.456
15.15888 5.34 1.88 18.2648
15.15888 4.24 1.88 18.2648
15.15888 4.22 1.88 18.2648
21.41664 4.16 1.88 28.6944
15.15888 4.04 1.88 18.2648
15.15888 4.02 1.88 18.2648
15.15888 3.78 1.88 18.2648
15.15888 3.76 1.88 18.2648
15.15888 3.58 1.88 18.2648
15.15888 3.5 1.88 18.2648
12.23748 3.4 1.88 13.3958
15.15888 3.34 1.88 18.2648
15.15888 3.32 1.88 18.2648
124.19999999999999 2.88 1.88 200.0
28.29636 1.92 1.88 40.1606
28.29636 1.3 1.88 40.1606
28.29636 0.5 1.88 40.1606
44.33376 -0.98 1.88 66.8896
28.29636 -1.04 1.88 40.1606
11.29218 -1.42 1.88 11.8203
10.54584 -1.48 1.88 10.5764
15.15888 -1.7 1.88 18.2648
12.23748 -1.8 1.88 13.3958
21.41664 -2.34 1.88 28.6944
13.4736 -2.52 1.88 15.456
44.33376 -3.16 1.88 66.8896
44.33376 -3.72 1.88 66.8896
124.19999999999999 -4.08 1.88 200.0
124.19999999999999 -4.1 1.88 200.0
124.19999999999999 -4.14 1.88 200.0
44.33376 -4.22 1.88 66.8896
28.29636 -4.3 1.88 40.1606
17.592840000000002 -4.86 1.88 22.3214
13.4736 5.72 1.86 15.456
13.4736 5.64 1.86 15.456
13.4736 5.62 1.86 15.456
13.4736 4.84 1.86 15.456
15.15888 4.24 1.86 18.2648
15.15888 4.22 1.86 18.2648
15.15888 4.04 1.86 18.2648
15.15888 4.02 1.86 18.2648
15.15888 3.78 1.86 18.2648
15.15888 3.76 1.86 18.2648
15.15888 3.6 1.86 18.2648
15.15888 3.58 1.86 18.2648
15.15888 3.54 1.86 18.2648
15.15888 3.5 1.86 18.2648
15.15888 3.34 1.86 18.2648
15.15888 3.32 1.86 18.2648
124.19999999999999 2.88 1.86 200.0
28.29636 1.92 1.86 40.1606
28.29636 1.32 1.86 40.1606
44.33376 0.78 1.86 66.8896
44.33376 0.76 1.86 66.8896
28.29636 0.5 1.86 40.1606
44.33376 -0.98 1.86 66.8896
28.29636 -1.04 1.86 40.1606
9.442464 -1.62 1.86 8.73744
15.15888 -1.68 1.86 18.2648
12.23748 -1.78 1.86 13.3958
12.23748 -1.8 1.86 13.3958
9.941628000000001 -1.94 1.86 9.56938
13.4736 -2.52 1.86 15.456
13.4736 -2.56 1.86 15.456
28.29636 -3.02 1.86 40.1606
124.19999999999999 -4.08 1.86 200.0
44.33376 -4.22 1.86 66.8896
28.29636 -4.3 1.86 40.1606
13.4736 5.62 1.84 15.456
13.4736 5.56 1.84 15.456
21.41664 4.32 1.84 28.6944
15.15888 4.22 1.84 18.2648
15.15888 4.2 1.84 18.2648
15.15888 4.02 1.84 18.2648
15.15888 4.0 1.84 18.2648
15.15888 3.78 1.84 18.2648
15.15888 3.76 1.84 18.2648
15.15888 3.58 1.84 18.2648
15.15888 3.54 1.84 18.2648
15.15888 3.5 1.84 18.2648
15.15888 3.36 1.84 18.2648
15.15888 3.34 1.84 18.2648
15.15888 3.32 1.84 18.2648
124.19999999999999 2.88 1.84 200.0
15.15888 2.1 1.84 18.2648
28.29636 1.32 1.84 40.1606
44.33376 -0.98 1.84 66.8896
28.29636 -1.04 1.84 40.1606
11.29218 -1.42 1.84 11.8203
9.442464 -1.62 1.84 8.73744
15.15888 -1.66 1.84 18.2648
15.15888 -1.68 1.84 18.2648
12.23748 -1.76 1.84 13.3958
9.941628000000001 -1.92 1.84 9.56938
28.29636 -2.16 1.84 40.1606
28.29636 -2.18 1.84 40.1606
21.41664 -2.56 1.84 28.6944
15.15888 -3.06 1.84 18.2648
44.33376 -3.16 1.84 66.8896
44.33376 -3.58 1.84 66.8896
28.29636 -4.3 1.84 40.1606
28.29636 -4.36 1.84 40.1606
17.592840000000002 -4.86 1.84 22.3214
13.4736 5.64 1.82 15.456
13.4736 5.56 1.82 15.456
15.15888 4.22 1.82 18.2648
15.15888 4.2 1.82 18.2648
15.15888 4.02 1.82 18.2648
15.15888 4.0 1.82 18.2648
15.15888 3.98 1.82 18.2648
15.15888 3.78 1.82 18.2648
15.15888 3.76 1.82 18.2648
15.15888 3.58 1.82 18.2648
15.15888 3.56 1.82 18.2648
15.15888 3.52 1.82 18.2648
15.15888 3.5 1.82 18.2648
15.15888 3.36 1.82 18.2648
15.15888 3.34 1.82 18.2648
124.19999999999999 2.94 1.82 200.0
124.19999999999999 2.88 1.82 200.0
15.15888 2.08 1.82 18.2648
28.29636 1.98 1.82 40.1606
28.29636 1.92 1.82 40.1606
28.29636 1.88 1.82 40.1606
28.29636 1.32 1.82 40.1606
28.29636 -0.74 1.82 40.1606
44.33376 -0.98 1.82 66.8896
28.29636 -1.04 1.82 40.1606
13.4736 -1.3 1.82 15.456
11.29218 -1.42 1.82 11.8203
12.23748 -1.74 1.82 13.3958
10.54584 -1.84 1.82 10.5764
9.941628000000001 -1.92 1.82 9.56938
28.29636 -2.16 1.82 40.1606
28.29636 -2.98 1.82 40.1606
15.15888 -3.06 1.82 18.2648
44.33376 -3.16 1.82 66.8896
124.19999999999999 -3.5 1.82 200.0
44.33376 -3.58 1.82 66.8896
28.29636 -4.3 1.82 40.1606
17.592840000000002 -4.86 1.82 22.3214
13.4736 5.58 1.8 15.456
15.15888 4.2 1.8 18.2648
15.15888 4.18 1.8 18.2648
15.15888 4.0 1.8 18.2648
15.15888 3.98 1.8 18.2648
15.15888 3.76 1.8 18.2648
21.41664 3.66 1.8 28.6944
15.15888 3.58 1.8 18.2648
15.15888 3.56 1.8 18.2648
15.15888 3.52 1.8 18.2648
21.41664 3.46 1.8 28.6944
15.15888 3.38 1.8 18.2648
15.15888 3.36 1.8 18.2648
124.19999999999999 2.94 1.8 200.0
124.19999999999999 2.88 1.8 200.0
124.19999999999999 2.86 1.8 200.0
17.592840000000002 2.56 1.8 22.3214
28.29636 1.98 1.8 40.1606
28.29636 1.9 1.8 40.1606
28.29636 1.88 1.8 40.1606
28.29636 1.34 1.8 40.1606
28.29636 1.32 1.8 40.1606
21.41664 1.24 1.8 28.6944
28.29636 -0.74 1.8 40.1606
44.33376 -0.98 1.8 66.8896
28.29636 -1.04 1.8 40.1606
13.4736 -1.28 1.8 15.456
9.941628000000001 -1.56 1.8 9.56938
12.23748 -1.72 1.8 13.3958
10.54584 -1.82 1.8 10.5764
9.941628000000001 -1.9 1.8 9.56938
9.941628000000001 -1.92 1.8 9.56938
28.29636 -2.98 1.8 40.1606
124.19999999999999 -3.5 1.8 200.0
124.19999999999999 -4.12 1.8 200.0
28.29636 -4.3 1.8 40.1606
28.29636 -4.32 1.8 40.1606
17.592840000000002 -4.86 1.8 22.3214
15.15888 4.18 1.78 18.2648
15.15888 4.16 1.78 18.2648
15.15888 4.0 1.78 18.2648
15.15888 3.98 1.78 18.2648
15.15888 3.96 1.78 18.2648
15.15888 3.78 1.78 18.2648
15.15888 3.76 1.78 18.2648
21.41664 3.64 1.78 28.6944
21.41664 3.48 1.78 28.6944
21.41664 3.46 1.78 28.6944
21.41664 3.44 1.78 28.6944
15.15888 3.38 1.78 18.2648
15.15888 3.36 1.78 18.2648
124.19999999999999 2.94 1.78 200.0
124.19999999999999 2.88 1.78 200.0
124.19999999999999 2.86 1.78 200.0
28.29636 2.74 1.78 40.1606
28.29636 1.98 1.78 40.1606
28.29636 1.96 1.78 40.1606
28.29636 1.36 1.78 40.1606
28.29636 1.34 1.78 40.1606
28.29636 1.32 1.78 40.1606
21.41664 1.26 1.78 28.6944
28.29636 1.24 1.78 40.1606
28.29636 1.2 1.78 40.1606
44.33376 0.74 1.78 66.8896
28.29636 -0.74 1.78 40.1606
44.33376 -0.98 1.78 66.8896
28.29636 -1.04 1.78 40.1606
9.941628000000001 -1.56 1.78 9.56938
12.23748 -1.7 1.78 13.3958
10.54584 -1.8 1.78 10.5764
9.941628000000001 -1.88 1.78 9.56938
21.41664 -2.9 1.78 28.6944
28.29636 -3.66 1.78 40.1606
28.29636 -4.32 1.78 40.1606
17.592840000000002 -4.86 1.78 22.3214
15.15888 5.46 1.76 18.2648
15.15888 4.16 1.76 18.2648
15.15888 3.98 1.76 18.2648
15.15888 3.96 1.76 18.2648
15.15888 3.78 1.76 18.2648
15.15888 3.76 1.76 18.2648
21.41664 3.46 1.76 28.6944
15.15888 3.38 1.76 18.2648
15.15888 3.36 1.76 18.2648
124.19999999999999 2.94 1.76 200.0
124.19999999999999 2.86 1.76 200.0
15.15888 2.6 1.76 18.2648
28.29636 1.98 1.76 40.1606
28.29636 1.96 1.76 40.1606
28.29636 1.36 1.76 40.1606
28.29636 1.2 1.76 40.1606
28.29636 -1.04 1.76 40.1606
15.15888 -1.22 1.76 18.2648
21.41664 -1.42 1.76 28.6944
9.941628000000001 -1.56 1.76 9.56938
11.29218 -1.62 1.76 11.8203
12.23748 -1.68 1.76 13.3958
9.941628000000001 -1.86 1.76 9.56938
21.41664 -2.9 1.76 28.6944
28.29636 -3.0 1.76 40.1606
28.29636 -4.32 1.76 40.1606
17.592840000000002 -4.86 1.76 22.3214
15.15888 5.4 1.74 18.2648
13.4736 5.26 1.74 15.456
15.15888 4.3 1.74 18.2648
15.15888 4.16 1.74 18.2648
15.15888 4.14 1.74 18.2648
21.41664 4.06 1.74 28.6944
15.15888 3.96 1.74 18.2648
15.15888 3.94 1.74 18.2648
12.23748 3.86 1.74 13.3958
15.15888 3.78 1.74 18.2648
15.15888 3.76 1.74 18.2648
124.19999999999999 3.7 1.74 200.0
15.15888 3.38 1.74 18.2648
15.15888 3.36 1.74 18.2648
124.19999999999999 2.94 1.74 200.0
124.19999999999999 2.86 1.74 200.0
28.29636 1.96 1.74 40.1606
28.29636 1.22 1.74 40.1606
28.29636 -1.02 1.74 40.1606
28.29636 -1.04 1.74 40.1606
21.41664 -1.42 1.74 28.6944
15.15888 -1.56 1.74 18.2648
12.23748 -1.62 1.74 13.3958
12.23748 -1.64 1.74 13.3958
12.23748 -1.66 1.74 13.3958
17.592840000000002 -2.5 1.74 22.3214
21.41664 -2.88 1.74 28.6944
44.33376 -3.56 1.74 66.8896
28.29636 -4.32 1.74 40.1606
17.592840000000002 -4.86 1.74 22.3214
15.15888 4.3 1.72 18.2648
15.15888 4.14 1.72 18.2648
21.41664 4.06 1.72 28.6944
21.41664 4.04 1.72 28.6944
15.15888 3.96 1.72 18.2648
15.15888 3.94 1.72 18.2648
15.15888 3.92 1.72 18.2648
15.15888 3.86 1.72 18.2648
15.15888 3.84 1.72 18.2648
15.15888 3.78 1.72 18.2648
15.15888 3.76 1.72 18.2648
124.19999999999999 3.68 1.72 200.0
15.15888 3.38 1.72 18.2648
15.15888 3.36 1.72 18.2648
124.19999999999999 2.94 1.72 200.0
124.19999999999999 2.86 1.72 200.0
15.15888 2.56 1.72 18.2648
28.29636 1.96 1.72 40.1606
28.29636 1.24 1.72 40.1606
28.29636 1.22 1.72 40.1606
28.29636 -1.02 1.72 40.1606
28.29636 -1.04 1.72 40.1606
15.15888 -1.54 1.72 18.2648
12.23748 -1.64 1.72 13.3958
10.54584 -1.74 1.72 10.5764
28.29636 -1.96 1.72 40.1606
21.41664 -2.14 1.72 28.6944
17.592840000000002 -2.66 1.72 22.3214
17.592840000000002 -2.68 1.72 22.3214
44.33376 -3.56 1.72 66.8896
28.29636 -3.7 1.72 40.1606
28.29636 -4.32 1.72 40.1606
17.592840000000002 -4.86 1.72 22.3214
13.4736 4.92 1.7 15.456
15.15888 4.14 1.7 18.2648
15.15888 4.12 1.7 18.2648
21.41664 4.04 1.7 28.6944
15.15888 3.94 1.7 18.2648
15.15888 3.92 1.7 18.2648
15.15888 3.9 1.7 18.2648
15.15888 3.8 1.7 18.2648
15.15888 3.78 1.7 18.2648
124.19999999999999 3.68 1.7 200.0
15.15888 3.38 1.7 18.2648
15.15888 3.36 1.7 18.2648
124.19999999999999 2.94 1.7 200.0
124.19999999999999 2.86 1.7 200.0
28.29636 2.04 1.7 40.1606
28.29636 1.96 1.7 40.1606
28.29636 1.24 1.7 40.1606
28.29636 1.22 1.7 40.1606
9.941628000000001 -0.62 1.7 9.56938
28.29636 -1.04 1.7 40.1606
15.15888 -1.52 1.7 18.2648
15.15888 -1.54 1.7 18.2648
12.23748 -1.62 1.7 13.3958
10.54584 -1.72 1.7 10.5764
10.54584 -1.74 1.7 10.5764
9.941628000000001 -1.8 1.7 9.56938
28.29636 -2.0 1.7 40.1606
28.29636 -2.08 1.7 40.1606
21.41664 -2.14 1.7 28.6944
17.592840000000002 -2.64 1.7 22.3214
17.592840000000002 -2.98 1.7 22.3214
28.29636 -3.7 1.7 40.1606
28.29636 -4.32 1.7 40.1606
17.592840000000002 -4.86 1.7 22.3214
15.15888 4.14 1.68 18.2648
15.15888 4.12 1.68 18.2648
21.41664 4.02 1.68 28.6944
15.15888 3.92 1.68 18.2648
15.15888 3.9 1.68 18.2648
15.15888 3.88 1.68 18.2648
