VERSION .7
FIELDS x y z rgb
SIZE 4 4 4 4
TYPE F F F F
COUNT 1 1 1 1
WIDTH 1608
HEIGHT 1
VIEWPOINT 0 0 0 1 0 0 0
POINTS 1608
DATA ascii
17.592840000000002 -4.92 -0.28 22.3214
44.33376 -5.24 -0.28 66.8896
44.33376 -5.26 -0.28 66.8896
21.41664 -5.46 -0.28 28.6944
21.41664 -5.48 -0.28 28.6944
17.592840000000002 -5.52 -0.28 22.3214
17.592840000000002 -5.54 -0.28 22.3214
21.41664 -5.64 -0.28 28.6944
21.41664 -5.66 -0.28 28.6944
21.41664 -6.18 -0.28 28.6944
21.41664 4.66 -0.3 28.6944
21.41664 4.4 -0.3 28.6944
13.4736 4.08 -0.3 15.456
13.4736 4.06 -0.3 15.456
13.4736 3.92 -0.3 15.456
21.41664 3.78 -0.3 28.6944
21.41664 3.74 -0.3 28.6944
21.41664 3.7 -0.3 28.6944
21.41664 2.52 -0.3 28.6944
21.41664 2.5 -0.3 28.6944
21.41664 2.24 -0.3 28.6944
15.15888 2.16 -0.3 18.2648
9.442464 1.22 -0.3 8.73744
21.41664 1.02 -0.3 28.6944
21.41664 0.98 -0.3 28.6944
17.592840000000002 0.96 -0.3 22.3214
21.41664 -0.52 -0.3 28.6944
21.41664 -0.54 -0.3 28.6944
21.41664 -0.58 -0.3 28.6944
21.41664 -1.54 -0.3 28.6944
124.19999999999999 -1.74 -0.3 200.0
124.19999999999999 -2.24 -0.3 200.0
21.41664 -2.28 -0.3 28.6944
28.29636 -2.46 -0.3 40.1606
17.592840000000002 -2.52 -0.3 22.3214
17.592840000000002 -2.54 -0.3 22.3214
21.41664 -2.62 -0.3 28.6944
17.592840000000002 -2.66 -0.3 22.3214
13.4736 -2.68 -0.3 15.456
21.41664 -4.86 -0.3 28.6944
17.592840000000002 -4.92 -0.3 22.3214
21.41664 -5.04 -0.3 28.6944
21.41664 -5.68 -0.3 28.6944
21.41664 -6.06 -0.3 28.6944
21.41664 -6.18 -0.3 28.6944
28.29636 -6.26 -0.3 40.1606
21.41664 -6.36 -0.3 28.6944
21.41664 5.02 -0.32 28.6944
13.4736 4.06 -0.32 15.456
21.41664 3.78 -0.32 28.6944
21.41664 3.7 -0.32 28.6944
21.41664 3.52 -0.32 28.6944
21.41664 3.5 -0.32 28.6944
21.41664 2.84 -0.32 28.6944
21.41664 2.7 -0.32 28.6944
21.41664 2.5 -0.32 28.6944
21.41664 2.24 -0.32 28.6944
21.41664 1.64 -0.32 28.6944
9.442464 1.22 -0.32 8.73744
21.41664 1.02 -0.32 28.6944
21.41664 0.98 -0.32 28.6944
21.41664 -0.5 -0.32 28.6944
21.41664 -0.52 -0.32 28.6944
21.41664 -0.58 -0.32 28.6944
17.592840000000002 -0.6 -0.32 22.3214
10.54584 -0.88 -0.32 10.5764
10.54584 -0.9 -0.32 10.5764
10.54584 -0.94 -0.32 10.5764
21.41664 -1.54 -0.32 28.6944
21.41664 -1.56 -0.32 28.6944
17.592840000000002 -2.36 -0.32 22.3214
21.41664 -2.62 -0.32 28.6944
13.4736 -2.68 -0.32 15.456
17.592840000000002 -2.78 -0.32 22.3214
28.29636 -4.78 -0.32 40.1606
21.41664 -4.86 -0.32 28.6944
21.41664 -5.7 -0.32 28.6944
17.592840000000002 -5.76 -0.32 22.3214
21.41664 -6.06 -0.32 28.6944
21.41664 -6.18 -0.32 28.6944
28.29636 -6.26 -0.32 40.1606
21.41664 5.02 -0.34 28.6944
21.41664 5.0 -0.34 28.6944
21.41664 4.7 -0.34 28.6944
124.19999999999999 4.2 -0.34 200.0
13.4736 4.06 -0.34 15.456
21.41664 3.78 -0.34 28.6944
21.41664 3.7 -0.34 28.6944
21.41664 3.52 -0.34 28.6944
21.41664 3.36 -0.34 28.6944
21.41664 3.34 -0.34 28.6944
21.41664 2.84 -0.34 28.6944
21.41664 2.24 -0.34 28.6944
21.41664 2.0 -0.34 28.6944
21.41664 1.98 -0.34 28.6944
21.41664 1.64 -0.34 28.6944
21.41664 1.02 -0.34 28.6944
21.41664 0.98 -0.34 28.6944
44.33376 -0.32 -0.34 66.8896
124.19999999999999 -0.42 -0.34 200.0
21.41664 -0.5 -0.34 28.6944
21.41664 -0.52 -0.34 28.6944
17.592840000000002 -0.58 -0.34 22.3214
17.592840000000002 -0.6 -0.34 22.3214
10.54584 -0.88 -0.34 10.5764
10.54584 -0.9 -0.34 10.5764
21.41664 -2.64 -0.34 28.6944
17.592840000000002 -2.78 -0.34 22.3214
21.41664 -3.34 -0.34 28.6944
28.29636 -4.78 -0.34 40.1606
21.41664 -4.86 -0.34 28.6944
17.592840000000002 -4.92 -0.34 22.3214
21.41664 -5.7 -0.34 28.6944
21.41664 -5.72 -0.34 28.6944
17.592840000000002 -5.78 -0.34 22.3214
21.41664 -6.06 -0.34 28.6944
21.41664 -6.32 -0.34 28.6944
21.41664 4.38 -0.36 28.6944
13.4736 4.06 -0.36 15.456
21.41664 3.78 -0.36 28.6944
21.41664 3.7 -0.36 28.6944
21.41664 3.54 -0.36 28.6944
21.41664 3.52 -0.36 28.6944
21.41664 3.06 -0.36 28.6944
21.41664 3.0 -0.36 28.6944
21.41664 2.52 -0.36 28.6944
21.41664 2.24 -0.36 28.6944
13.4736 2.08 -0.36 15.456
21.41664 1.98 -0.36 28.6944
21.41664 1.64 -0.36 28.6944
21.41664 1.62 -0.36 28.6944
9.442464 1.22 -0.36 8.73744
21.41664 1.02 -0.36 28.6944
21.41664 0.98 -0.36 28.6944
44.33376 -0.3 -0.36 66.8896
124.19999999999999 -0.4 -0.36 200.0
124.19999999999999 -0.42 -0.36 200.0
17.592840000000002 -0.6 -0.36 22.3214
124.19999999999999 -2.04 -0.36 200.0
44.33376 -2.1 -0.36 66.8896
15.15888 -2.26 -0.36 18.2648
21.41664 -2.48 -0.36 28.6944
12.23748 -2.52 -0.36 13.3958
12.23748 -2.54 -0.36 13.3958
17.592840000000002 -2.78 -0.36 22.3214
21.41664 -3.34 -0.36 28.6944
28.29636 -4.78 -0.36 40.1606
21.41664 -4.86 -0.36 28.6944
17.592840000000002 -4.92 -0.36 22.3214
21.41664 -5.72 -0.36 28.6944
17.592840000000002 -5.78 -0.36 22.3214
21.41664 -6.04 -0.36 28.6944
21.41664 -6.06 -0.36 28.6944
17.592840000000002 -6.12 -0.36 22.3214
21.41664 -6.34 -0.36 28.6944
21.41664 -6.36 -0.36 28.6944
21.41664 5.2 -0.38 28.6944
21.41664 5.18 -0.38 28.6944
28.29636 4.16 -0.38 40.1606
28.29636 4.14 -0.38 40.1606
13.4736 4.08 -0.38 15.456
13.4736 4.06 -0.38 15.456
13.4736 3.92 -0.38 15.456
21.41664 3.78 -0.38 28.6944
21.41664 3.7 -0.38 28.6944
21.41664 3.52 -0.38 28.6944
21.41664 2.24 -0.38 28.6944
17.592840000000002 2.18 -0.38 22.3214
21.41664 1.98 -0.38 28.6944
21.41664 1.64 -0.38 28.6944
21.41664 1.62 -0.38 28.6944
9.442464 1.22 -0.38 8.73744
21.41664 1.02 -0.38 28.6944
21.41664 0.98 -0.38 28.6944
21.41664 0.74 -0.38 28.6944
44.33376 -0.3 -0.38 66.8896
124.19999999999999 -0.4 -0.38 200.0
124.19999999999999 -0.42 -0.38 200.0
13.4736 -0.6 -0.38 15.456
13.4736 -0.62 -0.38 15.456
124.19999999999999 -1.84 -0.38 200.0
124.19999999999999 -2.02 -0.38 200.0
124.19999999999999 -2.04 -0.38 200.0
21.41664 -2.1 -0.38 28.6944
21.41664 -2.12 -0.38 28.6944
15.15888 -2.2 -0.38 18.2648
21.41664 -2.22 -0.38 28.6944
15.15888 -2.26 -0.38 18.2648
21.41664 -2.3 -0.38 28.6944
17.592840000000002 -2.78 -0.38 22.3214
15.15888 -2.88 -0.38 18.2648
28.29636 -4.78 -0.38 40.1606
21.41664 -4.86 -0.38 28.6944
17.592840000000002 -4.92 -0.38 22.3214
21.41664 -5.72 -0.38 28.6944
21.41664 -6.04 -0.38 28.6944
28.29636 -6.26 -0.38 40.1606
21.41664 -6.36 -0.38 28.6944
17.592840000000002 -6.42 -0.38 22.3214
28.29636 5.38 -0.4 40.1606
21.41664 4.2 -0.4 28.6944
13.4736 4.08 -0.4 15.456
13.4736 4.06 -0.4 15.456
11.29218 4.0 -0.4 11.8203
13.4736 3.92 -0.4 15.456
21.41664 3.78 -0.4 28.6944
21.41664 3.76 -0.4 28.6944
21.41664 3.7 -0.4 28.6944
21.41664 2.24 -0.4 28.6944
17.592840000000002 2.16 -0.4 22.3214
21.41664 1.64 -0.4 28.6944
21.41664 1.02 -0.4 28.6944
12.23748 0.8 -0.4 13.3958
44.33376 -0.42 -0.4 66.8896
15.15888 -0.56 -0.4 18.2648
13.4736 -0.6 -0.4 15.456
13.4736 -0.62 -0.4 15.456
124.19999999999999 -2.02 -0.4 200.0
124.19999999999999 -2.04 -0.4 200.0
21.41664 -2.1 -0.4 28.6944
21.41664 -2.12 -0.4 28.6944
15.15888 -2.2 -0.4 18.2648
21.41664 -2.22 -0.4 28.6944
15.15888 -2.26 -0.4 18.2648
21.41664 -2.3 -0.4 28.6944
15.15888 -2.88 -0.4 18.2648
21.41664 -3.14 -0.4 28.6944
21.41664 -4.86 -0.4 28.6944
21.41664 -5.72 -0.4 28.6944
21.41664 -5.74 -0.4 28.6944
21.41664 -6.04 -0.4 28.6944
28.29636 -6.26 -0.4 40.1606
21.41664 -6.36 -0.4 28.6944
17.592840000000002 -6.42 -0.4 22.3214
28.29636 5.54 -0.42 40.1606
28.29636 5.52 -0.42 40.1606
13.4736 4.08 -0.42 15.456
13.4736 4.06 -0.42 15.456
11.29218 4.0 -0.42 11.8203
21.41664 3.7 -0.42 28.6944
21.41664 3.08 -0.42 28.6944
21.41664 2.98 -0.42 28.6944
21.41664 2.24 -0.42 28.6944
21.41664 2.22 -0.42 28.6944
17.592840000000002 2.16 -0.42 22.3214
21.41664 1.98 -0.42 28.6944
21.41664 1.64 -0.42 28.6944
21.41664 1.38 -0.42 28.6944
21.41664 1.36 -0.42 28.6944
21.41664 1.02 -0.42 28.6944
13.4736 0.18 -0.42 15.456
44.33376 -0.3 -0.42 66.8896
44.33376 -0.4 -0.42 66.8896
28.29636 -0.42 -0.42 40.1606
15.15888 -0.56 -0.42 18.2648
13.4736 -0.6 -0.42 15.456
13.4736 -0.62 -0.42 15.456
124.19999999999999 -2.04 -0.42 200.0
21.41664 -2.1 -0.42 28.6944
21.41664 -2.12 -0.42 28.6944
21.41664 -2.22 -0.42 28.6944
15.15888 -2.26 -0.42 18.2648
21.41664 -2.3 -0.42 28.6944
17.592840000000002 -2.78 -0.42 22.3214
15.15888 -2.88 -0.42 18.2648
21.41664 -3.14 -0.42 28.6944
21.41664 -3.16 -0.42 28.6944
21.41664 -3.32 -0.42 28.6944
21.41664 -4.86 -0.42 28.6944
21.41664 -5.48 -0.42 28.6944
21.41664 -5.72 -0.42 28.6944
21.41664 -5.74 -0.42 28.6944
28.29636 -5.94 -0.42 40.1606
28.29636 -5.96 -0.42 40.1606
21.41664 -6.02 -0.42 28.6944
28.29636 -6.26 -0.42 40.1606
21.41664 -6.36 -0.42 28.6944
17.592840000000002 -6.42 -0.42 22.3214
28.29636 5.66 -0.44 40.1606
28.29636 5.54 -0.44 40.1606
28.29636 5.52 -0.44 40.1606
13.4736 4.08 -0.44 15.456
13.4736 4.06 -0.44 15.456
21.41664 3.7 -0.44 28.6944
21.41664 3.46 -0.44 28.6944
21.41664 3.08 -0.44 28.6944
21.41664 2.98 -0.44 28.6944
21.41664 2.46 -0.44 28.6944
13.4736 2.3 -0.44 15.456
21.41664 2.24 -0.44 28.6944
21.41664 2.22 -0.44 28.6944
21.41664 1.64 -0.44 28.6944
21.41664 1.38 -0.44 28.6944
21.41664 1.36 -0.44 28.6944
21.41664 1.02 -0.44 28.6944
13.4736 0.18 -0.44 15.456
44.33376 -0.4 -0.44 66.8896
28.29636 -0.42 -0.44 40.1606
21.41664 -0.54 -0.44 28.6944
13.4736 -0.62 -0.44 15.456
17.592840000000002 -2.78 -0.44 22.3214
15.15888 -2.88 -0.44 18.2648
15.15888 -2.92 -0.44 18.2648
21.41664 -3.24 -0.44 28.6944
21.41664 -4.86 -0.44 28.6944
17.592840000000002 -4.92 -0.44 22.3214
21.41664 -5.44 -0.44 28.6944
21.41664 -5.48 -0.44 28.6944
21.41664 -5.5 -0.44 28.6944
21.41664 -5.52 -0.44 28.6944
21.41664 -5.56 -0.44 28.6944
17.592840000000002 -5.58 -0.44 22.3214
21.41664 -5.72 -0.44 28.6944
28.29636 -5.94 -0.44 40.1606
28.29636 -6.26 -0.44 40.1606
21.41664 -6.36 -0.44 28.6944
17.592840000000002 -6.42 -0.44 22.3214
28.29636 5.68 -0.46 40.1606
13.4736 4.08 -0.46 15.456
13.4736 4.06 -0.46 15.456
11.29218 4.0 -0.46 11.8203
21.41664 3.76 -0.46 28.6944
21.41664 3.7 -0.46 28.6944
21.41664 3.44 -0.46 28.6944
21.41664 3.08 -0.46 28.6944
21.41664 2.98 -0.46 28.6944
21.41664 2.46 -0.46 28.6944
21.41664 2.44 -0.46 28.6944
21.41664 1.64 -0.46 28.6944
21.41664 1.6 -0.46 28.6944
21.41664 1.36 -0.46 28.6944
21.41664 1.02 -0.46 28.6944
21.41664 0.96 -0.46 28.6944
13.4736 0.18 -0.46 15.456
124.19999999999999 -0.34 -0.46 200.0
124.19999999999999 -0.36 -0.46 200.0
21.41664 -0.52 -0.46 28.6944
21.41664 -0.54 -0.46 28.6944
13.4736 -0.6 -0.46 15.456
17.592840000000002 -2.78 -0.46 22.3214
17.592840000000002 -2.8 -0.46 22.3214
15.15888 -2.92 -0.46 18.2648
21.41664 -3.24 -0.46 28.6944
21.41664 -3.26 -0.46 28.6944
21.41664 -4.86 -0.46 28.6944
17.592840000000002 -4.92 -0.46 22.3214
21.41664 -5.52 -0.46 28.6944
21.41664 -5.54 -0.46 28.6944
17.592840000000002 -5.58 -0.46 22.3214
17.592840000000002 -5.6 -0.46 22.3214
17.592840000000002 -5.62 -0.46 22.3214
21.41664 -5.72 -0.46 28.6944
28.29636 -6.28 -0.46 40.1606
21.41664 -6.36 -0.46 28.6944
21.41664 -6.38 -0.46 28.6944
28.29636 5.7 -0.48 40.1606
28.29636 5.68 -0.48 40.1606
21.41664 4.18 -0.48 28.6944
12.23748 4.06 -0.48 13.3958
21.41664 3.08 -0.48 28.6944
21.41664 2.98 -0.48 28.6944
21.41664 2.46 -0.48 28.6944
21.41664 1.64 -0.48 28.6944
21.41664 1.02 -0.48 28.6944
21.41664 0.96 -0.48 28.6944
13.4736 0.18 -0.48 15.456
28.29636 -0.26 -0.48 40.1606
28.29636 -0.28 -0.48 40.1606
124.19999999999999 -0.34 -0.48 200.0
124.19999999999999 -0.36 -0.48 200.0
21.41664 -0.52 -0.48 28.6944
21.41664 -0.54 -0.48 28.6944
13.4736 -0.6 -0.48 15.456
17.592840000000002 -2.78 -0.48 22.3214
17.592840000000002 -2.8 -0.48 22.3214
21.41664 -2.94 -0.48 28.6944
21.41664 -2.96 -0.48 28.6944
21.41664 -3.28 -0.48 28.6944
21.41664 -3.56 -0.48 28.6944
21.41664 -3.58 -0.48 28.6944
28.29636 -4.8 -0.48 40.1606
21.41664 -4.84 -0.48 28.6944
21.41664 -4.86 -0.48 28.6944
17.592840000000002 -4.92 -0.48 22.3214
17.592840000000002 -4.94 -0.48 22.3214
17.592840000000002 -4.96 -0.48 22.3214
15.15888 -5.0 -0.48 18.2648
15.15888 -5.02 -0.48 18.2648
15.15888 -5.04 -0.48 18.2648
15.15888 -5.06 -0.48 18.2648
21.41664 -5.54 -0.48 28.6944
21.41664 -5.56 -0.48 28.6944
21.41664 -6.36 -0.48 28.6944
21.41664 -6.38 -0.48 28.6944
28.29636 5.68 -0.5 40.1606
21.41664 4.28 -0.5 28.6944
12.23748 4.06 -0.5 13.3958
21.41664 3.76 -0.5 28.6944
21.41664 3.42 -0.5 28.6944
21.41664 3.4 -0.5 28.6944
21.41664 2.98 -0.5 28.6944
21.41664 2.88 -0.5 28.6944
21.41664 2.46 -0.5 28.6944
21.41664 1.64 -0.5 28.6944
21.41664 1.6 -0.5 28.6944
21.41664 1.36 -0.5 28.6944
21.41664 1.02 -0.5 28.6944
21.41664 0.96 -0.5 28.6944
13.4736 0.18 -0.5 15.456
124.19999999999999 -0.14 -0.5 200.0
28.29636 -0.26 -0.5 40.1606
28.29636 -0.3 -0.5 40.1606
124.19999999999999 -0.36 -0.5 200.0
28.29636 -0.42 -0.5 40.1606
21.41664 -0.48 -0.5 28.6944
21.41664 -0.5 -0.5 28.6944
15.15888 -0.6 -0.5 18.2648
15.15888 -0.62 -0.5 18.2648
17.592840000000002 -2.78 -0.5 22.3214
17.592840000000002 -2.8 -0.5 22.3214
21.41664 -2.96 -0.5 28.6944
21.41664 -6.32 -0.5 28.6944
21.41664 -6.38 -0.5 28.6944
28.29636 5.68 -0.52 40.1606
21.41664 4.26 -0.52 28.6944
21.41664 4.22 -0.52 28.6944
21.41664 4.2 -0.52 28.6944
21.41664 4.16 -0.52 28.6944
12.23748 4.06 -0.52 13.3958
21.41664 3.64 -0.52 28.6944
21.41664 3.42 -0.52 28.6944
21.41664 3.4 -0.52 28.6944
21.41664 3.2 -0.52 28.6944
21.41664 2.98 -0.52 28.6944
21.41664 2.46 -0.52 28.6944
21.41664 1.64 -0.52 28.6944
21.41664 1.36 -0.52 28.6944
21.41664 1.02 -0.52 28.6944
21.41664 0.96 -0.52 28.6944
13.4736 0.18 -0.52 15.456
124.19999999999999 -0.14 -0.52 200.0
28.29636 -0.26 -0.52 40.1606
28.29636 -0.3 -0.52 40.1606
44.33376 -0.36 -0.52 66.8896
17.592840000000002 -0.42 -0.52 22.3214
15.15888 -0.44 -0.52 18.2648
21.41664 -0.48 -0.52 28.6944
21.41664 -0.5 -0.52 28.6944
11.29218 -0.6 -0.52 11.8203
11.29218 -0.62 -0.52 11.8203
17.592840000000002 -2.78 -0.52 22.3214
21.41664 -2.96 -0.52 28.6944
21.41664 -2.98 -0.52 28.6944
21.41664 -3.22 -0.52 28.6944
21.41664 -3.24 -0.52 28.6944
21.41664 -3.3 -0.52 28.6944
28.29636 -5.8 -0.52 40.1606
28.29636 -5.82 -0.52 40.1606
21.41664 -5.88 -0.52 28.6944
21.41664 -6.2 -0.52 28.6944
21.41664 -6.38 -0.52 28.6944
21.41664 -6.4 -0.52 28.6944
28.29636 5.68 -0.54 40.1606
21.41664 4.9 -0.54 28.6944
21.41664 4.26 -0.54 28.6944
12.23748 4.06 -0.54 13.3958
21.41664 3.76 -0.54 28.6944
21.41664 3.4 -0.54 28.6944
21.41664 3.36 -0.54 28.6944
21.41664 3.32 -0.54 28.6944
21.41664 2.98 -0.54 28.6944
21.41664 2.46 -0.54 28.6944
21.41664 2.44 -0.54 28.6944
21.41664 1.64 -0.54 28.6944
21.41664 1.36 -0.54 28.6944
21.41664 1.02 -0.54 28.6944
21.41664 0.96 -0.54 28.6944
13.4736 0.18 -0.54 15.456
28.29636 -0.28 -0.54 40.1606
28.29636 -0.3 -0.54 40.1606
21.41664 -0.36 -0.54 28.6944
17.592840000000002 -0.4 -0.54 22.3214
13.4736 -0.48 -0.54 15.456
21.41664 -0.54 -0.54 28.6944
15.15888 -0.6 -0.54 18.2648
15.15888 -0.62 -0.54 18.2648
15.15888 -0.64 -0.54 18.2648
21.41664 -0.84 -0.54 28.6944
124.19999999999999 -2.72 -0.54 200.0
21.41664 -2.98 -0.54 28.6944
21.41664 -3.22 -0.54 28.6944
21.41664 -3.24 -0.54 28.6944
21.41664 -3.3 -0.54 28.6944
21.41664 -3.32 -0.54 28.6944
28.29636 -4.02 -0.54 40.1606
21.41664 -4.1 -0.54 28.6944
28.29636 -5.8 -0.54 40.1606
21.41664 -5.86 -0.54 28.6944
21.41664 -6.2 -0.54 28.6944
28.29636 5.68 -0.56 40.1606
21.41664 4.9 -0.56 28.6944
12.23748 4.06 -0.56 13.3958
21.41664 3.32 -0.56 28.6944
21.41664 2.98 -0.56 28.6944
21.41664 2.44 -0.56 28.6944
21.41664 2.42 -0.56 28.6944
21.41664 2.4 -0.56 28.6944
21.41664 2.22 -0.56 28.6944
21.41664 1.64 -0.56 28.6944
21.41664 1.6 -0.56 28.6944
21.41664 1.36 -0.56 28.6944
21.41664 1.02 -0.56 28.6944
21.41664 0.96 -0.56 28.6944
13.4736 0.18 -0.56 15.456
28.29636 -0.28 -0.56 40.1606
21.41664 -0.32 -0.56 28.6944
17.592840000000002 -0.38 -0.56 22.3214
17.592840000000002 -0.4 -0.56 22.3214
13.4736 -0.52 -0.56 15.456
21.41664 -0.54 -0.56 28.6944
15.15888 -0.6 -0.56 18.2648
15.15888 -0.62 -0.56 18.2648
15.15888 -0.64 -0.56 18.2648
15.15888 -0.72 -0.56 18.2648
21.41664 -0.82 -0.56 28.6944
21.41664 -0.84 -0.56 28.6944
21.41664 -0.86 -0.56 28.6944
28.29636 -2.54 -0.56 40.1606
124.19999999999999 -2.72 -0.56 200.0
21.41664 -2.98 -0.56 28.6944
21.41664 -3.66 -0.56 28.6944
21.41664 -4.1 -0.56 28.6944
28.29636 -5.78 -0.56 40.1606
28.29636 -5.8 -0.56 40.1606
21.41664 -6.2 -0.56 28.6944
28.29636 5.68 -0.58 40.1606
21.41664 5.62 -0.58 28.6944
21.41664 4.9 -0.58 28.6944
21.41664 3.32 -0.58 28.6944
21.41664 2.98 -0.58 28.6944
21.41664 2.4 -0.58 28.6944
15.15888 2.3 -0.58 18.2648
21.41664 2.24 -0.58 28.6944
21.41664 2.22 -0.58 28.6944
21.41664 1.64 -0.58 28.6944
21.41664 1.36 -0.58 28.6944
21.41664 1.02 -0.58 28.6944
21.41664 0.96 -0.58 28.6944
13.4736 0.18 -0.58 15.456
28.29636 -0.28 -0.58 40.1606
28.29636 -0.3 -0.58 40.1606
21.41664 -0.32 -0.58 28.6944
21.41664 -0.34 -0.58 28.6944
17.592840000000002 -0.38 -0.58 22.3214
17.592840000000002 -0.4 -0.58 22.3214
15.15888 -0.44 -0.58 18.2648
13.4736 -0.52 -0.58 15.456
12.23748 -0.82 -0.58 13.3958
17.592840000000002 -0.84 -0.58 22.3214
17.592840000000002 -0.86 -0.58 22.3214
17.592840000000002 -0.88 -0.58 22.3214
13.4736 -1.02 -0.58 15.456
21.41664 -2.52 -0.58 28.6944
21.41664 -2.54 -0.58 28.6944
17.592840000000002 -2.8 -0.58 22.3214
17.592840000000002 -2.82 -0.58 22.3214
21.41664 -2.98 -0.58 28.6944
21.41664 -3.26 -0.58 28.6944
21.41664 -3.64 -0.58 28.6944
21.41664 -4.08 -0.58 28.6944
21.41664 -4.16 -0.58 28.6944
21.41664 -4.84 -0.58 28.6944
21.41664 -5.22 -0.58 28.6944
21.41664 -5.24 -0.58 28.6944
21.41664 -5.36 -0.58 28.6944
28.29636 -5.78 -0.58 40.1606
28.29636 -6.12 -0.58 40.1606
21.41664 5.62 -0.6 28.6944
21.41664 4.9 -0.6 28.6944
21.41664 3.62 -0.6 28.6944
21.41664 3.3 -0.6 28.6944
21.41664 2.98 -0.6 28.6944
21.41664 2.24 -0.6 28.6944
21.41664 2.22 -0.6 28.6944
21.41664 1.64 -0.6 28.6944
21.41664 1.02 -0.6 28.6944
21.41664 0.96 -0.6 28.6944
13.4736 0.18 -0.6 15.456
10.54584 0.0 -0.6 10.5764
9.941628000000001 -0.06 -0.6 9.56938
15.15888 -0.44 -0.6 18.2648
21.41664 -0.86 -0.6 28.6944
21.41664 -0.88 -0.6 28.6944
21.41664 -1.04 -0.6 28.6944
21.41664 -1.06 -0.6 28.6944
21.41664 -1.08 -0.6 28.6944
21.41664 -1.1 -0.6 28.6944
21.41664 -2.52 -0.6 28.6944
17.592840000000002 -2.8 -0.6 22.3214
17.592840000000002 -2.82 -0.6 22.3214
21.41664 -2.98 -0.6 28.6944
21.41664 -3.0 -0.6 28.6944
21.41664 -3.26 -0.6 28.6944
21.41664 -3.78 -0.6 28.6944
21.41664 -4.08 -0.6 28.6944
21.41664 -4.16 -0.6 28.6944
21.41664 -4.18 -0.6 28.6944
21.41664 -4.82 -0.6 28.6944
21.41664 -4.84 -0.6 28.6944
17.592840000000002 -4.9 -0.6 22.3214
21.41664 -5.24 -0.6 28.6944
21.41664 -5.36 -0.6 28.6944
28.29636 -5.78 -0.6 40.1606
21.41664 5.62 -0.62 28.6944
21.41664 4.16 -0.62 28.6944
21.41664 3.62 -0.62 28.6944
21.41664 2.98 -0.62 28.6944
21.41664 2.24 -0.62 28.6944
21.41664 2.22 -0.62 28.6944
21.41664 1.64 -0.62 28.6944
17.592840000000002 1.3 -0.62 22.3214
21.41664 1.02 -0.62 28.6944
21.41664 0.96 -0.62 28.6944
13.4736 0.18 -0.62 15.456
15.15888 -0.44 -0.62 18.2648
17.592840000000002 -0.86 -0.62 22.3214
21.41664 -1.08 -0.62 28.6944
21.41664 -1.1 -0.62 28.6944
21.41664 -1.12 -0.62 28.6944
124.19999999999999 -2.14 -0.62 200.0
124.19999999999999 -2.16 -0.62 200.0
44.33376 -2.22 -0.62 66.8896
124.19999999999999 -2.24 -0.62 200.0
124.19999999999999 -2.26 -0.62 200.0
124.19999999999999 -2.28 -0.62 200.0
44.33376 -2.36 -0.62 66.8896
21.41664 -2.5 -0.62 28.6944
21.41664 -2.98 -0.62 28.6944
21.41664 -3.0 -0.62 28.6944
28.29636 -3.68 -0.62 40.1606
21.41664 -3.76 -0.62 28.6944
21.41664 -4.18 -0.62 28.6944
21.41664 -4.82 -0.62 28.6944
21.41664 -4.84 -0.62 28.6944
17.592840000000002 -4.9 -0.62 22.3214
17.592840000000002 -4.92 -0.62 22.3214
28.29636 -5.82 -0.62 40.1606
21.41664 -5.88 -0.62 28.6944
21.41664 5.62 -0.64 28.6944
21.41664 4.82 -0.64 28.6944
21.41664 4.16 -0.64 28.6944
21.41664 3.62 -0.64 28.6944
21.41664 2.98 -0.64 28.6944
21.41664 2.24 -0.64 28.6944
21.41664 2.22 -0.64 28.6944
28.29636 1.64 -0.64 40.1606
21.41664 1.02 -0.64 28.6944
21.41664 0.96 -0.64 28.6944
17.592840000000002 0.3 -0.64 22.3214
21.41664 -1.1 -0.64 28.6944
21.41664 -1.14 -0.64 28.6944
44.33376 -2.34 -0.64 66.8896
44.33376 -2.38 -0.64 66.8896
21.41664 -2.5 -0.64 28.6944
21.41664 -2.52 -0.64 28.6944
15.15888 -2.68 -0.64 18.2648
21.41664 -2.98 -0.64 28.6944
21.41664 -3.0 -0.64 28.6944
21.41664 -3.62 -0.64 28.6944
28.29636 -3.68 -0.64 40.1606
21.41664 -3.76 -0.64 28.6944
21.41664 -3.96 -0.64 28.6944
21.41664 -4.36 -0.64 28.6944
21.41664 -5.36 -0.64 28.6944
28.29636 -5.84 -0.64 40.1606
21.41664 -5.9 -0.64 28.6944
21.41664 5.62 -0.66 28.6944
21.41664 4.9 -0.66 28.6944
21.41664 4.82 -0.66 28.6944
21.41664 4.72 -0.66 28.6944
21.41664 3.64 -0.66 28.6944
21.41664 2.98 -0.66 28.6944
21.41664 2.24 -0.66 28.6944
21.41664 2.22 -0.66 28.6944
28.29636 1.64 -0.66 40.1606
21.41664 1.02 -0.66 28.6944
21.41664 0.96 -0.66 28.6944
11.29218 0.08 -0.66 11.8203
10.54584 0.02 -0.66 10.5764
15.15888 -0.44 -0.66 18.2648
21.41664 -1.1 -0.66 28.6944
21.41664 -1.12 -0.66 28.6944
15.15888 -1.2 -0.66 18.2648
15.15888 -1.22 -0.66 18.2648
12.23748 -1.36 -0.66 13.3958
12.23748 -1.4 -0.66 13.3958
10.54584 -1.48 -0.66 10.5764
9.941628000000001 -1.54 -0.66 9.56938
9.941628000000001 -1.56 -0.66 9.56938
44.33376 -2.38 -0.66 66.8896
21.41664 -2.5 -0.66 28.6944
21.41664 -2.52 -0.66 28.6944
21.41664 -2.6 -0.66 28.6944
17.592840000000002 -2.64 -0.66 22.3214
21.41664 -2.98 -0.66 28.6944
21.41664 -3.0 -0.66 28.6944
21.41664 -3.5 -0.66 28.6944
21.41664 -3.62 -0.66 28.6944
28.29636 -3.68 -0.66 40.1606
21.41664 -3.76 -0.66 28.6944
21.41664 -4.08 -0.66 28.6944
21.41664 -4.36 -0.66 28.6944
21.41664 -5.22 -0.66 28.6944
21.41664 -5.36 -0.66 28.6944
28.29636 5.88 -0.68 40.1606
21.41664 5.62 -0.68 28.6944
21.41664 4.9 -0.68 28.6944
21.41664 4.82 -0.68 28.6944
21.41664 3.64 -0.68 28.6944
21.41664 2.98 -0.68 28.6944
21.41664 2.96 -0.68 28.6944
21.41664 2.24 -0.68 28.6944
21.41664 2.22 -0.68 28.6944
17.592840000000002 1.3 -0.68 22.3214
21.41664 1.02 -0.68 28.6944
21.41664 0.96 -0.68 28.6944
13.4736 0.18 -0.68 15.456
10.54584 0.02 -0.68 10.5764
28.29636 -0.28 -0.68 40.1606
15.15888 -0.44 -0.68 18.2648
15.15888 -0.5 -0.68 18.2648
12.23748 -0.56 -0.68 13.3958
124.19999999999999 -0.82 -0.68 200.0
124.19999999999999 -0.92 -0.68 200.0
124.19999999999999 -0.94 -0.68 200.0
28.29636 -1.0 -0.68 40.1606
28.29636 -1.02 -0.68 40.1606
21.41664 -1.12 -0.68 28.6944
21.41664 -1.14 -0.68 28.6944
15.15888 -1.22 -0.68 18.2648
15.15888 -1.24 -0.68 18.2648
21.41664 -2.36 -0.68 28.6944
21.41664 -2.38 -0.68 28.6944
21.41664 -2.48 -0.68 28.6944
21.41664 -2.5 -0.68 28.6944
21.41664 -2.52 -0.68 28.6944
21.41664 -2.58 -0.68 28.6944
21.41664 -2.6 -0.68 28.6944
21.41664 -2.62 -0.68 28.6944
15.15888 -2.72 -0.68 18.2648
15.15888 -2.74 -0.68 18.2648
13.4736 -2.8 -0.68 15.456
21.41664 -2.98 -0.68 28.6944
21.41664 -3.5 -0.68 28.6944
21.41664 -3.6 -0.68 28.6944
21.41664 -3.62 -0.68 28.6944
21.41664 -3.68 -0.68 28.6944
21.41664 -4.08 -0.68 28.6944
21.41664 -4.16 -0.68 28.6944
13.4736 -4.68 -0.68 15.456
21.41664 -5.22 -0.68 28.6944
17.592840000000002 -5.28 -0.68 22.3214
17.592840000000002 -5.3 -0.68 22.3214
28.29636 5.88 -0.7 40.1606
28.29636 5.68 -0.7 40.1606
21.41664 5.62 -0.7 28.6944
21.41664 5.46 -0.7 28.6944
21.41664 4.9 -0.7 28.6944
21.41664 4.82 -0.7 28.6944
21.41664 3.64 -0.7 28.6944
21.41664 3.48 -0.7 28.6944
21.41664 2.98 -0.7 28.6944
21.41664 2.96 -0.7 28.6944
21.41664 2.24 -0.7 28.6944
21.41664 2.22 -0.7 28.6944
21.41664 1.64 -0.7 28.6944
17.592840000000002 1.3 -0.7 22.3214
21.41664 1.02 -0.7 28.6944
21.41664 0.96 -0.7 28.6944
28.29636 -0.3 -0.7 40.1606
28.29636 -0.32 -0.7 40.1606
21.41664 -0.36 -0.7 28.6944
21.41664 -0.38 -0.7 28.6944
15.15888 -0.44 -0.7 18.2648
12.23748 -0.56 -0.7 13.3958
124.19999999999999 -0.82 -0.7 200.0
124.19999999999999 -0.92 -0.7 200.0
124.19999999999999 -0.94 -0.7 200.0
28.29636 -1.04 -0.7 40.1606
21.41664 -1.12 -0.7 28.6944
15.15888 -1.24 -0.7 18.2648
21.41664 -2.48 -0.7 28.6944
21.41664 -2.58 -0.7 28.6944
21.41664 -2.62 -0.7 28.6944
15.15888 -2.74 -0.7 18.2648
13.4736 -2.8 -0.7 15.456
13.4736 -2.82 -0.7 15.456
21.41664 -2.98 -0.7 28.6944
21.41664 -3.6 -0.7 28.6944
21.41664 -3.62 -0.7 28.6944
44.33376 -5.0 -0.7 66.8896
44.33376 -5.02 -0.7 66.8896
44.33376 -5.04 -0.7 66.8896
21.41664 -5.16 -0.7 28.6944
21.41664 -5.2 -0.7 28.6944
21.41664 -5.22 -0.7 28.6944
17.592840000000002 -5.28 -0.7 22.3214
17.592840000000002 -5.3 -0.7 22.3214
17.592840000000002 -5.32 -0.7 22.3214
28.29636 5.88 -0.72 40.1606
28.29636 5.68 -0.72 40.1606
21.41664 4.9 -0.72 28.6944
21.41664 4.82 -0.72 28.6944
13.4736 4.06 -0.72 15.456
21.41664 3.64 -0.72 28.6944
21.41664 2.96 -0.72 28.6944
21.41664 2.64 -0.72 28.6944
21.41664 2.24 -0.72 28.6944
21.41664 2.22 -0.72 28.6944
21.41664 1.64 -0.72 28.6944
21.41664 1.02 -0.72 28.6944
15.15888 -0.46 -0.72 18.2648
12.23748 -0.56 -0.72 13.3958
124.19999999999999 -0.82 -0.72 200.0
124.19999999999999 -0.9 -0.72 200.0
124.19999999999999 -0.92 -0.72 200.0
28.29636 -1.02 -0.72 40.1606
28.29636 -1.04 -0.72 40.1606
21.41664 -1.12 -0.72 28.6944
21.41664 -1.16 -0.72 28.6944
15.15888 -1.24 -0.72 18.2648
21.41664 -2.48 -0.72 28.6944
21.41664 -2.58 -0.72 28.6944
21.41664 -2.62 -0.72 28.6944
13.4736 -2.8 -0.72 15.456
21.41664 -3.52 -0.72 28.6944
21.41664 -3.54 -0.72 28.6944
21.41664 -3.68 -0.72 28.6944
21.41664 -3.7 -0.72 28.6944
15.15888 -3.84 -0.72 18.2648
21.41664 -5.06 -0.72 28.6944
21.41664 -5.2 -0.72 28.6944
21.41664 -5.22 -0.72 28.6944
21.41664 -5.54 -0.72 28.6944
28.29636 5.88 -0.74 40.1606
28.29636 5.68 -0.74 40.1606
21.41664 5.62 -0.74 28.6944
21.41664 5.04 -0.74 28.6944
21.41664 4.9 -0.74 28.6944
21.41664 4.38 -0.74 28.6944
13.4736 4.06 -0.74 15.456
21.41664 3.76 -0.74 28.6944
21.41664 3.64 -0.74 28.6944
21.41664 3.46 -0.74 28.6944
21.41664 3.14 -0.74 28.6944
21.41664 2.96 -0.74 28.6944
21.41664 2.94 -0.74 28.6944
21.41664 2.62 -0.74 28.6944
21.41664 2.6 -0.74 28.6944
21.41664 2.54 -0.74 28.6944
21.41664 2.46 -0.74 28.6944
21.41664 2.22 -0.74 28.6944
124.19999999999999 -0.12 -0.74 200.0
15.15888 -0.48 -0.74 18.2648
21.41664 -0.9 -0.74 28.6944
44.33376 -0.92 -0.74 66.8896
28.29636 -1.04 -0.74 40.1606
21.41664 -1.12 -0.74 28.6944
21.41664 -1.14 -0.74 28.6944
21.41664 -1.16 -0.74 28.6944
21.41664 -2.46 -0.74 28.6944
28.29636 -2.48 -0.74 40.1606
21.41664 -2.6 -0.74 28.6944
21.41664 -2.62 -0.74 28.6944
13.4736 -2.8 -0.74 15.456
13.4736 -2.82 -0.74 15.456
44.33376 -3.54 -0.74 66.8896
28.29636 -3.56 -0.74 40.1606
21.41664 -3.68 -0.74 28.6944
21.41664 -3.7 -0.74 28.6944
21.41664 5.62 -0.76 28.6944
21.41664 4.9 -0.76 28.6944
13.4736 4.06 -0.76 15.456
21.41664 3.78 -0.76 28.6944
21.41664 3.76 -0.76 28.6944
21.41664 3.64 -0.76 28.6944
21.41664 3.46 -0.76 28.6944
21.41664 3.4 -0.76 28.6944
21.41664 3.14 -0.76 28.6944
21.41664 3.08 -0.76 28.6944
21.41664 2.96 -0.76 28.6944
21.41664 2.94 -0.76 28.6944
21.41664 2.9 -0.76 28.6944
21.41664 2.62 -0.76 28.6944
21.41664 2.6 -0.76 28.6944
21.41664 2.56 -0.76 28.6944
21.41664 2.5 -0.76 28.6944
21.41664 2.48 -0.76 28.6944
21.41664 2.3 -0.76 28.6944
21.41664 2.22 -0.76 28.6944
17.592840000000002 -0.36 -0.76 22.3214
124.19999999999999 -0.7 -0.76 200.0
28.29636 -0.82 -0.76 40.1606
21.41664 -0.9 -0.76 28.6944
15.15888 -1.04 -0.76 18.2648
21.41664 -1.12 -0.76 28.6944
21.41664 -1.14 -0.76 28.6944
13.4736 -1.3 -0.76 15.456
124.19999999999999 -2.4 -0.76 200.0
28.29636 -2.52 -0.76 40.1606
21.41664 -2.62 -0.76 28.6944
13.4736 -2.82 -0.76 15.456
21.41664 -3.72 -0.76 28.6944
21.41664 5.62 -0.78 28.6944
21.41664 4.9 -0.78 28.6944
13.4736 4.06 -0.78 15.456
21.41664 3.78 -0.78 28.6944
21.41664 3.76 -0.78 28.6944
21.41664 3.64 -0.78 28.6944
21.41664 3.46 -0.78 28.6944
21.41664 3.4 -0.78 28.6944
21.41664 3.14 -0.78 28.6944
21.41664 3.08 -0.78 28.6944
15.15888 3.02 -0.78 18.2648
21.41664 3.0 -0.78 28.6944
21.41664 2.96 -0.78 28.6944
21.41664 2.94 -0.78 28.6944
21.41664 2.9 -0.78 28.6944
12.23748 2.7 -0.78 13.3958
21.41664 2.62 -0.78 28.6944
21.41664 2.6 -0.78 28.6944
21.41664 2.54 -0.78 28.6944
21.41664 2.5 -0.78 28.6944
21.41664 2.48 -0.78 28.6944
12.23748 2.36 -0.78 13.3958
21.41664 2.22 -0.78 28.6944
28.29636 -0.82 -0.78 40.1606
21.41664 -0.9 -0.78 28.6944
21.41664 -0.92 -0.78 28.6944
44.33376 -0.96 -0.78 66.8896
15.15888 -1.02 -0.78 18.2648
15.15888 -1.04 -0.78 18.2648
21.41664 -1.1 -0.78 28.6944
13.4736 -1.3 -0.78 15.456
28.29636 -2.52 -0.78 40.1606
28.29636 -2.54 -0.78 40.1606
13.4736 -2.82 -0.78 15.456
21.41664 4.9 -0.8 28.6944
13.4736 4.06 -0.8 15.456
21.41664 3.78 -0.8 28.6944
21.41664 3.76 -0.8 28.6944
21.41664 3.64 -0.8 28.6944
21.41664 3.14 -0.8 28.6944
9.023147999999999 1.48 -0.8 8.03858
15.15888 0.04 -0.8 18.2648
15.15888 0.02 -0.8 18.2648
13.4736 -0.04 -0.8 15.456
12.23748 -0.06 -0.8 13.3958
12.23748 -0.08 -0.8 13.3958
12.23748 -0.1 -0.8 13.3958
28.29636 -0.82 -0.8 40.1606
28.29636 -0.84 -0.8 40.1606
21.41664 -0.94 -0.8 28.6944
44.33376 -0.96 -0.8 66.8896
15.15888 -1.04 -0.8 18.2648
21.41664 -1.1 -0.8 28.6944
21.41664 -1.12 -0.8 28.6944
13.4736 -2.8 -0.8 15.456
13.4736 -2.82 -0.8 15.456
9.023147999999999 1.48 -0.82 8.03858
9.023147999999999 1.46 -0.82 8.03858
12.23748 -0.08 -0.82 13.3958
12.23748 -0.1 -0.82 13.3958
12.23748 -0.12 -0.82 13.3958
21.41664 -1.12 -0.82 28.6944
9.023147999999999 1.48 -0.84 8.03858
9.023147999999999 1.46 -0.84 8.03858
12.23748 -0.1 -0.84 13.3958
12.23748 -0.12 -0.84 13.3958
9.023147999999999 1.46 -0.86 8.03858
13.4736 -0.1 -0.86 15.456
21.41664 3.8 -0.9 28.6944
21.41664 3.78 -0.9 28.6944
13.4736 -0.1 -0.92 15.456
21.41664 5.74 -0.94 28.6944
13.4736 -0.1 -0.94 15.456
17.592840000000002 2.38 -0.96 22.3214
17.592840000000002 -0.14 -0.96 22.3214
17.592840000000002 -0.16 -0.96 22.3214
13.4736 -0.26 -0.96 15.456
13.4736 -0.28 -0.96 15.456
17.592840000000002 -1.28 -0.96 22.3214
12.23748 4.06 -0.98 13.3958
12.23748 3.92 -0.98 13.3958
17.592840000000002 2.46 -0.98 22.3214
17.592840000000002 2.44 -0.98 22.3214
13.4736 -0.26 -0.98 15.456
13.4736 -0.28 -0.98 15.456
13.4736 -1.42 -0.98 15.456
12.23748 4.06 -1.0 13.3958
12.23748 4.0 -1.0 13.3958
12.23748 3.96 -1.0 13.3958
12.23748 3.94 -1.0 13.3958
15.15888 3.88 -1.0 18.2648
17.592840000000002 2.46 -1.0 22.3214
13.4736 1.7 -1.0 15.456
13.4736 1.68 -1.0 15.456
13.4736 1.66 -1.0 15.456
15.15888 1.64 -1.0 18.2648
9.023147999999999 1.36 -1.0 8.03858
17.592840000000002 1.08 -1.0 22.3214
13.4736 -0.28 -1.0 15.456
17.592840000000002 5.3 -1.02 22.3214
17.592840000000002 5.28 -1.02 22.3214
12.23748 4.04 -1.02 13.3958
12.23748 4.0 -1.02 13.3958
12.23748 3.96 -1.02 13.3958
12.23748 3.94 -1.02 13.3958
15.15888 3.88 -1.02 18.2648
15.15888 3.86 -1.02 18.2648
15.15888 2.34 -1.02 18.2648
13.4736 1.68 -1.02 15.456
9.023147999999999 1.36 -1.02 8.03858
13.4736 -0.44 -1.02 15.456
17.592840000000002 5.28 -1.04 22.3214
17.592840000000002 5.26 -1.04 22.3214
15.15888 2.34 -1.04 18.2648
9.023147999999999 1.36 -1.04 8.03858
8.358006 1.24 -1.04 6.93001
13.4736 -0.44 -1.04 15.456
15.15888 5.64 -1.06 18.2648
15.15888 5.62 -1.06 18.2648
15.15888 5.48 -1.06 18.2648
15.15888 5.46 -1.06 18.2648
9.023147999999999 1.36 -1.06 8.03858
12.23748 -0.5 -1.06 13.3958
15.15888 5.44 -1.08 18.2648
15.15888 3.72 -1.08 18.2648
15.15888 5.44 -1.1 18.2648
15.15888 5.42 -1.1 18.2648
15.15888 5.36 -1.1 18.2648
15.15888 5.18 -1.1 18.2648
13.4736 -1.28 -1.1 15.456
12.23748 0.4 -1.12 13.3958
15.15888 5.6 -1.14 18.2648
12.23748 4.06 -1.14 13.3958
12.23748 3.94 -1.14 13.3958
12.23748 0.42 -1.14 13.3958
12.23748 0.4 -1.14 13.3958
12.23748 4.06 -1.16 13.3958
12.23748 4.04 -1.16 13.3958
12.23748 3.94 -1.16 13.3958
12.23748 0.4 -1.16 13.3958
12.23748 0.38 -1.16 13.3958
12.23748 4.04 -1.18 13.3958
12.23748 3.94 -1.18 13.3958
13.4736 1.9 -1.18 15.456
12.23748 -0.84 -1.18 13.3958
12.23748 -0.86 -1.18 13.3958
13.4736 -2.0 -1.18 15.456
15.15888 -3.5 -1.18 18.2648
13.4736 -3.56 -1.18 15.456
12.23748 4.04 -1.2 13.3958
12.23748 3.94 -1.2 13.3958
13.4736 1.92 -1.2 15.456
13.4736 1.9 -1.2 15.456
12.23748 1.84 -1.2 13.3958
12.23748 4.04 -1.22 13.3958
12.23748 3.94 -1.22 13.3958
12.23748 0.28 -1.22 13.3958
12.23748 4.04 -1.24 13.3958
12.23748 3.94 -1.24 13.3958
12.23748 0.28 -1.24 13.3958
11.29218 0.22 -1.24 11.8203
13.4736 1.8 -1.26 15.456
12.23748 1.06 -1.26 13.3958
12.23748 0.28 -1.26 13.3958
12.23748 0.26 -1.26 13.3958
11.29218 0.22 -1.26 11.8203
13.4736 5.74 -1.28 15.456
13.4736 5.72 -1.28 15.456
12.23748 1.38 -1.3 13.3958
9.941628000000001 1.44 -1.32 9.56938
11.29218 0.38 -1.32 11.8203
13.4736 5.84 -1.34 15.456
12.23748 3.98 -1.34 13.3958
12.23748 3.96 -1.34 13.3958
9.941628000000001 1.44 -1.34 9.56938
12.23748 1.28 -1.34 13.3958
11.29218 0.38 -1.34 11.8203
10.54584 0.32 -1.34 10.5764
11.29218 0.1 -1.34 11.8203
12.23748 4.16 -1.36 13.3958
12.23748 4.14 -1.36 13.3958
12.23748 3.98 -1.36 13.3958
12.23748 3.96 -1.36 13.3958
11.29218 1.52 -1.36 11.8203
11.29218 0.38 -1.36 11.8203
11.29218 0.26 -1.36 11.8203
11.29218 0.1 -1.36 11.8203
12.23748 -2.78 -1.36 13.3958
12.23748 4.16 -1.38 13.3958
12.23748 4.14 -1.38 13.3958
12.23748 3.96 -1.38 13.3958
11.29218 0.66 -1.38 11.8203
11.29218 0.6 -1.38 11.8203
11.29218 0.28 -1.38 11.8203
11.29218 0.26 -1.38 11.8203
10.54584 0.2 -1.38 10.5764
11.29218 0.14 -1.38 11.8203
11.29218 0.66 -1.4 11.8203
11.29218 0.64 -1.4 11.8203
11.29218 -0.16 -1.4 11.8203
12.23748 4.06 -1.42 13.3958
12.23748 4.04 -1.42 13.3958
12.23748 4.02 -1.42 13.3958
11.29218 0.64 -1.42 11.8203
11.29218 0.54 -1.42 11.8203
11.29218 0.6 -1.44 11.8203
11.29218 0.58 -1.44 11.8203
11.29218 0.48 -1.44 11.8203
11.29218 0.94 -1.46 11.8203
11.29218 0.92 -1.46 11.8203
11.29218 0.16 -1.46 11.8203
11.29218 -0.16 -1.46 11.8203
11.29218 -0.72 -1.46 11.8203
11.29218 -0.76 -1.46 11.8203
12.23748 -0.06 -1.48 13.3958
12.23748 -0.1 -1.48 13.3958
11.29218 -0.18 -1.48 11.8203
11.29218 -0.26 -1.48 11.8203
11.29218 0.6 -1.5 11.8203
11.29218 0.58 -1.5 11.8203
10.54584 0.52 -1.5 10.5764
12.23748 -0.08 -1.5 13.3958
11.29218 -0.18 -1.5 11.8203
11.29218 -0.2 -1.5 11.8203
17.592840000000002 1.44 -1.52 22.3214
12.23748 1.24 -1.52 13.3958
11.29218 0.6 -1.52 11.8203
11.29218 0.58 -1.52 11.8203
11.29218 0.56 -1.52 11.8203
10.54584 0.52 -1.52 10.5764
11.29218 -0.18 -1.52 11.8203
11.29218 4.88 -1.54 11.8203
11.29218 4.86 -1.54 11.8203
11.29218 0.58 -1.54 11.8203
11.29218 0.56 -1.54 11.8203
10.54584 0.52 -1.54 10.5764
9.941628000000001 0.46 -1.54 9.56938
9.023147999999999 -0.42 -1.54 8.03858
10.54584 -0.28 -1.56 10.5764
10.54584 -0.3 -1.56 10.5764
11.29218 -1.64 -1.56 11.8203
11.29218 1.12 -1.58 11.8203
11.29218 1.1 -1.58 11.8203
10.54584 -0.06 -1.58 10.5764
11.29218 0.92 -1.6 11.8203
11.29218 0.9 -1.6 11.8203
10.54584 -0.16 -1.62 10.5764
11.29218 1.14 -1.64 11.8203
10.54584 0.26 -1.64 10.5764
10.54584 0.22 -1.64 10.5764
10.54584 4.42 -1.66 10.5764
11.29218 1.12 -1.66 11.8203
11.29218 1.1 -1.66 11.8203
12.23748 0.96 -1.66 13.3958
11.29218 0.88 -1.66 11.8203
10.54584 0.24 -1.66 10.5764
10.54584 0.22 -1.66 10.5764
10.54584 0.2 -1.66 10.5764
10.54584 0.1 -1.66 10.5764
10.54584 -0.12 -1.66 10.5764
10.54584 -1.36 -1.66 10.5764
10.54584 5.84 -1.68 10.5764
10.54584 4.42 -1.68 10.5764
11.29218 2.4 -1.68 11.8203
11.29218 1.08 -1.68 11.8203
11.29218 0.88 -1.68 11.8203
11.29218 0.86 -1.68 11.8203
10.54584 -0.12 -1.68 10.5764
11.29218 -0.18 -1.68 11.8203
10.54584 -0.24 -1.68 10.5764
10.54584 -0.76 -1.68 10.5764
11.29218 2.36 -1.7 11.8203
9.941628000000001 0.78 -1.7 9.56938
10.54584 -0.24 -1.7 10.5764
10.54584 -0.76 -1.7 10.5764
10.54584 0.42 -1.72 10.5764
10.54584 -0.74 -1.74 10.5764
10.54584 -0.76 -1.74 10.5764
10.54584 -0.9 -1.76 10.5764
10.54584 -0.92 -1.76 10.5764
10.54584 -0.94 -1.76 10.5764
9.941628000000001 -0.98 -1.76 9.56938
9.941628000000001 -1.0 -1.76 9.56938
10.54584 -0.96 -1.78 10.5764
9.941628000000001 -0.98 -1.78 9.56938
9.941628000000001 -1.0 -1.78 9.56938
9.941628000000001 -1.02 -1.78 9.56938
9.941628000000001 -1.04 -1.78 9.56938
10.54584 -0.24 -1.8 10.5764
10.54584 -0.16 -1.82 10.5764
10.54584 -0.18 -1.82 10.5764
10.54584 -0.86 -1.82 10.5764
9.941628000000001 5.16 -1.84 9.56938
9.941628000000001 5.18 -1.86 9.56938
9.941628000000001 5.16 -1.86 9.56938
9.442464 -0.98 -1.86 8.73744
9.941628000000001 2.46 -1.88 9.56938
9.941628000000001 2.6 -1.9 9.56938
9.941628000000001 2.46 -1.9 9.56938
9.941628000000001 2.44 -1.9 9.56938
9.941628000000001 2.4 -1.9 9.56938
9.941628000000001 2.76 -1.92 9.56938
9.941628000000001 2.74 -1.92 9.56938
9.941628000000001 2.6 -1.92 9.56938
9.941628000000001 2.52 -1.92 9.56938
9.941628000000001 1.82 -1.92 9.56938
9.941628000000001 1.8 -1.92 9.56938
9.941628000000001 2.74 -1.94 9.56938
9.941628000000001 2.7 -1.94 9.56938
9.442464 2.66 -1.94 8.73744
9.941628000000001 2.52 -1.94 9.56938
9.941628000000001 1.8 -1.94 9.56938
9.941628000000001 1.78 -1.94 9.56938
9.941628000000001 2.52 -1.96 9.56938
9.442464 3.5 -2.1 8.73744
9.442464 3.48 -2.1 8.73744
9.442464 3.42 -2.1 8.73744
9.442464 3.48 -2.12 8.73744
9.442464 3.46 -2.12 8.73744
9.023147999999999 1.1 -2.2 8.03858
9.023147999999999 1.1 -2.22 8.03858
9.023147999999999 1.08 -2.22 8.03858
9.023147999999999 1.06 -2.22 8.03858
9.023147999999999 2.72 -2.24 8.03858
9.023147999999999 2.7 -2.24 8.03858
9.023147999999999 1.44 -2.24 8.03858
9.023147999999999 3.56 -2.26 8.03858
9.023147999999999 2.86 -2.26 8.03858
9.023147999999999 2.84 -2.26 8.03858
9.023147999999999 5.88 -2.3 8.03858
9.023147999999999 0.08 -2.3 8.03858
9.023147999999999 0.0 -2.3 8.03858
9.023147999999999 0.08 -2.32 8.03858
9.023147999999999 0.06 -2.32 8.03858
8.665944 3.66 -2.38 7.44324
8.665944 3.64 -2.38 7.44324
9.023147999999999 0.3 -2.38 8.03858
8.665944 3.66 -2.4 7.44324
8.665944 3.64 -2.4 7.44324
8.358006 3.38 -2.62 6.93001
8.358006 3.36 -2.62 6.93001
8.358006 4.48 -2.64 6.93001
8.358006 3.36 -2.64 6.93001
8.358006 4.6 -2.68 6.93001
8.358006 5.4 -2.72 6.93001
8.358006 4.62 -2.72 6.93001
8.358006 5.4 -2.74 6.93001
8.089788 5.2 -2.74 6.48298
8.089788 5.24 -2.76 6.48298
8.089788 5.2 -2.76 6.48298
8.089788 5.18 -2.76 6.48298
8.089788 5.16 -2.76 6.48298
8.089788 5.32 -2.78 6.48298
8.089788 5.3 -2.78 6.48298
8.089788 5.28 -2.78 6.48298
8.089788 5.16 -2.78 6.48298
8.089788 5.3 -2.8 6.48298
8.089788 5.28 -2.8 6.48298
7.8540779999999994 2.0 -3.0 6.09013
7.8540779999999994 -0.96 -3.0 6.09013
7.8540779999999994 -0.98 -3.02 6.09013
7.8540779999999994 -1.02 -3.04 6.09013
7.8540779999999994 1.1 -3.08 6.09013
7.8540779999999994 0.32 -3.08 6.09013
7.459097999999999 2.5 -3.22 5.43183
7.459097999999999 2.48 -3.22 5.43183
7.459097999999999 2.5 -3.24 5.43183
7.459097999999999 2.48 -3.24 5.43183
7.459097999999999 2.46 -3.24 5.43183
7.459097999999999 2.48 -3.26 5.43183
7.459097999999999 2.46 -3.26 5.43183
7.141176 3.82 -3.28 4.90196
7.2919860000000005 3.46 -3.28 5.15331
7.2919860000000005 3.44 -3.28 5.15331
7.459097999999999 2.48 -3.28 5.43183
7.459097999999999 2.46 -3.28 5.43183
7.459097999999999 4.78 -3.3 5.43183
7.459097999999999 4.76 -3.3 5.43183
7.141176 3.82 -3.3 4.90196
7.141176 3.8 -3.3 4.90196
7.459097999999999 2.48 -3.3 5.43183
7.459097999999999 2.46 -3.3 5.43183
7.459097999999999 2.44 -3.3 5.43183
7.459097999999999 2.4 -3.3 5.43183
7.459097999999999 -1.92 -3.3 5.43183
7.459097999999999 -4.6 -3.3 5.43183
7.141176 3.82 -3.32 4.90196
7.141176 3.8 -3.32 4.90196
7.2919860000000005 3.08 -3.32 5.15331
7.2919860000000005 3.06 -3.32 5.15331
7.459097999999999 2.46 -3.32 5.43183
7.459097999999999 2.42 -3.32 5.43183
7.459097999999999 2.4 -3.32 5.43183
7.141176 3.82 -3.34 4.90196
7.004394 4.28 -3.36 4.67399
7.141176 3.84 -3.36 4.90196
7.141176 3.82 -3.36 4.90196
7.004394 4.28 -3.38 4.67399
7.004394 4.26 -3.38 4.67399
7.141176 4.0 -3.38 4.90196
7.2919860000000005 3.58 -3.38 5.15331
7.2919860000000005 3.56 -3.38 5.15331
7.2919860000000005 3.54 -3.38 5.15331
7.141176 3.52 -3.38 4.90196
7.459097999999999 -1.82 -3.38 5.43183
7.2919860000000005 4.06 -3.4 5.15331
7.141176 4.0 -3.4 4.90196
7.2919860000000005 3.58 -3.4 5.15331
7.2919860000000005 3.56 -3.4 5.15331
7.141176 3.52 -3.4 4.90196
7.141176 3.36 -3.4 4.90196
7.459097999999999 2.5 -3.4 5.43183
7.459097999999999 -3.42 -3.4 5.43183
7.2919860000000005 4.38 -3.42 5.15331
7.141176 4.16 -3.42 4.90196
7.141176 4.1 -3.42 4.90196
7.141176 3.88 -3.42 4.90196
7.141176 3.82 -3.42 4.90196
7.141176 3.8 -3.42 4.90196
7.141176 3.78 -3.42 4.90196
7.2919860000000005 3.56 -3.42 5.15331
7.2919860000000005 3.54 -3.42 5.15331
7.459097999999999 2.52 -3.42 5.43183
7.459097999999999 2.5 -3.42 5.43183
7.459097999999999 -1.74 -3.42 5.43183
7.004394 4.48 -3.44 4.67399
7.004394 4.28 -3.44 4.67399
7.004394 4.26 -3.44 4.67399
7.141176 4.16 -3.44 4.90196
7.141176 4.14 -3.44 4.90196
7.141176 3.84 -3.44 4.90196
7.459097999999999 2.5 -3.44 5.43183
7.004394 4.48 -3.46 4.67399
7.004394 4.46 -3.46 4.67399
7.004394 4.28 -3.46 4.67399
7.004394 4.22 -3.46 4.67399
7.141176 4.16 -3.46 4.90196
7.141176 4.14 -3.46 4.90196
7.141176 3.1 -3.46 4.90196
7.141176 3.08 -3.46 4.90196
7.2919860000000005 2.64 -3.46 5.15331
7.2919860000000005 2.62 -3.46 5.15331
7.2919860000000005 2.6 -3.46 5.15331
7.459097999999999 1.92 -3.46 5.43183
7.004394 4.58 -3.48 4.67399
7.004394 4.48 -3.48 4.67399
7.004394 4.46 -3.48 4.67399
7.141176 3.7 -3.48 4.90196
7.141176 3.68 -3.48 4.90196
7.141176 3.4 -3.48 4.90196
7.141176 3.38 -3.48 4.90196
7.141176 3.26 -3.48 4.90196
7.2919860000000005 2.62 -3.48 5.15331
7.2919860000000005 2.6 -3.48 5.15331
7.2919860000000005 2.58 -3.48 5.15331
7.459097999999999 1.92 -3.48 5.43183
7.459097999999999 1.88 -3.48 5.43183
7.004394 4.88 -3.5 4.67399
7.004394 4.86 -3.5 4.67399
7.141176 3.2 -3.5 4.90196
7.2919860000000005 2.62 -3.5 5.15331
7.2919860000000005 2.6 -3.5 5.15331
7.2919860000000005 2.58 -3.5 5.15331
7.459097999999999 1.88 -3.5 5.43183
7.2919860000000005 1.78 -3.5 5.15331
7.004394 5.54 -3.52 4.67399
7.004394 5.46 -3.52 4.67399
7.141176 3.56 -3.52 4.90196
7.141176 3.54 -3.52 4.90196
7.2919860000000005 1.7 -3.52 5.15331
7.2919860000000005 1.62 -3.52 5.15331
7.004394 5.44 -3.54 4.67399
7.004394 4.3 -3.54 4.67399
7.2919860000000005 1.5 -3.54 5.15331
7.2919860000000005 -3.34 -3.54 5.15331
7.004394 5.42 -3.56 4.67399
7.004394 4.24 -3.56 4.67399
7.2919860000000005 2.82 -3.56 5.15331
7.2919860000000005 1.42 -3.56 5.15331
7.2919860000000005 1.4 -3.56 5.15331
7.004394 5.22 -3.58 4.67399
7.004394 5.2 -3.58 4.67399
7.004394 4.24 -3.58 4.67399
7.004394 4.22 -3.58 4.67399
7.2919860000000005 1.16 -3.58 5.15331
7.2919860000000005 1.14 -3.58 5.15331
6.879768 5.6 -3.6 4.46628
6.879768 5.58 -3.6 4.46628
7.004394 5.18 -3.6 4.67399
6.879768 4.92 -3.6 4.46628
7.004394 4.42 -3.6 4.67399
7.004394 4.4 -3.6 4.67399
7.004394 4.38 -3.6 4.67399
7.2919860000000005 -4.5 -3.6 5.15331
6.879768 5.78 -3.62 4.46628
6.879768 5.58 -3.62 4.46628
6.879768 5.56 -3.62 4.46628
6.879768 5.16 -3.62 4.46628
6.879768 4.9 -3.62 4.46628
7.004394 4.38 -3.62 4.67399
6.879768 4.36 -3.62 4.46628
6.879768 5.78 -3.64 4.46628
6.879768 5.58 -3.64 4.46628
6.879768 5.56 -3.64 4.46628
6.879768 5.54 -3.64 4.46628
6.879768 4.36 -3.64 4.46628
7.004394 4.22 -3.64 4.67399
7.004394 4.2 -3.64 4.67399
7.141176 -4.54 -3.64 4.90196
6.879768 5.78 -3.66 4.46628
6.879768 5.76 -3.66 4.46628
6.879768 5.52 -3.66 4.46628
6.879768 4.62 -3.66 4.46628
6.879768 4.6 -3.66 4.46628
7.004394 4.22 -3.66 4.67399
7.004394 4.2 -3.66 4.67399
7.004394 4.18 -3.66 4.67399
7.004394 3.56 -3.66 4.67399
7.004394 3.54 -3.66 4.67399
7.141176 -4.54 -3.66 4.90196
6.879768 5.42 -3.68 4.46628
6.879768 4.78 -3.68 4.46628
7.004394 4.22 -3.68 4.67399
6.879768 5.42 -3.7 4.46628
6.879768 5.4 -3.7 4.46628
6.879768 5.18 -3.7 4.46628
6.879768 5.1 -3.7 4.46628
6.879768 4.98 -3.7 4.46628
6.879768 4.96 -3.7 4.46628
6.879768 4.82 -3.7 4.46628
6.879768 4.78 -3.7 4.46628
6.879768 4.76 -3.7 4.46628
7.141176 -1.42 -3.7 4.90196
6.879768 5.42 -3.72 4.46628
6.879768 5.1 -3.72 4.46628
6.879768 4.98 -3.72 4.46628
6.879768 4.96 -3.72 4.46628
6.879768 4.94 -3.72 4.46628
7.141176 -1.42 -3.72 4.90196
6.765750000000001 5.7 -3.74 4.27625
6.879768 5.08 -3.74 4.46628
6.879768 4.7 -3.74 4.46628
6.879768 4.68 -3.74 4.46628
6.879768 4.66 -3.74 4.46628
6.879768 4.48 -3.74 4.46628
6.879768 4.46 -3.74 4.46628
6.879768 4.42 -3.74 4.46628
6.765750000000001 5.72 -3.76 4.27625
6.765750000000001 5.7 -3.76 4.27625
6.879768 4.66 -3.76 4.46628
6.879768 4.62 -3.76 4.46628
6.879768 4.5 -3.76 4.46628
6.879768 4.48 -3.76 4.46628
6.879768 4.46 -3.76 4.46628
6.879768 4.32 -3.76 4.46628
7.141176 -4.48 -3.76 4.90196
6.765750000000001 5.72 -3.78 4.27625
6.765750000000001 5.7 -3.78 4.27625
6.879768 5.0 -3.78 4.46628
6.879768 4.98 -3.78 4.46628
6.879768 4.46 -3.78 4.46628
6.879768 4.44 -3.78 4.46628
7.141176 -4.52 -3.78 4.90196
6.765750000000001 5.72 -3.8 4.27625
6.661032 5.64 -3.8 4.10172
6.879768 5.04 -3.8 4.46628
6.879768 5.0 -3.8 4.46628
7.004394 -5.68 -3.8 4.67399
6.879768 5.08 -3.82 4.46628
6.879768 5.06 -3.82 4.46628
6.879768 4.98 -3.82 4.46628
7.004394 3.34 -3.82 4.67399
6.765750000000001 5.76 -3.84 4.27625
6.765750000000001 5.74 -3.84 4.27625
6.765750000000001 5.46 -3.84 4.27625
6.765750000000001 5.3 -3.84 4.27625
6.879768 5.08 -3.84 4.46628
7.004394 -0.02 -3.84 4.67399
7.004394 -0.04 -3.84 4.67399
6.765750000000001 5.76 -3.86 4.27625
6.765750000000001 5.74 -3.86 4.27625
6.765750000000001 5.6 -3.86 4.27625
6.765750000000001 4.36 -3.86 4.27625
7.004394 -0.02 -3.86 4.67399
7.004394 -0.04 -3.86 4.67399
7.004394 -0.06 -3.86 4.67399
7.004394 -0.08 -3.86 4.67399
7.004394 -0.1 -3.86 4.67399
7.004394 -1.24 -3.86 4.67399
7.004394 -4.48 -3.86 4.67399
7.004394 -4.5 -3.86 4.67399
6.765750000000001 5.6 -3.88 4.27625
6.765750000000001 5.06 -3.88 4.27625
6.765750000000001 5.04 -3.88 4.27625
6.765750000000001 4.36 -3.88 4.27625
7.004394 -0.14 -3.88 4.67399
7.004394 -0.16 -3.88 4.67399
7.004394 -0.18 -3.88 4.67399
7.004394 -0.2 -3.88 4.67399
7.004394 -0.22 -3.88 4.67399
7.004394 -1.22 -3.88 4.67399
7.004394 -4.48 -3.88 4.67399
6.765750000000001 5.06 -3.9 4.27625
6.765750000000001 5.04 -3.9 4.27625
6.765750000000001 4.32 -3.9 4.27625
6.765750000000001 4.24 -3.9 4.27625
6.765750000000001 4.22 -3.9 4.27625
7.004394 -0.22 -3.9 4.67399
7.004394 -0.24 -3.9 4.67399
6.879768 -0.32 -3.9 4.46628
7.004394 -4.46 -3.9 4.67399
6.765750000000001 4.92 -3.92 4.27625
6.765750000000001 4.22 -3.92 4.27625
7.004394 -0.28 -3.92 4.67399
6.879768 -0.32 -3.92 4.46628
7.004394 -0.4 -3.92 4.67399
7.004394 -0.42 -3.92 4.67399
7.004394 -4.46 -3.92 4.67399
6.765750000000001 5.14 -3.94 4.27625
6.765750000000001 5.12 -3.94 4.27625
6.765750000000001 5.1 -3.94 4.27625
6.765750000000001 4.22 -3.94 4.27625
6.765750000000001 4.2 -3.94 4.27625
7.004394 -0.46 -3.94 4.67399
6.879768 -0.48 -3.94 4.46628
7.004394 -1.12 -3.94 4.67399
7.004394 -4.44 -3.94 4.67399
6.661032 5.54 -3.96 4.10172
6.765750000000001 5.1 -3.96 4.27625
6.765750000000001 4.48 -3.96 4.27625
6.765750000000001 4.46 -3.96 4.27625
6.765750000000001 4.3 -3.96 4.27625
6.765750000000001 4.28 -3.96 4.27625
6.765750000000001 4.26 -3.96 4.27625
6.765750000000001 4.22 -3.96 4.27625
6.765750000000001 4.2 -3.96 4.27625
6.765750000000001 4.18 -3.96 4.27625
6.879768 3.8 -3.96 4.46628
6.879768 -0.48 -3.96 4.46628
6.879768 -0.5 -3.96 4.46628
6.879768 -0.52 -3.96 4.46628
6.879768 -0.54 -3.96 4.46628
7.004394 -0.56 -3.96 4.67399
7.004394 -0.58 -3.96 4.67399
7.004394 -0.6 -3.96 4.67399
6.879768 -0.62 -3.96 4.46628
6.661032 5.54 -3.98 4.10172
6.765750000000001 5.08 -3.98 4.27625
6.765750000000001 4.26 -3.98 4.27625
6.765750000000001 4.18 -3.98 4.27625
7.004394 -0.56 -3.98 4.67399
6.879768 -0.62 -3.98 4.46628
6.879768 -0.64 -3.98 4.46628
6.879768 -0.66 -3.98 4.46628
6.879768 -0.68 -3.98 4.46628
6.879768 -4.46 -3.98 4.46628
6.879768 -4.48 -3.98 4.46628
6.661032 5.54 -4.0 4.10172
6.765750000000001 4.26 -4.0 4.27625
6.765750000000001 4.24 -4.0 4.27625
6.765750000000001 4.16 -4.0 4.27625
6.879768 -0.66 -4.0 4.46628
6.879768 -0.68 -4.0 4.46628
6.879768 -0.7 -4.0 4.46628
6.879768 -0.72 -4.0 4.46628
6.879768 -0.74 -4.0 4.46628
6.661032 5.52 -4.02 4.10172
6.765750000000001 4.66 -4.02 4.27625
6.765750000000001 4.24 -4.02 4.27625
6.879768 -0.74 -4.02 4.46628
6.879768 -0.76 -4.02 4.46628
6.879768 -0.78 -4.02 4.46628
6.879768 -0.8 -4.02 4.46628
6.879768 -0.82 -4.02 4.46628
6.879768 -0.84 -4.02 4.46628
6.661032 4.9 -4.04 4.10172
6.661032 4.88 -4.04 4.10172
6.765750000000001 4.66 -4.04 4.27625
6.765750000000001 4.22 -4.04 4.27625
6.879768 -0.86 -4.04 4.46628
6.879768 -0.88 -4.04 4.46628
6.879768 -0.9 -4.04 4.46628
6.879768 -0.92 -4.04 4.46628
6.879768 -0.94 -4.04 4.46628
6.765750000000001 4.2 -4.06 4.27625
6.879768 2.94 -4.06 4.46628
6.765750000000001 -0.96 -4.06 4.27625
6.765750000000001 -0.98 -4.06 4.27625
6.765750000000001 -1.0 -4.06 4.27625
6.879768 -4.42 -4.06 4.46628
6.661032 5.08 -4.08 4.10172
6.879768 2.98 -4.08 4.46628
6.879768 -4.42 -4.08 4.46628
6.661032 5.78 -4.1 4.10172
6.661032 5.76 -4.1 4.10172
