VERSION .7
FIELDS x y z rgb
SIZE 4 4 4 4
TYPE F F F F
COUNT 1 1 1 1
WIDTH 858
HEIGHT 1
VIEWPOINT 0 0 0 1 0 0 0
POINTS 858
DATA ascii
10.744046666666666 1.4 3.6 5000022.3214
10.95648 -1.2666666666666666 3.6 5000028.6944
10.231000333333334 -2.2666666666666666 3.6 5000006.93001
10.231000333333334 -2.6 3.6 5000006.93001
10.231000333333334 -2.6333333333333333 3.6 5000006.93001
10.95648 -3.6333333333333333 3.6 5000028.6944
10.95648 -3.6666666666666665 3.6 5000028.6944
10.95648 -6.466666666666667 3.6 5000028.6944
10.744046666666666 -6.566666666666666 3.6 5000022.3214
10.39401 -7.033333333333333 3.6 5000011.8203
10.318979333333333 -7.2 3.6 5000009.56938
11.338686666666668 -9.4 3.6 5000040.1606
11.338686666666668 -9.466666666666667 3.6 5000040.1606
10.744046666666666 -9.6 3.6 5000022.3214
10.744046666666666 -9.633333333333333 3.6 5000022.3214
10.39401 -10.0 3.6 5000011.8203
10.5152 -10.066666666666666 3.6 5000015.456
10.744046666666666 -10.166666666666666 3.6 5000022.3214
12.229653333333333 -10.333333333333334 3.6 5000066.8896
12.229653333333333 -10.4 3.6 5000066.8896
10.95648 -10.533333333333333 3.6 5000028.6944
11.338686666666668 -11.7 3.6 5000040.1606
11.338686666666668 -12.066666666666666 3.6 5000040.1606
10.95648 -12.166666666666666 3.6 5000028.6944
10.744046666666666 -12.3 3.6 5000022.3214
12.229653333333333 -12.6 3.6 5000066.8896
11.338686666666668 -12.633333333333333 3.6 5000040.1606
10.95648 -12.7 3.6 5000028.6944
10.744046666666666 -12.833333333333334 3.6 5000022.3214
10.744046666666666 -12.866666666666667 3.6 5000022.3214
10.95648 -13.233333333333333 3.6 5000028.6944
10.95648 -13.633333333333333 3.6 5000028.6944
10.95648 -13.966666666666667 3.6 5000028.6944
11.338686666666668 -14.4 3.6 5000040.1606
10.95648 -14.466666666666667 3.6 5000028.6944
11.338686666666668 -14.9 3.6 5000040.1606
11.338686666666668 -15.4 3.6 5000040.1606
10.95648 -15.5 3.6 5000028.6944
11.338686666666668 -16.733333333333334 3.6 5000040.1606
11.338686666666668 -17.233333333333334 3.6 5000040.1606
10.95648 2.8 3.566666666666667 5000028.6944
10.39401 2.6 3.566666666666667 5000011.8203
10.608826666666667 1.9666666666666666 3.566666666666667 5000018.2648
10.744046666666666 1.4 3.566666666666667 5000022.3214
10.95648 0.2 3.566666666666667 5000028.6944
10.231000333333334 -2.2333333333333334 3.566666666666667 5000006.93001
10.231000333333334 -2.2666666666666666 3.566666666666667 5000006.93001
10.231000333333334 -2.6 3.566666666666667 5000006.93001
10.231000333333334 -2.6333333333333333 3.566666666666667 5000006.93001
10.95648 -3.6333333333333333 3.566666666666667 5000028.6944
10.95648 -3.6666666666666665 3.566666666666667 5000028.6944
10.95648 -6.466666666666667 3.566666666666667 5000028.6944
10.744046666666666 -6.566666666666666 3.566666666666667 5000022.3214
10.248108 -7.366666666666666 3.566666666666667 5000007.44324
11.338686666666668 -9.4 3.566666666666667 5000040.1606
10.744046666666666 -9.6 3.566666666666667 5000022.3214
10.744046666666666 -9.633333333333333 3.566666666666667 5000022.3214
10.5152 -10.0 3.566666666666667 5000015.456
10.744046666666666 -10.133333333333333 3.566666666666667 5000022.3214
10.744046666666666 -10.166666666666666 3.566666666666667 5000022.3214
12.229653333333333 -10.333333333333334 3.566666666666667 5000066.8896
12.229653333333333 -10.4 3.566666666666667 5000066.8896
10.95648 -10.6 3.566666666666667 5000028.6944
11.338686666666668 -11.7 3.566666666666667 5000040.1606
10.95648 -12.166666666666666 3.566666666666667 5000028.6944
10.744046666666666 -12.3 3.566666666666667 5000022.3214
12.229653333333333 -12.6 3.566666666666667 5000066.8896
12.229653333333333 -12.633333333333333 3.566666666666667 5000066.8896
11.338686666666668 -17.233333333333334 3.566666666666667 5000040.1606
11.338686666666668 -17.266666666666666 3.566666666666667 5000040.1606
10.95648 2.8333333333333335 3.533333333333333 5000028.6944
10.39401 2.6 3.533333333333333 5000011.8203
10.608826666666667 1.9666666666666666 3.533333333333333 5000018.2648
10.608826666666667 1.8 3.533333333333333 5000018.2648
10.744046666666666 1.4 3.533333333333333 5000022.3214
10.744046666666666 1.3666666666666667 3.533333333333333 5000022.3214
10.231000333333334 -2.2333333333333334 3.533333333333333 5000006.93001
10.231000333333334 -2.2666666666666666 3.533333333333333 5000006.93001
10.231000333333334 -2.6 3.533333333333333 5000006.93001
10.231000333333334 -2.6333333333333333 3.533333333333333 5000006.93001
10.95648 -3.6333333333333333 3.533333333333333 5000028.6944
10.95648 -3.6666666666666665 3.533333333333333 5000028.6944
10.95648 -6.433333333333334 3.533333333333333 5000028.6944
10.95648 -6.466666666666667 3.533333333333333 5000028.6944
10.95648 -6.533333333333333 3.533333333333333 5000028.6944
10.95648 -8.233333333333333 3.533333333333333 5000028.6944
16.666666666666668 -8.566666666666666 3.533333333333333 5000200.0
10.318979333333333 -8.933333333333334 3.533333333333333 5000009.56938
10.318979333333333 -8.966666666666667 3.533333333333333 5000009.56938
10.95648 -9.5 3.533333333333333 5000028.6944
10.744046666666666 -9.633333333333333 3.533333333333333 5000022.3214
11.338686666666668 -17.266666666666666 3.533333333333333 5000040.1606
10.95648 3.066666666666667 3.5 5000028.6944
10.608826666666667 1.9666666666666666 3.5 5000018.2648
10.608826666666667 1.8 3.5 5000018.2648
10.95648 -1.4 3.5 5000028.6944
10.231000333333334 -2.2333333333333334 3.5 5000006.93001
10.231000333333334 -2.2666666666666666 3.5 5000006.93001
10.231000333333334 -2.6 3.5 5000006.93001
10.231000333333334 -2.6333333333333333 3.5 5000006.93001
10.95648 -3.6666666666666665 3.5 5000028.6944
11.338686666666668 -6.333333333333333 3.5 5000040.1606
10.95648 -6.433333333333334 3.5 5000028.6944
10.95648 -6.466666666666667 3.5 5000028.6944
10.95648 -6.533333333333333 3.5 5000028.6944
10.95648 -8.233333333333333 3.5 5000028.6944
16.666666666666668 -8.566666666666666 3.5 5000200.0
10.318979333333333 -8.933333333333334 3.5 5000009.56938
10.5152 -10.566666666666666 3.5 5000015.456
10.95648 2.933333333333333 3.466666666666667 5000028.6944
10.39401 2.2 3.466666666666667 5000011.8203
10.608826666666667 1.9666666666666666 3.466666666666667 5000018.2648
10.608826666666667 1.8 3.466666666666667 5000018.2648
10.95648 0.23333333333333334 3.466666666666667 5000028.6944
10.231000333333334 -2.2333333333333334 3.466666666666667 5000006.93001
10.231000333333334 -2.2666666666666666 3.466666666666667 5000006.93001
10.231000333333334 -2.6 3.466666666666667 5000006.93001
10.231000333333334 -2.6333333333333333 3.466666666666667 5000006.93001
10.95648 -3.6666666666666665 3.466666666666667 5000028.6944
10.95648 -6.433333333333334 3.466666666666667 5000028.6944
10.95648 -6.466666666666667 3.466666666666667 5000028.6944
10.744046666666666 -6.533333333333333 3.466666666666667 5000022.3214
16.666666666666668 -7.866666666666666 3.466666666666667 5000200.0
16.666666666666668 -8.566666666666666 3.466666666666667 5000200.0
10.95648 -13.366666666666667 3.466666666666667 5000028.6944
10.39401 2.2 3.433333333333333 5000011.8203
10.39401 2.1666666666666665 3.433333333333333 5000011.8203
10.608826666666667 1.9666666666666666 3.433333333333333 5000018.2648
10.608826666666667 1.8 3.433333333333333 5000018.2648
10.95648 0.23333333333333334 3.433333333333333 5000028.6944
10.95648 0.2 3.433333333333333 5000028.6944
10.95648 -0.6333333333333333 3.433333333333333 5000028.6944
10.95648 -1.1666666666666667 3.433333333333333 5000028.6944
10.231000333333334 -2.2333333333333334 3.433333333333333 5000006.93001
10.231000333333334 -2.2666666666666666 3.433333333333333 5000006.93001
10.231000333333334 -2.6 3.433333333333333 5000006.93001
10.231000333333334 -2.6333333333333333 3.433333333333333 5000006.93001
10.95648 -3.6666666666666665 3.433333333333333 5000028.6944
10.95648 -3.7666666666666666 3.433333333333333 5000028.6944
10.95648 -6.433333333333334 3.433333333333333 5000028.6944
10.95648 -6.466666666666667 3.433333333333333 5000028.6944
10.744046666666666 -6.533333333333333 3.433333333333333 5000022.3214
10.95648 -9.533333333333333 3.433333333333333 5000028.6944
10.95648 -13.366666666666667 3.433333333333333 5000028.6944
10.95648 3.1666666666666665 3.4 5000028.6944
10.608826666666667 1.9666666666666666 3.4 5000018.2648
10.608826666666667 1.8 3.4 5000018.2648
10.744046666666666 1.4 3.4 5000022.3214
10.95648 0.2 3.4 5000028.6944
10.95648 -1.3666666666666667 3.4 5000028.6944
10.95648 -1.8 3.4 5000028.6944
10.231000333333334 -2.2333333333333334 3.4 5000006.93001
10.231000333333334 -2.2666666666666666 3.4 5000006.93001
10.231000333333334 -2.6 3.4 5000006.93001
10.231000333333334 -2.6333333333333333 3.4 5000006.93001
10.95648 -3.6666666666666665 3.4 5000028.6944
10.95648 -3.7666666666666666 3.4 5000028.6944
10.95648 -6.433333333333334 3.4 5000028.6944
10.744046666666666 -6.533333333333333 3.4 5000022.3214
10.95648 -9.566666666666666 3.4 5000028.6944
10.95648 -13.833333333333334 3.4 5000028.6944
10.95648 -13.866666666666667 3.4 5000028.6944
10.608826666666667 1.9666666666666666 3.3666666666666667 5000018.2648
10.608826666666667 1.8 3.3666666666666667 5000018.2648
10.744046666666666 1.4 3.3666666666666667 5000022.3214
10.95648 -1.8 3.3666666666666667 5000028.6944
10.231000333333334 -2.2333333333333334 3.3666666666666667 5000006.93001
10.231000333333334 -2.2666666666666666 3.3666666666666667 5000006.93001
10.231000333333334 -2.6 3.3666666666666667 5000006.93001
10.231000333333334 -2.6333333333333333 3.3666666666666667 5000006.93001
10.95648 -3.6666666666666665 3.3666666666666667 5000028.6944
11.338686666666668 -6.066666666666666 3.3666666666666667 5000040.1606
10.95648 -6.433333333333334 3.3666666666666667 5000028.6944
10.95648 -6.5 3.3666666666666667 5000028.6944
10.744046666666666 -6.533333333333333 3.3666666666666667 5000022.3214
10.95648 -9.6 3.3666666666666667 5000028.6944
10.95648 -13.5 3.3666666666666667 5000028.6944
10.95648 -13.833333333333334 3.3666666666666667 5000028.6944
10.95648 -13.866666666666667 3.3666666666666667 5000028.6944
10.95648 -13.933333333333334 3.3666666666666667 5000028.6944
10.95648 3.0 3.3333333333333335 5000028.6944
10.95648 2.966666666666667 3.3333333333333335 5000028.6944
10.39401 2.466666666666667 3.3333333333333335 5000011.8203
10.608826666666667 1.9666666666666666 3.3333333333333335 5000018.2648
10.608826666666667 1.8 3.3333333333333335 5000018.2648
10.95648 0.1 3.3333333333333335 5000028.6944
10.231000333333334 -2.2333333333333334 3.3333333333333335 5000006.93001
10.231000333333334 -2.2666666666666666 3.3333333333333335 5000006.93001
10.231000333333334 -2.6 3.3333333333333335 5000006.93001
10.231000333333334 -2.6333333333333333 3.3333333333333335 5000006.93001
10.95648 -3.6666666666666665 3.3333333333333335 5000028.6944
12.229653333333333 -6.266666666666667 3.3333333333333335 5000066.8896
10.95648 -6.4 3.3333333333333335 5000028.6944
10.95648 -6.433333333333334 3.3333333333333335 5000028.6944
10.744046666666666 -6.5 3.3333333333333335 5000022.3214
10.95648 -9.6 3.3333333333333335 5000028.6944
10.95648 -13.266666666666667 3.3333333333333335 5000028.6944
10.95648 -13.3 3.3333333333333335 5000028.6944
10.95648 -13.866666666666667 3.3333333333333335 5000028.6944
10.39401 2.466666666666667 3.3 5000011.8203
10.608826666666667 1.9666666666666666 3.3 5000018.2648
10.608826666666667 1.8 3.3 5000018.2648
10.95648 1.3666666666666667 3.3 5000028.6944
10.231000333333334 -2.2333333333333334 3.3 5000006.93001
10.231000333333334 -2.2666666666666666 3.3 5000006.93001
10.231000333333334 -2.6 3.3 5000006.93001
10.231000333333334 -2.6333333333333333 3.3 5000006.93001
10.95648 -3.6333333333333333 3.3 5000028.6944
10.95648 -3.6666666666666665 3.3 5000028.6944
12.229653333333333 -5.2 3.3 5000066.8896
16.666666666666668 -6.166666666666667 3.3 5000200.0
12.229653333333333 -6.266666666666667 3.3 5000066.8896
10.95648 -6.4 3.3 5000028.6944
10.95648 -6.433333333333334 3.3 5000028.6944
10.744046666666666 -6.5 3.3 5000022.3214
10.95648 -9.633333333333333 3.3 5000028.6944
10.95648 -13.266666666666667 3.3 5000028.6944
10.95648 -13.3 3.3 5000028.6944
10.95648 -13.866666666666667 3.3 5000028.6944
10.744046666666666 -13.966666666666667 3.3 5000022.3214
10.95648 -17.033333333333335 3.3 5000028.6944
10.39401 2.466666666666667 3.2666666666666666 5000011.8203
10.608826666666667 1.9666666666666666 3.2666666666666666 5000018.2648
10.608826666666667 1.8 3.2666666666666666 5000018.2648
10.95648 1.4 3.2666666666666666 5000028.6944
10.95648 1.3666666666666667 3.2666666666666666 5000028.6944
10.95648 0.7 3.2666666666666666 5000028.6944
10.95648 0.6666666666666666 3.2666666666666666 5000028.6944
10.95648 -0.43333333333333335 3.2666666666666666 5000028.6944
10.95648 -1.7333333333333334 3.2666666666666666 5000028.6944
10.95648 -2.1333333333333333 3.2666666666666666 5000028.6944
10.231000333333334 -2.2666666666666666 3.2666666666666666 5000006.93001
10.231000333333334 -2.6 3.2666666666666666 5000006.93001
10.231000333333334 -2.6333333333333333 3.2666666666666666 5000006.93001
10.95648 -3.6333333333333333 3.2666666666666666 5000028.6944
10.95648 -3.6666666666666665 3.2666666666666666 5000028.6944
10.446526666666667 -5.033333333333333 3.2666666666666666 5000013.3958
16.666666666666668 -6.1 3.2666666666666666 5000200.0
16.666666666666668 -6.133333333333334 3.2666666666666666 5000200.0
16.666666666666668 -6.166666666666667 3.2666666666666666 5000200.0
12.229653333333333 -6.266666666666667 3.2666666666666666 5000066.8896
10.95648 -6.4 3.2666666666666666 5000028.6944
10.95648 -6.433333333333334 3.2666666666666666 5000028.6944
10.744046666666666 -6.5 3.2666666666666666 5000022.3214
10.95648 -9.666666666666666 3.2666666666666666 5000028.6944
10.95648 -13.266666666666667 3.2666666666666666 5000028.6944
10.95648 -13.3 3.2666666666666666 5000028.6944
10.95648 -13.866666666666667 3.2666666666666666 5000028.6944
10.744046666666666 -13.966666666666667 3.2666666666666666 5000022.3214
10.608826666666667 -14.166666666666666 3.2666666666666666 5000018.2648
10.608826666666667 -14.233333333333333 3.2666666666666666 5000018.2648
11.338686666666668 -16.933333333333334 3.2666666666666666 5000040.1606
10.95648 -17.033333333333335 3.2666666666666666 5000028.6944
11.338686666666668 -17.366666666666667 3.2666666666666666 5000040.1606
10.39401 2.466666666666667 3.2333333333333334 5000011.8203
10.608826666666667 1.9666666666666666 3.2333333333333334 5000018.2648
10.608826666666667 1.8 3.2333333333333334 5000018.2648
10.95648 1.4 3.2333333333333334 5000028.6944
10.95648 -1.1333333333333333 3.2333333333333334 5000028.6944
10.95648 -1.9333333333333333 3.2333333333333334 5000028.6944
10.231000333333334 -2.2333333333333334 3.2333333333333334 5000006.93001
10.231000333333334 -2.2666666666666666 3.2333333333333334 5000006.93001
10.231000333333334 -2.6 3.2333333333333334 5000006.93001
10.231000333333334 -2.6333333333333333 3.2333333333333334 5000006.93001
10.95648 -3.6333333333333333 3.2333333333333334 5000028.6944
10.95648 -3.6666666666666665 3.2333333333333334 5000028.6944
16.666666666666668 -6.133333333333334 3.2333333333333334 5000200.0
16.666666666666668 -6.166666666666667 3.2333333333333334 5000200.0
10.95648 -6.4 3.2333333333333334 5000028.6944
10.744046666666666 -6.5 3.2333333333333334 5000022.3214
10.95648 -9.7 3.2333333333333334 5000028.6944
10.95648 -13.266666666666667 3.2333333333333334 5000028.6944
10.95648 -13.3 3.2333333333333334 5000028.6944
10.744046666666666 -13.4 3.2333333333333334 5000022.3214
10.95648 -13.866666666666667 3.2333333333333334 5000028.6944
10.744046666666666 -13.966666666666667 3.2333333333333334 5000022.3214
10.95648 -14.333333333333334 3.2333333333333334 5000028.6944
10.95648 -14.433333333333334 3.2333333333333334 5000028.6944
11.338686666666668 -16.933333333333334 3.2333333333333334 5000040.1606
10.95648 -17.033333333333335 3.2333333333333334 5000028.6944
11.338686666666668 -17.366666666666667 3.2333333333333334 5000040.1606
10.39401 2.466666666666667 3.2 5000011.8203
10.608826666666667 1.9666666666666666 3.2 5000018.2648
10.608826666666667 1.8 3.2 5000018.2648
10.95648 0.6 3.2 5000028.6944
10.95648 -0.5 3.2 5000028.6944
10.95648 -1.3 3.2 5000028.6944
10.231000333333334 -2.2333333333333334 3.2 5000006.93001
10.231000333333334 -2.2666666666666666 3.2 5000006.93001
10.231000333333334 -2.6 3.2 5000006.93001
10.231000333333334 -2.6333333333333333 3.2 5000006.93001
10.95648 -3.6333333333333333 3.2 5000028.6944
10.95648 -3.6666666666666665 3.2 5000028.6944
16.666666666666668 -6.133333333333334 3.2 5000200.0
16.666666666666668 -6.166666666666667 3.2 5000200.0
12.229653333333333 -6.266666666666667 3.2 5000066.8896
10.95648 -6.4 3.2 5000028.6944
10.744046666666666 -6.5 3.2 5000022.3214
10.95648 -11.3 3.2 5000028.6944
10.95648 -13.266666666666667 3.2 5000028.6944
10.744046666666666 -13.4 3.2 5000022.3214
10.95648 -13.866666666666667 3.2 5000028.6944
10.744046666666666 -13.966666666666667 3.2 5000022.3214
10.95648 -14.366666666666667 3.2 5000028.6944
10.95648 -14.4 3.2 5000028.6944
10.744046666666666 -14.466666666666667 3.2 5000022.3214
11.338686666666668 -16.933333333333334 3.2 5000040.1606
10.95648 -17.033333333333335 3.2 5000028.6944
11.338686666666668 -17.366666666666667 3.2 5000040.1606
10.39401 2.466666666666667 3.1666666666666665 5000011.8203
10.608826666666667 1.9666666666666666 3.1666666666666665 5000018.2648
10.608826666666667 1.8 3.1666666666666665 5000018.2648
10.95648 0.06666666666666667 3.1666666666666665 5000028.6944
10.95648 -0.23333333333333334 3.1666666666666665 5000028.6944
10.95648 -1.3 3.1666666666666665 5000028.6944
10.231000333333334 -2.2333333333333334 3.1666666666666665 5000006.93001
10.231000333333334 -2.2666666666666666 3.1666666666666665 5000006.93001
10.231000333333334 -2.6 3.1666666666666665 5000006.93001
10.231000333333334 -2.6333333333333333 3.1666666666666665 5000006.93001
10.95648 -3.6333333333333333 3.1666666666666665 5000028.6944
10.95648 -3.6666666666666665 3.1666666666666665 5000028.6944
10.95648 -6.366666666666666 3.1666666666666665 5000028.6944
10.95648 -6.4 3.1666666666666665 5000028.6944
10.744046666666666 -6.466666666666667 3.1666666666666665 5000022.3214
10.95648 -11.3 3.1666666666666665 5000028.6944
10.95648 -13.0 3.1666666666666665 5000028.6944
10.95648 -13.266666666666667 3.1666666666666665 5000028.6944
10.744046666666666 -13.4 3.1666666666666665 5000022.3214
10.95648 -13.866666666666667 3.1666666666666665 5000028.6944
10.744046666666666 -13.966666666666667 3.1666666666666665 5000022.3214
10.95648 -14.4 3.1666666666666665 5000028.6944
10.95648 -14.433333333333334 3.1666666666666665 5000028.6944
10.744046666666666 -14.5 3.1666666666666665 5000022.3214
10.744046666666666 -14.533333333333333 3.1666666666666665 5000022.3214
11.338686666666668 -16.933333333333334 3.1666666666666665 5000040.1606
10.95648 -17.033333333333335 3.1666666666666665 5000028.6944
10.95648 -17.066666666666666 3.1666666666666665 5000028.6944
10.39401 2.466666666666667 3.1333333333333333 5000011.8203
10.608826666666667 1.9666666666666666 3.1333333333333333 5000018.2648
10.608826666666667 1.8 3.1333333333333333 5000018.2648
10.744046666666666 1.4333333333333333 3.1333333333333333 5000022.3214
10.744046666666666 1.4 3.1333333333333333 5000022.3214
10.95648 1.1 3.1333333333333333 5000028.6944
10.95648 -1.0333333333333334 3.1333333333333333 5000028.6944
10.231000333333334 -2.2333333333333334 3.1333333333333333 5000006.93001
10.231000333333334 -2.2666666666666666 3.1333333333333333 5000006.93001
10.231000333333334 -2.6 3.1333333333333333 5000006.93001
10.231000333333334 -2.6333333333333333 3.1333333333333333 5000006.93001
10.95648 -3.1666666666666665 3.1333333333333333 5000028.6944
10.95648 -3.6333333333333333 3.1333333333333333 5000028.6944
10.95648 -3.6666666666666665 3.1333333333333333 5000028.6944
10.95648 -6.366666666666666 3.1333333333333333 5000028.6944
10.744046666666666 -6.466666666666667 3.1333333333333333 5000022.3214
16.666666666666668 -9.366666666666667 3.1333333333333333 5000200.0
11.338686666666668 -9.533333333333333 3.1333333333333333 5000040.1606
10.95648 -9.6 3.1333333333333333 5000028.6944
10.95648 -9.633333333333333 3.1333333333333333 5000028.6944
10.95648 -9.666666666666666 3.1333333333333333 5000028.6944
10.95648 -11.3 3.1333333333333333 5000028.6944
10.95648 -12.833333333333334 3.1333333333333333 5000028.6944
10.95648 -13.0 3.1333333333333333 5000028.6944
10.95648 -13.266666666666667 3.1333333333333333 5000028.6944
10.95648 -13.866666666666667 3.1333333333333333 5000028.6944
10.744046666666666 -13.966666666666667 3.1333333333333333 5000022.3214
10.95648 -14.466666666666667 3.1333333333333333 5000028.6944
10.744046666666666 -14.533333333333333 3.1333333333333333 5000022.3214
10.744046666666666 -14.566666666666666 3.1333333333333333 5000022.3214
10.39401 2.466666666666667 3.1 5000011.8203
10.608826666666667 1.9666666666666666 3.1 5000018.2648
10.608826666666667 1.8 3.1 5000018.2648
10.744046666666666 1.4333333333333333 3.1 5000022.3214
10.744046666666666 1.4 3.1 5000022.3214
10.744046666666666 1.3666666666666667 3.1 5000022.3214
10.95648 1.1 3.1 5000028.6944
10.95648 1.0666666666666667 3.1 5000028.6944
10.95648 -0.43333333333333335 3.1 5000028.6944
10.95648 -1.0333333333333334 3.1 5000028.6944
10.95648 -1.0666666666666667 3.1 5000028.6944
10.95648 -1.6666666666666667 3.1 5000028.6944
10.231000333333334 -2.2333333333333334 3.1 5000006.93001
10.231000333333334 -2.2666666666666666 3.1 5000006.93001
10.231000333333334 -2.6 3.1 5000006.93001
10.231000333333334 -2.6333333333333333 3.1 5000006.93001
10.95648 -3.6333333333333333 3.1 5000028.6944
10.95648 -3.6666666666666665 3.1 5000028.6944
10.95648 -6.366666666666666 3.1 5000028.6944
10.744046666666666 -6.466666666666667 3.1 5000022.3214
16.666666666666668 -8.533333333333333 3.1 5000200.0
16.666666666666668 -8.566666666666666 3.1 5000200.0
16.666666666666668 -8.933333333333334 3.1 5000200.0
16.666666666666668 -8.966666666666667 3.1 5000200.0
16.666666666666668 -9.333333333333334 3.1 5000200.0
10.95648 -9.666666666666666 3.1 5000028.6944
10.95648 -9.7 3.1 5000028.6944
10.95648 -9.766666666666667 3.1 5000028.6944
10.608826666666667 -9.866666666666667 3.1 5000018.2648
10.608826666666667 -9.9 3.1 5000018.2648
10.95648 -11.3 3.1 5000028.6944
10.95648 -13.0 3.1 5000028.6944
10.95648 -13.266666666666667 3.1 5000028.6944
10.95648 -13.866666666666667 3.1 5000028.6944
10.744046666666666 -13.966666666666667 3.1 5000022.3214
10.95648 -14.5 3.1 5000028.6944
10.744046666666666 -14.6 3.1 5000022.3214
10.39401 2.466666666666667 3.066666666666667 5000011.8203
10.608826666666667 1.9666666666666666 3.066666666666667 5000018.2648
10.608826666666667 1.8 3.066666666666667 5000018.2648
10.95648 1.1 3.066666666666667 5000028.6944
10.95648 0.5666666666666667 3.066666666666667 5000028.6944
10.95648 0.43333333333333335 3.066666666666667 5000028.6944
10.95648 -0.36666666666666664 3.066666666666667 5000028.6944
10.95648 -1.0333333333333334 3.066666666666667 5000028.6944
10.231000333333334 -2.2333333333333334 3.066666666666667 5000006.93001
10.231000333333334 -2.2666666666666666 3.066666666666667 5000006.93001
10.231000333333334 -2.6 3.066666666666667 5000006.93001
10.231000333333334 -2.6333333333333333 3.066666666666667 5000006.93001
10.95648 -3.6333333333333333 3.066666666666667 5000028.6944
10.95648 -3.6666666666666665 3.066666666666667 5000028.6944
10.95648 -6.366666666666666 3.066666666666667 5000028.6944
10.95648 -6.4 3.066666666666667 5000028.6944
10.744046666666666 -6.466666666666667 3.066666666666667 5000022.3214
16.666666666666668 -8.533333333333333 3.066666666666667 5000200.0
16.666666666666668 -8.566666666666666 3.066666666666667 5000200.0
10.95648 -8.933333333333334 3.066666666666667 5000028.6944
10.95648 -8.966666666666667 3.066666666666667 5000028.6944
16.666666666666668 -9.333333333333334 3.066666666666667 5000200.0
16.666666666666668 -9.366666666666667 3.066666666666667 5000200.0
10.95648 -9.7 3.066666666666667 5000028.6944
10.95648 -9.733333333333333 3.066666666666667 5000028.6944
10.744046666666666 -9.8 3.066666666666667 5000022.3214
10.608826666666667 -9.933333333333334 3.066666666666667 5000018.2648
10.95648 -11.3 3.066666666666667 5000028.6944
10.95648 -13.866666666666667 3.066666666666667 5000028.6944
10.744046666666666 -13.966666666666667 3.066666666666667 5000022.3214
10.95648 -14.533333333333333 3.066666666666667 5000028.6944
10.744046666666666 -14.633333333333333 3.066666666666667 5000022.3214
10.95648 3.033333333333333 3.033333333333333 5000028.6944
10.39401 2.466666666666667 3.033333333333333 5000011.8203
10.608826666666667 1.9666666666666666 3.033333333333333 5000018.2648
10.608826666666667 1.8 3.033333333333333 5000018.2648
10.95648 0.23333333333333334 3.033333333333333 5000028.6944
10.95648 0.03333333333333333 3.033333333333333 5000028.6944
10.95648 -0.36666666666666664 3.033333333333333 5000028.6944
10.231000333333334 -2.2666666666666666 3.033333333333333 5000006.93001
10.231000333333334 -2.3 3.033333333333333 5000006.93001
10.231000333333334 -2.6 3.033333333333333 5000006.93001
10.231000333333334 -2.6333333333333333 3.033333333333333 5000006.93001
10.95648 -3.6333333333333333 3.033333333333333 5000028.6944
10.95648 -3.6666666666666665 3.033333333333333 5000028.6944
10.95648 -3.7666666666666666 3.033333333333333 5000028.6944
10.446526666666667 -5.4 3.033333333333333 5000013.3958
10.95648 -6.366666666666666 3.033333333333333 5000028.6944
10.95648 -6.4 3.033333333333333 5000028.6944
10.744046666666666 -6.466666666666667 3.033333333333333 5000022.3214
16.666666666666668 -8.566666666666666 3.033333333333333 5000200.0
12.229653333333333 -8.666666666666666 3.033333333333333 5000066.8896
11.338686666666668 -8.766666666666667 3.033333333333333 5000040.1606
10.95648 -8.866666666666667 3.033333333333333 5000028.6944
10.744046666666666 -8.966666666666667 3.033333333333333 5000022.3214
16.666666666666668 -9.333333333333334 3.033333333333333 5000200.0
16.666666666666668 -9.366666666666667 3.033333333333333 5000200.0
12.229653333333333 -9.533333333333333 3.033333333333333 5000066.8896
10.95648 -9.766666666666667 3.033333333333333 5000028.6944
10.744046666666666 -9.833333333333334 3.033333333333333 5000022.3214
10.608826666666667 -9.966666666666667 3.033333333333333 5000018.2648
10.352546666666667 -10.433333333333334 3.033333333333333 5000010.5764
10.352546666666667 -10.466666666666667 3.033333333333333 5000010.5764
10.95648 -11.3 3.033333333333333 5000028.6944
10.95648 -13.066666666666666 3.033333333333333 5000028.6944
10.95648 -13.4 3.033333333333333 5000028.6944
10.95648 -13.866666666666667 3.033333333333333 5000028.6944
10.744046666666666 -13.966666666666667 3.033333333333333 5000022.3214
10.95648 -14.066666666666666 3.033333333333333 5000028.6944
10.95648 -14.566666666666666 3.033333333333333 5000028.6944
10.744046666666666 -14.666666666666666 3.033333333333333 5000022.3214
10.95648 -16.266666666666666 3.033333333333333 5000028.6944
10.95648 -17.066666666666666 3.033333333333333 5000028.6944
10.39401 2.466666666666667 3.0 5000011.8203
10.608826666666667 1.9666666666666666 3.0 5000018.2648
10.608826666666667 1.8 3.0 5000018.2648
10.95648 -0.36666666666666664 3.0 5000028.6944
10.231000333333334 -2.2666666666666666 3.0 5000006.93001
10.231000333333334 -2.6333333333333333 3.0 5000006.93001
10.95648 -3.6333333333333333 3.0 5000028.6944
10.95648 -3.6666666666666665 3.0 5000028.6944
10.95648 -3.7666666666666666 3.0 5000028.6944
10.446526666666667 -5.4 3.0 5000013.3958
10.95648 -6.366666666666666 3.0 5000028.6944
10.95648 -6.4 3.0 5000028.6944
10.95648 -6.466666666666667 3.0 5000028.6944
16.666666666666668 -8.566666666666666 3.0 5000200.0
12.229653333333333 -8.666666666666666 3.0 5000066.8896
11.338686666666668 -8.766666666666667 3.0 5000040.1606
10.95648 -8.866666666666667 3.0 5000028.6944
10.95648 -8.933333333333334 3.0 5000028.6944
10.608826666666667 -8.966666666666667 3.0 5000018.2648
10.95648 -9.433333333333334 3.0 5000028.6944
12.229653333333333 -9.566666666666666 3.0 5000066.8896
10.744046666666666 -9.866666666666667 3.0 5000022.3214
10.608826666666667 -10.0 3.0 5000018.2648
10.352546666666667 -10.466666666666667 3.0 5000010.5764
10.95648 -11.3 3.0 5000028.6944
10.95648 -11.5 3.0 5000028.6944
10.95648 -11.533333333333333 3.0 5000028.6944
10.95648 -11.566666666666666 3.0 5000028.6944
10.95648 -13.066666666666666 3.0 5000028.6944
10.95648 -13.866666666666667 3.0 5000028.6944
10.744046666666666 -13.966666666666667 3.0 5000022.3214
10.95648 -14.066666666666666 3.0 5000028.6944
10.95648 -14.166666666666666 3.0 5000028.6944
10.95648 -14.6 3.0 5000028.6944
10.744046666666666 -14.7 3.0 5000022.3214
10.39401 2.466666666666667 2.966666666666667 5000011.8203
10.608826666666667 1.9666666666666666 2.966666666666667 5000018.2648
10.608826666666667 1.8 2.966666666666667 5000018.2648
10.95648 1.5333333333333334 2.966666666666667 5000028.6944
10.95648 -1.4666666666666666 2.966666666666667 5000028.6944
10.95648 -1.5 2.966666666666667 5000028.6944
10.231000333333334 -2.2666666666666666 2.966666666666667 5000006.93001
10.95648 -2.533333333333333 2.966666666666667 5000028.6944
10.95648 -3.6333333333333333 2.966666666666667 5000028.6944
10.95648 -3.6666666666666665 2.966666666666667 5000028.6944
10.95648 -3.7666666666666666 2.966666666666667 5000028.6944
10.446526666666667 -5.4 2.966666666666667 5000013.3958
10.95648 -6.366666666666666 2.966666666666667 5000028.6944
10.95648 -6.4 2.966666666666667 5000028.6944
10.95648 -6.466666666666667 2.966666666666667 5000028.6944
16.666666666666668 -8.533333333333333 2.966666666666667 5000200.0
16.666666666666668 -8.566666666666666 2.966666666666667 5000200.0
12.229653333333333 -8.666666666666666 2.966666666666667 5000066.8896
11.338686666666668 -8.766666666666667 2.966666666666667 5000040.1606
10.608826666666667 -8.866666666666667 2.966666666666667 5000018.2648
10.608826666666667 -8.933333333333334 2.966666666666667 5000018.2648
10.446526666666667 -8.966666666666667 2.966666666666667 5000013.3958
10.95648 -9.366666666666667 2.966666666666667 5000028.6944
10.95648 -9.433333333333334 2.966666666666667 5000028.6944
12.229653333333333 -9.6 2.966666666666667 5000066.8896
11.338686666666668 -9.733333333333333 2.966666666666667 5000040.1606
10.608826666666667 -10.033333333333333 2.966666666666667 5000018.2648
10.95648 -11.3 2.966666666666667 5000028.6944
10.744046666666666 -11.5 2.966666666666667 5000022.3214
10.95648 -13.866666666666667 2.966666666666667 5000028.6944
10.744046666666666 -13.966666666666667 2.966666666666667 5000022.3214
10.95648 -14.1 2.966666666666667 5000028.6944
10.95648 -14.166666666666666 2.966666666666667 5000028.6944
10.95648 -14.633333333333333 2.966666666666667 5000028.6944
10.744046666666666 -14.733333333333333 2.966666666666667 5000022.3214
10.39401 2.466666666666667 2.933333333333333 5000011.8203
10.608826666666667 1.9666666666666666 2.933333333333333 5000018.2648
10.608826666666667 1.8 2.933333333333333 5000018.2648
10.95648 1.3666666666666667 2.933333333333333 5000028.6944
10.95648 1.1 2.933333333333333 5000028.6944
10.95648 0.6666666666666666 2.933333333333333 5000028.6944
10.95648 0.13333333333333333 2.933333333333333 5000028.6944
10.95648 -1.4333333333333333 2.933333333333333 5000028.6944
10.95648 -1.4666666666666666 2.933333333333333 5000028.6944
10.95648 -1.5 2.933333333333333 5000028.6944
10.231000333333334 -2.2666666666666666 2.933333333333333 5000006.93001
10.95648 -2.533333333333333 2.933333333333333 5000028.6944
10.95648 -2.566666666666667 2.933333333333333 5000028.6944
10.95648 -3.6333333333333333 2.933333333333333 5000028.6944
10.95648 -3.6666666666666665 2.933333333333333 5000028.6944
10.95648 -3.7666666666666666 2.933333333333333 5000028.6944
10.95648 -6.366666666666666 2.933333333333333 5000028.6944
10.95648 -6.4 2.933333333333333 5000028.6944
10.744046666666666 -6.466666666666667 2.933333333333333 5000022.3214
16.666666666666668 -8.566666666666666 2.933333333333333 5000200.0
10.608826666666667 -8.933333333333334 2.933333333333333 5000018.2648
10.446526666666667 -8.966666666666667 2.933333333333333 5000013.3958
10.39401 -9.366666666666667 2.933333333333333 5000011.8203
10.39401 -9.433333333333334 2.933333333333333 5000011.8203
11.338686666666668 -9.733333333333333 2.933333333333333 5000040.1606
10.95648 -9.866666666666667 2.933333333333333 5000028.6944
10.608826666666667 -10.066666666666666 2.933333333333333 5000018.2648
10.39401 -10.433333333333334 2.933333333333333 5000011.8203
10.95648 -11.3 2.933333333333333 5000028.6944
10.95648 -11.833333333333334 2.933333333333333 5000028.6944
10.95648 -13.266666666666667 2.933333333333333 5000028.6944
10.95648 -13.866666666666667 2.933333333333333 5000028.6944
10.744046666666666 -13.966666666666667 2.933333333333333 5000022.3214
10.95648 -14.1 2.933333333333333 5000028.6944
10.95648 -14.7 2.933333333333333 5000028.6944
10.744046666666666 -14.8 2.933333333333333 5000022.3214
10.39401 2.466666666666667 2.9 5000011.8203
10.608826666666667 1.9666666666666666 2.9 5000018.2648
10.608826666666667 1.8 2.9 5000018.2648
10.95648 0.13333333333333333 2.9 5000028.6944
10.95648 -0.7333333333333333 2.9 5000028.6944
10.95648 -1.4666666666666666 2.9 5000028.6944
10.231000333333334 -2.2666666666666666 2.9 5000006.93001
10.95648 -2.566666666666667 2.9 5000028.6944
10.95648 -3.6333333333333333 2.9 5000028.6944
10.95648 -3.6666666666666665 2.9 5000028.6944
10.95648 -3.7666666666666666 2.9 5000028.6944
10.95648 -6.366666666666666 2.9 5000028.6944
10.95648 -6.4 2.9 5000028.6944
10.744046666666666 -6.466666666666667 2.9 5000022.3214
16.666666666666668 -8.566666666666666 2.9 5000200.0
10.744046666666666 -8.933333333333334 2.9 5000022.3214
10.39401 -9.366666666666667 2.9 5000011.8203
10.39401 -9.433333333333334 2.9 5000011.8203
11.338686666666668 -9.733333333333333 2.9 5000040.1606
10.95648 -9.866666666666667 2.9 5000028.6944
10.744046666666666 -9.966666666666667 2.9 5000022.3214
10.39401 -10.433333333333334 2.9 5000011.8203
10.39401 -10.466666666666667 2.9 5000011.8203
10.95648 -11.3 2.9 5000028.6944
10.744046666666666 -11.433333333333334 2.9 5000022.3214
10.95648 -11.833333333333334 2.9 5000028.6944
10.95648 -12.166666666666666 2.9 5000028.6944
10.95648 -12.3 2.9 5000028.6944
10.95648 -12.966666666666667 2.9 5000028.6944
10.95648 -13.266666666666667 2.9 5000028.6944
10.95648 -13.3 2.9 5000028.6944
10.95648 -13.866666666666667 2.9 5000028.6944
10.744046666666666 -13.966666666666667 2.9 5000022.3214
10.95648 -14.1 2.9 5000028.6944
10.95648 -14.733333333333333 2.9 5000028.6944
10.744046666666666 -14.833333333333334 2.9 5000022.3214
10.95648 -16.266666666666666 2.9 5000028.6944
10.39401 2.466666666666667 2.8666666666666667 5000011.8203
10.608826666666667 1.9666666666666666 2.8666666666666667 5000018.2648
10.608826666666667 1.8 2.8666666666666667 5000018.2648
10.95648 0.13333333333333333 2.8666666666666667 5000028.6944
10.95648 -0.3333333333333333 2.8666666666666667 5000028.6944
10.95648 -0.7333333333333333 2.8666666666666667 5000028.6944
10.95648 -1.0333333333333334 2.8666666666666667 5000028.6944
10.95648 -1.1666666666666667 2.8666666666666667 5000028.6944
10.95648 -1.4666666666666666 2.8666666666666667 5000028.6944
10.231000333333334 -2.2666666666666666 2.8666666666666667 5000006.93001
10.95648 -2.566666666666667 2.8666666666666667 5000028.6944
10.95648 -3.6333333333333333 2.8666666666666667 5000028.6944
10.95648 -3.6666666666666665 2.8666666666666667 5000028.6944
10.95648 -3.7666666666666666 2.8666666666666667 5000028.6944
10.95648 -6.366666666666666 2.8666666666666667 5000028.6944
10.744046666666666 -6.466666666666667 2.8666666666666667 5000022.3214
16.666666666666668 -8.566666666666666 2.8666666666666667 5000200.0
12.229653333333333 -8.666666666666666 2.8666666666666667 5000066.8896
11.338686666666668 -8.766666666666667 2.8666666666666667 5000040.1606
10.95648 -8.866666666666667 2.8666666666666667 5000028.6944
10.95648 -8.933333333333334 2.8666666666666667 5000028.6944
10.39401 -9.366666666666667 2.8666666666666667 5000011.8203
10.39401 -9.433333333333334 2.8666666666666667 5000011.8203
16.666666666666668 -9.6 2.8666666666666667 5000200.0
10.95648 -9.933333333333334 2.8666666666666667 5000028.6944
10.608826666666667 -10.133333333333333 2.8666666666666667 5000018.2648
10.95648 -11.3 2.8666666666666667 5000028.6944
10.744046666666666 -11.433333333333334 2.8666666666666667 5000022.3214
11.338686666666668 -11.733333333333333 2.8666666666666667 5000040.1606
10.95648 -11.833333333333334 2.8666666666666667 5000028.6944
10.95648 -12.3 2.8666666666666667 5000028.6944
10.95648 -12.966666666666667 2.8666666666666667 5000028.6944
10.95648 -13.266666666666667 2.8666666666666667 5000028.6944
10.95648 -13.533333333333333 2.8666666666666667 5000028.6944
10.95648 -13.866666666666667 2.8666666666666667 5000028.6944
10.744046666666666 -13.966666666666667 2.8666666666666667 5000022.3214
10.95648 -14.1 2.8666666666666667 5000028.6944
10.95648 -14.133333333333333 2.8666666666666667 5000028.6944
10.95648 -14.733333333333333 2.8666666666666667 5000028.6944
10.95648 -14.766666666666667 2.8666666666666667 5000028.6944
10.744046666666666 -14.833333333333334 2.8666666666666667 5000022.3214
10.744046666666666 -14.866666666666667 2.8666666666666667 5000022.3214
10.95648 -16.066666666666666 2.8666666666666667 5000028.6944
10.95648 -16.266666666666666 2.8666666666666667 5000028.6944
10.39401 2.466666666666667 2.8333333333333335 5000011.8203
10.608826666666667 1.9666666666666666 2.8333333333333335 5000018.2648
10.608826666666667 1.8 2.8333333333333335 5000018.2648
10.95648 1.3666666666666667 2.8333333333333335 5000028.6944
10.95648 1.2666666666666666 2.8333333333333335 5000028.6944
10.95648 1.1 2.8333333333333335 5000028.6944
10.95648 0.5 2.8333333333333335 5000028.6944
10.95648 -0.2 2.8333333333333335 5000028.6944
10.95648 -0.3 2.8333333333333335 5000028.6944
10.95648 -1.4333333333333333 2.8333333333333335 5000028.6944
10.95648 -1.4666666666666666 2.8333333333333335 5000028.6944
10.231000333333334 -2.2666666666666666 2.8333333333333335 5000006.93001
10.95648 -2.566666666666667 2.8333333333333335 5000028.6944
10.95648 -3.6333333333333333 2.8333333333333335 5000028.6944
10.95648 -3.6666666666666665 2.8333333333333335 5000028.6944
10.95648 -3.7666666666666666 2.8333333333333335 5000028.6944
10.95648 -6.366666666666666 2.8333333333333335 5000028.6944
10.95648 -6.4 2.8333333333333335 5000028.6944
10.744046666666666 -6.466666666666667 2.8333333333333335 5000022.3214
16.666666666666668 -8.566666666666666 2.8333333333333335 5000200.0
12.229653333333333 -8.666666666666666 2.8333333333333335 5000066.8896
11.338686666666668 -8.733333333333333 2.8333333333333335 5000040.1606
11.338686666666668 -8.766666666666667 2.8333333333333335 5000040.1606
11.338686666666668 -8.8 2.8333333333333335 5000040.1606
10.95648 -8.866666666666667 2.8333333333333335 5000028.6944
10.95648 -8.933333333333334 2.8333333333333335 5000028.6944
10.95648 -9.433333333333334 2.8333333333333335 5000028.6944
10.95648 -9.966666666666667 2.8333333333333335 5000028.6944
10.95648 -10.033333333333333 2.8333333333333335 5000028.6944
10.608826666666667 -10.166666666666666 2.8333333333333335 5000018.2648
10.95648 -11.3 2.8333333333333335 5000028.6944
10.95648 -11.833333333333334 2.8333333333333335 5000028.6944
10.95648 -12.966666666666667 2.8333333333333335 5000028.6944
10.95648 -13.266666666666667 2.8333333333333335 5000028.6944
10.95648 -13.866666666666667 2.8333333333333335 5000028.6944
10.744046666666666 -13.966666666666667 2.8333333333333335 5000022.3214
10.95648 -14.8 2.8333333333333335 5000028.6944
10.744046666666666 -14.9 2.8333333333333335 5000022.3214
10.95648 -15.833333333333334 2.8333333333333335 5000028.6944
10.95648 -16.066666666666666 2.8333333333333335 5000028.6944
10.95648 2.933333333333333 2.8 5000028.6944
10.39401 2.466666666666667 2.8 5000011.8203
10.39401 2.2333333333333334 2.8 5000011.8203
10.608826666666667 1.9666666666666666 2.8 5000018.2648
10.608826666666667 1.8 2.8 5000018.2648
10.744046666666666 1.4 2.8 5000022.3214
10.744046666666666 1.3666666666666667 2.8 5000022.3214
10.95648 1.2666666666666666 2.8 5000028.6944
10.95648 0.5 2.8 5000028.6944
10.95648 -0.26666666666666666 2.8 5000028.6944
10.95648 -1.4333333333333333 2.8 5000028.6944
10.95648 -1.4666666666666666 2.8 5000028.6944
10.231000333333334 -2.2666666666666666 2.8 5000006.93001
10.231000333333334 -2.3 2.8 5000006.93001
10.95648 -2.566666666666667 2.8 5000028.6944
10.95648 -3.6666666666666665 2.8 5000028.6944
10.95648 -3.7666666666666666 2.8 5000028.6944
10.95648 -6.4 2.8 5000028.6944
10.744046666666666 -6.466666666666667 2.8 5000022.3214
16.666666666666668 -8.533333333333333 2.8 5000200.0
16.666666666666668 -8.566666666666666 2.8 5000200.0
11.338686666666668 -8.766666666666667 2.8 5000040.1606
10.95648 -8.9 2.8 5000028.6944
10.95648 -8.933333333333334 2.8 5000028.6944
16.666666666666668 -9.4 2.8 5000200.0
16.666666666666668 -9.433333333333334 2.8 5000200.0
12.229653333333333 -9.733333333333333 2.8 5000066.8896
12.229653333333333 -9.766666666666667 2.8 5000066.8896
10.95648 -10.0 2.8 5000028.6944
10.744046666666666 -10.066666666666666 2.8 5000022.3214
10.608826666666667 -10.2 2.8 5000018.2648
10.95648 -12.966666666666667 2.8 5000028.6944
10.95648 -13.266666666666667 2.8 5000028.6944
10.95648 -13.866666666666667 2.8 5000028.6944
10.95648 -13.9 2.8 5000028.6944
10.744046666666666 -13.966666666666667 2.8 5000022.3214
10.95648 -14.833333333333334 2.8 5000028.6944
10.744046666666666 -14.933333333333334 2.8 5000022.3214
11.338686666666668 -15.7 2.8 5000040.1606
10.95648 -15.8 2.8 5000028.6944
10.95648 -16.033333333333335 2.8 5000028.6944
10.95648 2.6333333333333333 2.7666666666666666 5000028.6944
10.39401 2.466666666666667 2.7666666666666666 5000011.8203
10.39401 2.433333333333333 2.7666666666666666 5000011.8203
10.608826666666667 1.9666666666666666 2.7666666666666666 5000018.2648
10.608826666666667 1.8 2.7666666666666666 5000018.2648
10.744046666666666 1.4 2.7666666666666666 5000022.3214
10.95648 -1.4333333333333333 2.7666666666666666 5000028.6944
10.95648 -1.4666666666666666 2.7666666666666666 5000028.6944
10.231000333333334 -2.2666666666666666 2.7666666666666666 5000006.93001
10.95648 -3.6333333333333333 2.7666666666666666 5000028.6944
10.95648 -3.6666666666666665 2.7666666666666666 5000028.6944
10.95648 -3.7666666666666666 2.7666666666666666 5000028.6944
10.95648 -3.8333333333333335 2.7666666666666666 5000028.6944
10.95648 -6.4 2.7666666666666666 5000028.6944
10.744046666666666 -6.466666666666667 2.7666666666666666 5000022.3214
16.666666666666668 -8.566666666666666 2.7666666666666666 5000200.0
10.608826666666667 -8.933333333333334 2.7666666666666666 5000018.2648
16.666666666666668 -9.4 2.7666666666666666 5000200.0
16.666666666666668 -9.433333333333334 2.7666666666666666 5000200.0
16.666666666666668 -9.466666666666667 2.7666666666666666 5000200.0
12.229653333333333 -9.766666666666667 2.7666666666666666 5000066.8896
12.229653333333333 -9.833333333333334 2.7666666666666666 5000066.8896
11.338686666666668 -9.866666666666667 2.7666666666666666 5000040.1606
10.446526666666667 -9.9 2.7666666666666666 5000013.3958
10.95648 -10.0 2.7666666666666666 5000028.6944
10.95648 -10.033333333333333 2.7666666666666666 5000028.6944
10.744046666666666 -10.1 2.7666666666666666 5000022.3214
10.608826666666667 -10.2 2.7666666666666666 5000018.2648
10.216099333333334 -10.233333333333333 2.7666666666666666 5000006.48298
10.216099333333334 -10.3 2.7666666666666666 5000006.48298
10.95648 -13.866666666666667 2.7666666666666666 5000028.6944
10.744046666666666 -13.966666666666667 2.7666666666666666 5000022.3214
10.95648 -14.833333333333334 2.7666666666666666 5000028.6944
10.95648 -14.866666666666667 2.7666666666666666 5000028.6944
10.744046666666666 -14.933333333333334 2.7666666666666666 5000022.3214
10.744046666666666 -14.966666666666667 2.7666666666666666 5000022.3214
10.95648 -15.133333333333333 2.7666666666666666 5000028.6944
10.95648 -15.166666666666666 2.7666666666666666 5000028.6944
11.338686666666668 -15.666666666666666 2.7666666666666666 5000040.1606
10.95648 -15.766666666666667 2.7666666666666666 5000028.6944
11.338686666666668 -15.933333333333334 2.7666666666666666 5000040.1606
10.95648 -16.033333333333335 2.7666666666666666 5000028.6944
10.95648 -17.2 2.7666666666666666 5000028.6944
10.39401 2.466666666666667 2.7333333333333334 5000011.8203
10.608826666666667 1.9666666666666666 2.7333333333333334 5000018.2648
10.608826666666667 1.8 2.7333333333333334 5000018.2648
10.744046666666666 1.4 2.7333333333333334 5000022.3214
10.95648 0.8666666666666667 2.7333333333333334 5000028.6944
10.95648 0.8333333333333334 2.7333333333333334 5000028.6944
10.95648 -0.36666666666666664 2.7333333333333334 5000028.6944
10.95648 -0.6333333333333333 2.7333333333333334 5000028.6944
10.95648 -1.0 2.7333333333333334 5000028.6944
10.95648 -1.4666666666666666 2.7333333333333334 5000028.6944
10.95648 -1.9 2.7333333333333334 5000028.6944
10.231000333333334 -2.2666666666666666 2.7333333333333334 5000006.93001
10.95648 -3.6333333333333333 2.7333333333333334 5000028.6944
10.95648 -3.6666666666666665 2.7333333333333334 5000028.6944
10.95648 -3.7666666666666666 2.7333333333333334 5000028.6944
10.446526666666667 -5.0 2.7333333333333334 5000013.3958
10.95648 -6.366666666666666 2.7333333333333334 5000028.6944
10.95648 -6.4 2.7333333333333334 5000028.6944
10.744046666666666 -6.466666666666667 2.7333333333333334 5000022.3214
10.744046666666666 -6.5 2.7333333333333334 5000022.3214
10.155799666666667 -8.2 2.7333333333333334 5000004.67399
16.666666666666668 -8.566666666666666 2.7333333333333334 5000200.0
10.446526666666667 -8.933333333333334 2.7333333333333334 5000013.3958
10.446526666666667 -8.966666666666667 2.7333333333333334 5000013.3958
16.666666666666668 -9.4 2.7333333333333334 5000200.0
16.666666666666668 -9.433333333333334 2.7333333333333334 5000200.0
12.229653333333333 -9.766666666666667 2.7333333333333334 5000066.8896
12.229653333333333 -9.8 2.7333333333333334 5000066.8896
10.446526666666667 -9.9 2.7333333333333334 5000013.3958
10.95648 -10.033333333333333 2.7333333333333334 5000028.6944
10.744046666666666 -10.1 2.7333333333333334 5000022.3214
10.95648 -13.866666666666667 2.7333333333333334 5000028.6944
16.666666666666668 -14.466666666666667 2.7333333333333334 5000200.0
16.666666666666668 -14.533333333333333 2.7333333333333334 5000200.0
10.95648 -14.866666666666667 2.7333333333333334 5000028.6944
10.95648 -14.9 2.7333333333333334 5000028.6944
10.744046666666666 -14.966666666666667 2.7333333333333334 5000022.3214
10.744046666666666 -15.0 2.7333333333333334 5000022.3214
10.95648 -15.166666666666666 2.7333333333333334 5000028.6944
10.95648 -15.2 2.7333333333333334 5000028.6944
11.338686666666668 -15.666666666666666 2.7333333333333334 5000040.1606
11.338686666666668 -15.933333333333334 2.7333333333333334 5000040.1606
10.95648 -16.033333333333335 2.7333333333333334 5000028.6944
10.95648 -17.166666666666668 2.7333333333333334 5000028.6944
10.95648 -17.2 2.7333333333333334 5000028.6944
10.95648 3.033333333333333 2.7 5000028.6944
10.95648 2.9 2.7 5000028.6944
10.608826666666667 1.9666666666666666 2.7 5000018.2648
10.608826666666667 1.8 2.7 5000018.2648
10.744046666666666 1.4 2.7 5000022.3214
10.95648 0.9 2.7 5000028.6944
10.95648 0.8666666666666667 2.7 5000028.6944
10.95648 0.5666666666666667 2.7 5000028.6944
10.95648 0.5333333333333333 2.7 5000028.6944
10.95648 -0.36666666666666664 2.7 5000028.6944
10.95648 -1.4333333333333333 2.7 5000028.6944
10.95648 -1.4666666666666666 2.7 5000028.6944
10.95648 -1.9 2.7 5000028.6944
10.231000333333334 -2.2666666666666666 2.7 5000006.93001
10.231000333333334 -2.3 2.7 5000006.93001
10.95648 -2.566666666666667 2.7 5000028.6944
10.95648 -3.6333333333333333 2.7 5000028.6944
10.95648 -3.6666666666666665 2.7 5000028.6944
10.95648 -3.7666666666666666 2.7 5000028.6944
10.95648 -6.366666666666666 2.7 5000028.6944
10.95648 -6.4 2.7 5000028.6944
10.744046666666666 -6.5 2.7 5000022.3214
10.744046666666666 -6.533333333333333 2.7 5000022.3214
10.352546666666667 -6.966666666666667 2.7 5000010.5764
10.352546666666667 -7.0 2.7 5000010.5764
