VERSION .7
FIELDS x y z rgb
SIZE 4 4 4 4
TYPE F F F F
COUNT 1 1 1 1
WIDTH 1396
HEIGHT 1
VIEWPOINT 0 0 0 1 0 0 0
POINTS 1396
DATA ascii
12.23748 0.84 3.38 5000013.3958
28.29636 0.76 3.38 5000040.1606
15.15888 0.56 3.38 5000018.2648
12.23748 0.48 3.38 5000013.3958
11.29218 0.44 3.38 5000011.8203
11.29218 0.42 3.38 5000011.8203
11.29218 0.4 3.38 5000011.8203
28.29636 -0.2 3.38 5000040.1606
21.41664 -0.92 3.38 5000028.6944
15.15888 -1.9 3.38 5000018.2648
28.29636 -2.6 3.38 5000040.1606
28.29636 -4.68 3.38 5000040.1606
28.29636 -6.12 3.38 5000040.1606
21.41664 -6.18 3.38 5000028.6944
28.29636 4.62 3.36 5000040.1606
28.29636 4.56 3.36 5000040.1606
7.645308 3.98 3.36 5000005.74218
7.645308 3.96 3.36 5000005.74218
7.645308 3.86 3.36 5000005.74218
7.459097999999999 3.04 3.36 5000005.43183
21.41664 2.9 3.36 5000028.6944
17.592840000000002 2.84 3.36 5000022.3214
17.592840000000002 2.82 3.36 5000022.3214
21.41664 2.48 3.36 5000028.6944
17.592840000000002 2.28 3.36 5000022.3214
13.4736 2.16 3.36 5000015.456
44.33376 2.08 3.36 5000066.8896
44.33376 1.96 3.36 5000066.8896
124.19999999999999 1.8 3.36 5000200.0
124.19999999999999 1.68 3.36 5000200.0
12.23748 1.2 3.36 5000013.3958
28.29636 1.06 3.36 5000040.1606
28.29636 0.74 3.36 5000040.1606
15.15888 0.58 3.36 5000018.2648
15.15888 0.56 3.36 5000018.2648
12.23748 0.5 3.36 5000013.3958
11.29218 0.44 3.36 5000011.8203
11.29218 0.42 3.36 5000011.8203
28.29636 -0.2 3.36 5000040.1606
21.41664 -0.88 3.36 5000028.6944
21.41664 -0.92 3.36 5000028.6944
15.15888 -1.9 3.36 5000018.2648
28.29636 -2.6 3.36 5000040.1606
28.29636 -4.68 3.36 5000040.1606
28.29636 -6.12 3.36 5000040.1606
21.41664 -6.18 3.36 5000028.6944
28.29636 4.62 3.34 5000040.1606
7.645308 3.98 3.34 5000005.74218
7.645308 3.96 3.34 5000005.74218
7.645308 3.86 3.34 5000005.74218
7.8540779999999994 3.12 3.34 5000006.09013
7.645308 3.1 3.34 5000005.74218
7.459097999999999 3.04 3.34 5000005.43183
21.41664 2.9 3.34 5000028.6944
21.41664 2.88 3.34 5000028.6944
17.592840000000002 2.82 3.34 5000022.3214
17.592840000000002 2.8 3.34 5000022.3214
21.41664 2.48 3.34 5000028.6944
28.29636 2.14 3.34 5000040.1606
124.19999999999999 1.8 3.34 5000200.0
124.19999999999999 1.68 3.34 5000200.0
15.15888 1.48 3.34 5000018.2648
13.4736 1.34 3.34 5000015.456
12.23748 1.26 3.34 5000013.3958
13.4736 1.2 3.34 5000015.456
28.29636 0.74 3.34 5000040.1606
15.15888 0.58 3.34 5000018.2648
15.15888 0.56 3.34 5000018.2648
12.23748 0.5 3.34 5000013.3958
11.29218 0.44 3.34 5000011.8203
11.29218 0.42 3.34 5000011.8203
13.4736 0.28 3.34 5000015.456
28.29636 -0.2 3.34 5000040.1606
21.41664 -0.92 3.34 5000028.6944
15.15888 -1.9 3.34 5000018.2648
28.29636 -6.12 3.34 5000040.1606
21.41664 -6.18 3.34 5000028.6944
28.29636 4.64 3.32 5000040.1606
28.29636 4.62 3.32 5000040.1606
7.645308 3.96 3.32 5000005.74218
7.645308 3.86 3.32 5000005.74218
7.8540779999999994 3.12 3.32 5000006.09013
7.8540779999999994 3.1 3.32 5000006.09013
21.41664 2.88 3.32 5000028.6944
21.41664 2.86 3.32 5000028.6944
17.592840000000002 2.8 3.32 5000022.3214
124.19999999999999 2.42 3.32 5000200.0
17.592840000000002 2.24 3.32 5000022.3214
28.29636 2.12 3.32 5000040.1606
44.33376 2.08 3.32 5000066.8896
124.19999999999999 1.8 3.32 5000200.0
124.19999999999999 1.68 3.32 5000200.0
28.29636 1.62 3.32 5000040.1606
21.41664 1.54 3.32 5000028.6944
12.23748 1.28 3.32 5000013.3958
15.15888 0.58 3.32 5000018.2648
15.15888 0.56 3.32 5000018.2648
11.29218 0.46 3.32 5000011.8203
11.29218 0.44 3.32 5000011.8203
13.4736 0.28 3.32 5000015.456
28.29636 -0.2 3.32 5000040.1606
21.41664 -0.88 3.32 5000028.6944
21.41664 -0.92 3.32 5000028.6944
15.15888 -1.9 3.32 5000018.2648
28.29636 -6.12 3.32 5000040.1606
21.41664 -6.18 3.32 5000028.6944
28.29636 4.64 3.3 5000040.1606
28.29636 4.62 3.3 5000040.1606
7.645308 3.96 3.3 5000005.74218
7.645308 3.86 3.3 5000005.74218
7.8540779999999994 3.12 3.3 5000006.09013
7.8540779999999994 3.1 3.3 5000006.09013
21.41664 2.86 3.3 5000028.6944
21.41664 2.84 3.3 5000028.6944
17.592840000000002 2.78 3.3 5000022.3214
124.19999999999999 1.68 3.3 5000200.0
28.29636 1.62 3.3 5000040.1606
28.29636 1.6 3.3 5000040.1606
21.41664 1.54 3.3 5000028.6944
17.592840000000002 1.48 3.3 5000022.3214
12.23748 1.36 3.3 5000013.3958
12.23748 1.28 3.3 5000013.3958
28.29636 1.1 3.3 5000040.1606
17.592840000000002 0.72 3.3 5000022.3214
15.15888 0.6 3.3 5000018.2648
11.29218 0.5 3.3 5000011.8203
11.29218 0.46 3.3 5000011.8203
11.29218 0.44 3.3 5000011.8203
28.29636 -0.2 3.3 5000040.1606
28.29636 -0.88 3.3 5000040.1606
28.29636 -0.92 3.3 5000040.1606
15.15888 -1.9 3.3 5000018.2648
21.41664 -4.02 3.3 5000028.6944
44.33376 -6.06 3.3 5000066.8896
28.29636 -6.12 3.3 5000040.1606
21.41664 -6.18 3.3 5000028.6944
28.29636 4.68 3.28 5000040.1606
28.29636 4.66 3.28 5000040.1606
7.645308 3.96 3.28 5000005.74218
7.645308 3.86 3.28 5000005.74218
7.645308 3.62 3.28 5000005.74218
7.645308 3.6 3.28 5000005.74218
7.645308 3.58 3.28 5000005.74218
7.8540779999999994 3.12 3.28 5000006.09013
7.8540779999999994 3.1 3.28 5000006.09013
21.41664 2.84 3.28 5000028.6944
21.41664 2.82 3.28 5000028.6944
17.592840000000002 2.78 3.28 5000022.3214
17.592840000000002 2.76 3.28 5000022.3214
17.592840000000002 2.22 3.28 5000022.3214
12.23748 2.06 3.28 5000013.3958
124.19999999999999 1.82 3.28 5000200.0
44.33376 1.74 3.28 5000066.8896
124.19999999999999 1.68 3.28 5000200.0
28.29636 1.6 3.28 5000040.1606
21.41664 1.54 3.28 5000028.6944
12.23748 1.36 3.28 5000013.3958
28.29636 1.1 3.28 5000040.1606
17.592840000000002 0.7 3.28 5000022.3214
15.15888 0.6 3.28 5000018.2648
15.15888 0.58 3.28 5000018.2648
11.29218 0.46 3.28 5000011.8203
11.29218 0.44 3.28 5000011.8203
17.592840000000002 0.38 3.28 5000022.3214
13.4736 -0.1 3.28 5000015.456
28.29636 -0.2 3.28 5000040.1606
28.29636 -0.88 3.28 5000040.1606
28.29636 -0.92 3.28 5000040.1606
15.15888 -1.9 3.28 5000018.2648
21.41664 -4.02 3.28 5000028.6944
28.29636 -4.22 3.28 5000040.1606
28.29636 -4.68 3.28 5000040.1606
21.41664 -4.74 3.28 5000028.6944
28.29636 -6.12 3.28 5000040.1606
21.41664 -6.18 3.28 5000028.6944
28.29636 4.76 3.26 5000040.1606
28.29636 4.74 3.26 5000040.1606
7.645308 3.96 3.26 5000005.74218
7.645308 3.86 3.26 5000005.74218
7.645308 3.64 3.26 5000005.74218
7.645308 3.62 3.26 5000005.74218
7.8540779999999994 3.12 3.26 5000006.09013
7.8540779999999994 3.1 3.26 5000006.09013
21.41664 2.82 3.26 5000028.6944
21.41664 2.8 3.26 5000028.6944
17.592840000000002 2.76 3.26 5000022.3214
11.29218 2.5 3.26 5000011.8203
44.33376 2.4 3.26 5000066.8896
44.33376 2.38 3.26 5000066.8896
12.23748 2.02 3.26 5000013.3958
124.19999999999999 1.82 3.26 5000200.0
124.19999999999999 1.68 3.26 5000200.0
12.23748 1.38 3.26 5000013.3958
12.23748 1.36 3.26 5000013.3958
28.29636 0.92 3.26 5000040.1606
21.41664 0.76 3.26 5000028.6944
17.592840000000002 0.7 3.26 5000022.3214
15.15888 0.58 3.26 5000018.2648
11.29218 0.46 3.26 5000011.8203
11.29218 0.44 3.26 5000011.8203
13.4736 -0.1 3.26 5000015.456
28.29636 -0.2 3.26 5000040.1606
28.29636 -0.22 3.26 5000040.1606
28.29636 -0.88 3.26 5000040.1606
15.15888 -1.9 3.26 5000018.2648
28.29636 -3.96 3.26 5000040.1606
21.41664 -4.02 3.26 5000028.6944
28.29636 -4.2 3.26 5000040.1606
28.29636 -4.22 3.26 5000040.1606
21.41664 -4.26 3.26 5000028.6944
28.29636 -4.68 3.26 5000040.1606
44.33376 -6.06 3.26 5000066.8896
28.29636 -6.12 3.26 5000040.1606
21.41664 -6.18 3.26 5000028.6944
28.29636 5.12 3.24 5000040.1606
28.29636 5.1 3.24 5000040.1606
28.29636 4.82 3.24 5000040.1606
28.29636 4.8 3.24 5000040.1606
7.645308 3.98 3.24 5000005.74218
7.645308 3.96 3.24 5000005.74218
7.645308 3.86 3.24 5000005.74218
7.645308 3.66 3.24 5000005.74218
7.8540779999999994 3.12 3.24 5000006.09013
7.8540779999999994 3.1 3.24 5000006.09013
21.41664 2.8 3.24 5000028.6944
17.592840000000002 2.74 3.24 5000022.3214
44.33376 2.36 3.24 5000066.8896
44.33376 2.34 3.24 5000066.8896
12.23748 2.02 3.24 5000013.3958
12.23748 1.38 3.24 5000013.3958
12.23748 1.36 3.24 5000013.3958
28.29636 1.06 3.24 5000040.1606
28.29636 0.92 3.24 5000040.1606
28.29636 0.82 3.24 5000040.1606
15.15888 0.58 3.24 5000018.2648
11.29218 0.46 3.24 5000011.8203
11.29218 0.44 3.24 5000011.8203
28.29636 -0.2 3.24 5000040.1606
28.29636 -0.22 3.24 5000040.1606
21.41664 -0.28 3.24 5000028.6944
28.29636 -0.88 3.24 5000040.1606
28.29636 -0.92 3.24 5000040.1606
13.4736 -1.1 3.24 5000015.456
15.15888 -1.9 3.24 5000018.2648
28.29636 -3.96 3.24 5000040.1606
28.29636 -3.98 3.24 5000040.1606
21.41664 -4.02 3.24 5000028.6944
28.29636 -4.2 3.24 5000040.1606
21.41664 -4.26 3.24 5000028.6944
28.29636 -6.12 3.24 5000040.1606
21.41664 -6.18 3.24 5000028.6944
28.29636 5.12 3.22 5000040.1606
28.29636 5.1 3.22 5000040.1606
28.29636 4.9 3.22 5000040.1606
28.29636 4.88 3.22 5000040.1606
28.29636 4.86 3.22 5000040.1606
7.645308 3.96 3.22 5000005.74218
7.645308 3.86 3.22 5000005.74218
7.645308 3.68 3.22 5000005.74218
8.089788 3.2 3.22 5000006.48298
7.8540779999999994 3.12 3.22 5000006.09013
7.8540779999999994 3.1 3.22 5000006.09013
21.41664 2.78 3.22 5000028.6944
44.33376 2.34 3.22 5000066.8896
124.19999999999999 1.68 3.22 5000200.0
13.4736 1.12 3.22 5000015.456
44.33376 0.9 3.22 5000066.8896
11.29218 0.46 3.22 5000011.8203
11.29218 0.44 3.22 5000011.8203
11.29218 0.14 3.22 5000011.8203
28.29636 -0.2 3.22 5000040.1606
21.41664 -0.28 3.22 5000028.6944
28.29636 -0.88 3.22 5000040.1606
15.15888 -1.9 3.22 5000018.2648
28.29636 -3.98 3.22 5000040.1606
21.41664 -4.02 3.22 5000028.6944
28.29636 -4.18 3.22 5000040.1606
28.29636 -4.2 3.22 5000040.1606
21.41664 -4.26 3.22 5000028.6944
44.33376 -6.06 3.22 5000066.8896
28.29636 -6.12 3.22 5000040.1606
21.41664 -6.18 3.22 5000028.6944
21.41664 -6.2 3.22 5000028.6944
28.29636 5.14 3.2 5000040.1606
28.29636 4.96 3.2 5000040.1606
7.645308 3.96 3.2 5000005.74218
7.645308 3.86 3.2 5000005.74218
7.645308 3.7 3.2 5000005.74218
7.645308 3.68 3.2 5000005.74218
7.645308 3.34 3.2 5000005.74218
7.8540779999999994 3.12 3.2 5000006.09013
7.8540779999999994 3.1 3.2 5000006.09013
124.19999999999999 2.94 3.2 5000200.0
21.41664 2.76 3.2 5000028.6944
44.33376 2.34 3.2 5000066.8896
44.33376 2.3 3.2 5000066.8896
28.29636 2.28 3.2 5000040.1606
124.19999999999999 1.68 3.2 5000200.0
44.33376 1.62 3.2 5000066.8896
44.33376 1.58 3.2 5000066.8896
21.41664 1.28 3.2 5000028.6944
17.592840000000002 1.22 3.2 5000022.3214
124.19999999999999 1.02 3.2 5000200.0
28.29636 0.7 3.2 5000040.1606
11.29218 0.46 3.2 5000011.8203
11.29218 0.44 3.2 5000011.8203
28.29636 -0.2 3.2 5000040.1606
21.41664 -0.28 3.2 5000028.6944
28.29636 -0.88 3.2 5000040.1606
28.29636 -0.92 3.2 5000040.1606
15.15888 -1.9 3.2 5000018.2648
13.4736 -1.98 3.2 5000015.456
28.29636 -3.98 3.2 5000040.1606
28.29636 -4.02 3.2 5000040.1606
28.29636 -4.18 3.2 5000040.1606
28.29636 -4.2 3.2 5000040.1606
21.41664 -4.26 3.2 5000028.6944
44.33376 -6.06 3.2 5000066.8896
28.29636 -6.12 3.2 5000040.1606
21.41664 -6.18 3.2 5000028.6944
28.29636 5.14 3.18 5000040.1606
28.29636 5.02 3.18 5000040.1606
28.29636 5.0 3.18 5000040.1606
7.645308 3.96 3.18 5000005.74218
7.645308 3.86 3.18 5000005.74218
7.645308 3.7 3.18 5000005.74218
7.645308 3.32 3.18 5000005.74218
7.8540779999999994 3.12 3.18 5000006.09013
7.8540779999999994 3.1 3.18 5000006.09013
7.8540779999999994 3.02 3.18 5000006.09013
7.8540779999999994 3.0 3.18 5000006.09013
124.19999999999999 2.92 3.18 5000200.0
21.41664 2.74 3.18 5000028.6944
12.23748 2.04 3.18 5000013.3958
44.33376 1.62 3.18 5000066.8896
124.19999999999999 1.46 3.18 5000200.0
21.41664 1.28 3.18 5000028.6944
21.41664 1.22 3.18 5000028.6944
44.33376 0.86 3.18 5000066.8896
44.33376 0.76 3.18 5000066.8896
28.29636 0.7 3.18 5000040.1606
11.29218 0.48 3.18 5000011.8203
11.29218 0.46 3.18 5000011.8203
11.29218 0.12 3.18 5000011.8203
28.29636 -0.2 3.18 5000040.1606
28.29636 -0.22 3.18 5000040.1606
21.41664 -0.28 3.18 5000028.6944
11.29218 -0.6 3.18 5000011.8203
28.29636 -0.88 3.18 5000040.1606
28.29636 -0.92 3.18 5000040.1606
15.15888 -1.9 3.18 5000018.2648
13.4736 -1.98 3.18 5000015.456
28.29636 -3.98 3.18 5000040.1606
28.29636 -4.02 3.18 5000040.1606
28.29636 -4.14 3.18 5000040.1606
28.29636 -4.18 3.18 5000040.1606
28.29636 -4.2 3.18 5000040.1606
21.41664 -4.26 3.18 5000028.6944
28.29636 -6.12 3.18 5000040.1606
21.41664 -6.18 3.18 5000028.6944
28.29636 5.14 3.16 5000040.1606
28.29636 5.06 3.16 5000040.1606
7.645308 3.96 3.16 5000005.74218
7.645308 3.86 3.16 5000005.74218
7.645308 3.72 3.16 5000005.74218
7.645308 3.7 3.16 5000005.74218
7.645308 3.32 3.16 5000005.74218
7.645308 3.3 3.16 5000005.74218
7.8540779999999994 3.12 3.16 5000006.09013
7.8540779999999994 3.1 3.16 5000006.09013
7.8540779999999994 3.02 3.16 5000006.09013
7.8540779999999994 3.0 3.16 5000006.09013
124.19999999999999 2.92 3.16 5000200.0
124.19999999999999 2.9 3.16 5000200.0
21.41664 2.72 3.16 5000028.6944
13.4736 2.54 3.16 5000015.456
12.23748 2.04 3.16 5000013.3958
44.33376 1.62 3.16 5000066.8896
124.19999999999999 1.46 3.16 5000200.0
21.41664 1.32 3.16 5000028.6944
21.41664 1.28 3.16 5000028.6944
21.41664 1.26 3.16 5000028.6944
28.29636 1.08 3.16 5000040.1606
44.33376 0.76 3.16 5000066.8896
15.15888 0.62 3.16 5000018.2648
13.4736 0.56 3.16 5000015.456
11.29218 0.48 3.16 5000011.8203
11.29218 0.14 3.16 5000011.8203
11.29218 0.12 3.16 5000011.8203
124.19999999999999 -0.08 3.16 5000200.0
28.29636 -0.2 3.16 5000040.1606
21.41664 -0.28 3.16 5000028.6944
11.29218 -0.6 3.16 5000011.8203
28.29636 -0.88 3.16 5000040.1606
28.29636 -0.92 3.16 5000040.1606
15.15888 -1.9 3.16 5000018.2648
28.29636 -3.98 3.16 5000040.1606
28.29636 -4.18 3.16 5000040.1606
28.29636 -4.2 3.16 5000040.1606
21.41664 -4.26 3.16 5000028.6944
21.41664 -4.28 3.16 5000028.6944
28.29636 -6.12 3.16 5000040.1606
21.41664 -6.18 3.16 5000028.6944
21.41664 -6.2 3.16 5000028.6944
28.29636 5.16 3.14 5000040.1606
7.645308 3.96 3.14 5000005.74218
7.645308 3.86 3.14 5000005.74218
7.645308 3.72 3.14 5000005.74218
7.645308 3.3 3.14 5000005.74218
7.8540779999999994 3.12 3.14 5000006.09013
7.8540779999999994 3.1 3.14 5000006.09013
7.8540779999999994 3.02 3.14 5000006.09013
7.8540779999999994 3.0 3.14 5000006.09013
124.19999999999999 2.9 3.14 5000200.0
124.19999999999999 2.88 3.14 5000200.0
21.41664 2.72 3.14 5000028.6944
21.41664 2.7 3.14 5000028.6944
124.19999999999999 2.3 3.14 5000200.0
44.33376 2.24 3.14 5000066.8896
124.19999999999999 1.62 3.14 5000200.0
124.19999999999999 1.58 3.14 5000200.0
44.33376 1.52 3.14 5000066.8896
21.41664 1.28 3.14 5000028.6944
21.41664 1.26 3.14 5000028.6944
28.29636 1.08 3.14 5000040.1606
44.33376 0.72 3.14 5000066.8896
13.4736 0.56 3.14 5000015.456
12.23748 0.54 3.14 5000013.3958
11.29218 0.5 3.14 5000011.8203
11.29218 0.48 3.14 5000011.8203
11.29218 0.44 3.14 5000011.8203
124.19999999999999 -0.08 3.14 5000200.0
44.33376 -0.14 3.14 5000066.8896
28.29636 -0.2 3.14 5000040.1606
11.29218 -0.6 3.14 5000011.8203
10.54584 -0.66 3.14 5000010.5764
21.41664 -0.88 3.14 5000028.6944
21.41664 -0.92 3.14 5000028.6944
15.15888 -1.9 3.14 5000018.2648
13.4736 -1.98 3.14 5000015.456
44.33376 -4.14 3.14 5000066.8896
28.29636 -4.2 3.14 5000040.1606
44.33376 -6.06 3.14 5000066.8896
28.29636 -6.12 3.14 5000040.1606
21.41664 -6.18 3.14 5000028.6944
21.41664 -6.2 3.14 5000028.6944
28.29636 5.22 3.12 5000040.1606
28.29636 5.2 3.12 5000040.1606
28.29636 5.18 3.12 5000040.1606
28.29636 4.86 3.12 5000040.1606
7.645308 3.96 3.12 5000005.74218
7.645308 3.86 3.12 5000005.74218
7.645308 3.72 3.12 5000005.74218
7.645308 3.3 3.12 5000005.74218
8.358006 3.24 3.12 5000006.93001
7.8540779999999994 3.12 3.12 5000006.09013
7.8540779999999994 3.02 3.12 5000006.09013
7.8540779999999994 3.0 3.12 5000006.09013
124.19999999999999 2.88 3.12 5000200.0
21.41664 2.7 3.12 5000028.6944
21.41664 2.68 3.12 5000028.6944
28.29636 2.42 3.12 5000040.1606
28.29636 2.18 3.12 5000040.1606
124.19999999999999 1.58 3.12 5000200.0
21.41664 1.26 3.12 5000028.6944
13.4736 0.56 3.12 5000015.456
12.23748 0.54 3.12 5000013.3958
11.29218 0.5 3.12 5000011.8203
11.29218 0.48 3.12 5000011.8203
13.4736 0.44 3.12 5000015.456
13.4736 0.42 3.12 5000015.456
124.19999999999999 -0.08 3.12 5000200.0
44.33376 -0.14 3.12 5000066.8896
28.29636 -0.2 3.12 5000040.1606
11.29218 -0.6 3.12 5000011.8203
21.41664 -0.88 3.12 5000028.6944
21.41664 -0.92 3.12 5000028.6944
15.15888 -1.9 3.12 5000018.2648
13.4736 -1.98 3.12 5000015.456
44.33376 -4.14 3.12 5000066.8896
28.29636 -6.12 3.12 5000040.1606
21.41664 -6.2 3.12 5000028.6944
28.29636 5.3 3.1 5000040.1606
28.29636 5.28 3.1 5000040.1606
7.645308 3.96 3.1 5000005.74218
7.645308 3.86 3.1 5000005.74218
7.645308 3.72 3.1 5000005.74218
7.645308 3.3 3.1 5000005.74218
8.358006 3.22 3.1 5000006.93001
7.8540779999999994 3.12 3.1 5000006.09013
7.8540779999999994 3.1 3.1 5000006.09013
7.8540779999999994 3.02 3.1 5000006.09013
7.8540779999999994 3.0 3.1 5000006.09013
124.19999999999999 2.86 3.1 5000200.0
124.19999999999999 2.84 3.1 5000200.0
21.41664 2.68 3.1 5000028.6944
21.41664 2.66 3.1 5000028.6944
28.29636 2.42 3.1 5000040.1606
28.29636 2.18 3.1 5000040.1606
124.19999999999999 1.58 3.1 5000200.0
124.19999999999999 1.4 3.1 5000200.0
21.41664 1.32 3.1 5000028.6944
21.41664 1.26 3.1 5000028.6944
17.592840000000002 0.66 3.1 5000022.3214
11.29218 0.48 3.1 5000011.8203
13.4736 0.44 3.1 5000015.456
44.33376 -0.14 3.1 5000066.8896
28.29636 -0.2 3.1 5000040.1606
11.29218 -0.6 3.1 5000011.8203
21.41664 -0.92 3.1 5000028.6944
15.15888 -1.9 3.1 5000018.2648
13.4736 -1.98 3.1 5000015.456
28.29636 -6.12 3.1 5000040.1606
21.41664 -6.18 3.1 5000028.6944
21.41664 -6.2 3.1 5000028.6944
28.29636 5.36 3.08 5000040.1606
28.29636 5.34 3.08 5000040.1606
28.29636 5.32 3.08 5000040.1606
28.29636 5.3 3.08 5000040.1606
7.645308 3.96 3.08 5000005.74218
7.645308 3.86 3.08 5000005.74218
7.645308 3.72 3.08 5000005.74218
7.645308 3.3 3.08 5000005.74218
7.645308 3.28 3.08 5000005.74218
8.358006 3.22 3.08 5000006.93001
7.8540779999999994 3.12 3.08 5000006.09013
7.8540779999999994 3.02 3.08 5000006.09013
7.8540779999999994 3.0 3.08 5000006.09013
124.19999999999999 2.84 3.08 5000200.0
21.41664 2.7 3.08 5000028.6944
21.41664 2.66 3.08 5000028.6944
28.29636 2.4 3.08 5000040.1606
124.19999999999999 1.4 3.08 5000200.0
28.29636 1.34 3.08 5000040.1606
17.592840000000002 0.66 3.08 5000022.3214
44.33376 -0.14 3.08 5000066.8896
28.29636 -0.2 3.08 5000040.1606
21.41664 -0.9 3.08 5000028.6944
21.41664 -0.92 3.08 5000028.6944
15.15888 -1.9 3.08 5000018.2648
13.4736 -1.98 3.08 5000015.456
44.33376 -6.06 3.08 5000066.8896
28.29636 -6.12 3.08 5000040.1606
28.29636 -6.14 3.08 5000040.1606
21.41664 -6.18 3.08 5000028.6944
21.41664 -6.2 3.08 5000028.6944
28.29636 5.44 3.06 5000040.1606
28.29636 5.42 3.06 5000040.1606
28.29636 5.38 3.06 5000040.1606
7.645308 3.96 3.06 5000005.74218
7.645308 3.86 3.06 5000005.74218
7.645308 3.72 3.06 5000005.74218
7.645308 3.3 3.06 5000005.74218
7.645308 3.28 3.06 5000005.74218
8.358006 3.22 3.06 5000006.93001
7.8540779999999994 3.12 3.06 5000006.09013
7.8540779999999994 3.02 3.06 5000006.09013
7.8540779999999994 3.0 3.06 5000006.09013
124.19999999999999 2.82 3.06 5000200.0
21.41664 2.68 3.06 5000028.6944
21.41664 2.64 3.06 5000028.6944
7.8540779999999994 2.6 3.06 5000006.09013
7.8540779999999994 2.58 3.06 5000006.09013
21.41664 1.26 3.06 5000028.6944
17.592840000000002 0.64 3.06 5000022.3214
17.592840000000002 0.54 3.06 5000022.3214
11.29218 0.46 3.06 5000011.8203
11.29218 0.28 3.06 5000011.8203
44.33376 -0.14 3.06 5000066.8896
28.29636 -0.2 3.06 5000040.1606
11.29218 -0.6 3.06 5000011.8203
11.29218 -0.62 3.06 5000011.8203
10.54584 -0.68 3.06 5000010.5764
124.19999999999999 -0.74 3.06 5000200.0
28.29636 -0.9 3.06 5000040.1606
28.29636 -0.92 3.06 5000040.1606
15.15888 -1.9 3.06 5000018.2648
13.4736 -1.98 3.06 5000015.456
28.29636 -6.12 3.06 5000040.1606
21.41664 -6.2 3.06 5000028.6944
28.29636 5.6 3.04 5000040.1606
28.29636 5.48 3.04 5000040.1606
28.29636 5.46 3.04 5000040.1606
28.29636 5.44 3.04 5000040.1606
7.645308 3.96 3.04 5000005.74218
7.645308 3.86 3.04 5000005.74218
7.645308 3.72 3.04 5000005.74218
7.8540779999999994 3.52 3.04 5000006.09013
7.8540779999999994 3.5 3.04 5000006.09013
7.645308 3.28 3.04 5000005.74218
8.358006 3.2 3.04 5000006.93001
7.8540779999999994 3.12 3.04 5000006.09013
7.8540779999999994 3.02 3.04 5000006.09013
7.8540779999999994 3.0 3.04 5000006.09013
124.19999999999999 2.8 3.04 5000200.0
7.8540779999999994 2.62 3.04 5000006.09013
7.8540779999999994 2.6 3.04 5000006.09013
7.8540779999999994 2.5 3.04 5000006.09013
21.41664 1.26 3.04 5000028.6944
44.33376 0.9 3.04 5000066.8896
28.29636 0.74 3.04 5000040.1606
17.592840000000002 0.64 3.04 5000022.3214
11.29218 0.48 3.04 5000011.8203
11.29218 0.46 3.04 5000011.8203
12.23748 0.34 3.04 5000013.3958
12.23748 0.1 3.04 5000013.3958
28.29636 -0.2 3.04 5000040.1606
21.41664 -0.3 3.04 5000028.6944
11.29218 -0.62 3.04 5000011.8203
124.19999999999999 -0.74 3.04 5000200.0
28.29636 -0.9 3.04 5000040.1606
28.29636 -0.92 3.04 5000040.1606
15.15888 -1.9 3.04 5000018.2648
13.4736 -1.98 3.04 5000015.456
28.29636 -6.12 3.04 5000040.1606
21.41664 -6.2 3.04 5000028.6944
28.29636 5.58 3.02 5000040.1606
7.645308 3.96 3.02 5000005.74218
7.645308 3.86 3.02 5000005.74218
7.645308 3.72 3.02 5000005.74218
7.8540779999999994 3.54 3.02 5000006.09013
7.8540779999999994 3.52 3.02 5000006.09013
7.645308 3.28 3.02 5000005.74218
8.358006 3.2 3.02 5000006.93001
7.8540779999999994 3.12 3.02 5000006.09013
7.8540779999999994 3.1 3.02 5000006.09013
7.8540779999999994 3.02 3.02 5000006.09013
7.8540779999999994 3.0 3.02 5000006.09013
124.19999999999999 2.78 3.02 5000200.0
7.8540779999999994 2.64 3.02 5000006.09013
7.8540779999999994 2.6 3.02 5000006.09013
7.8540779999999994 2.5 3.02 5000006.09013
7.8540779999999994 2.48 3.02 5000006.09013
12.23748 2.02 3.02 5000013.3958
124.19999999999999 0.98 3.02 5000200.0
44.33376 0.9 3.02 5000066.8896
44.33376 0.72 3.02 5000066.8896
11.29218 0.5 3.02 5000011.8203
11.29218 0.48 3.02 5000011.8203
11.29218 0.04 3.02 5000011.8203
44.33376 -0.14 3.02 5000066.8896
21.41664 -0.3 3.02 5000028.6944
124.19999999999999 -0.74 3.02 5000200.0
28.29636 -0.9 3.02 5000040.1606
15.15888 -1.9 3.02 5000018.2648
13.4736 -1.98 3.02 5000015.456
44.33376 -6.06 3.02 5000066.8896
28.29636 -6.12 3.02 5000040.1606
28.29636 -6.14 3.02 5000040.1606
21.41664 -6.2 3.02 5000028.6944
28.29636 5.64 3.0 5000040.1606
28.29636 5.62 3.0 5000040.1606
7.645308 3.96 3.0 5000005.74218
7.645308 3.86 3.0 5000005.74218
7.645308 3.72 3.0 5000005.74218
7.8540779999999994 3.56 3.0 5000006.09013
7.8540779999999994 3.54 3.0 5000006.09013
7.645308 3.28 3.0 5000005.74218
8.358006 3.2 3.0 5000006.93001
7.8540779999999994 3.12 3.0 5000006.09013
7.8540779999999994 3.02 3.0 5000006.09013
7.8540779999999994 3.0 3.0 5000006.09013
7.8540779999999994 2.66 3.0 5000006.09013
7.8540779999999994 2.64 3.0 5000006.09013
7.8540779999999994 2.48 3.0 5000006.09013
12.23748 2.02 3.0 5000013.3958
12.23748 1.5 3.0 5000013.3958
44.33376 1.06 3.0 5000066.8896
44.33376 0.74 3.0 5000066.8896
17.592840000000002 0.66 3.0 5000022.3214
11.29218 0.52 3.0 5000011.8203
11.29218 0.5 3.0 5000011.8203
28.29636 -0.24 3.0 5000040.1606
11.29218 -0.4 3.0 5000011.8203
11.29218 -0.62 3.0 5000011.8203
124.19999999999999 -0.74 3.0 5000200.0
28.29636 -0.9 3.0 5000040.1606
28.29636 -0.94 3.0 5000040.1606
15.15888 -1.9 3.0 5000018.2648
13.4736 -1.98 3.0 5000015.456
28.29636 -6.12 3.0 5000040.1606
28.29636 -6.14 3.0 5000040.1606
21.41664 -6.2 3.0 5000028.6944
28.29636 5.74 2.98 5000040.1606
28.29636 5.72 2.98 5000040.1606
28.29636 5.7 2.98 5000040.1606
7.645308 3.96 2.98 5000005.74218
7.645308 3.86 2.98 5000005.74218
7.8540779999999994 3.56 2.98 5000006.09013
7.8540779999999994 3.54 2.98 5000006.09013
8.358006 3.2 2.98 5000006.93001
7.8540779999999994 3.12 2.98 5000006.09013
7.8540779999999994 3.02 2.98 5000006.09013
7.8540779999999994 3.0 2.98 5000006.09013
7.8540779999999994 2.66 2.98 5000006.09013
8.358006 2.58 2.98 5000006.93001
8.358006 2.56 2.98 5000006.93001
7.8540779999999994 2.48 2.98 5000006.09013
7.8540779999999994 2.46 2.98 5000006.09013
28.29636 2.34 2.98 5000040.1606
12.23748 2.0 2.98 5000013.3958
12.23748 1.52 2.98 5000013.3958
11.29218 1.32 2.98 5000011.8203
21.41664 0.7 2.98 5000028.6944
17.592840000000002 0.66 2.98 5000022.3214
11.29218 0.52 2.98 5000011.8203
9.941628000000001 0.42 2.98 5000009.56938
28.29636 -0.24 2.98 5000040.1606
11.29218 -0.62 2.98 5000011.8203
124.19999999999999 -0.74 2.98 5000200.0
28.29636 -0.9 2.98 5000040.1606
28.29636 -0.94 2.98 5000040.1606
15.15888 -1.9 2.98 5000018.2648
13.4736 -1.98 2.98 5000015.456
28.29636 -6.14 2.98 5000040.1606
21.41664 -6.2 2.98 5000028.6944
28.29636 5.84 2.96 5000040.1606
28.29636 5.82 2.96 5000040.1606
21.41664 4.18 2.96 5000028.6944
7.645308 3.96 2.96 5000005.74218
7.645308 3.94 2.96 5000005.74218
7.645308 3.86 2.96 5000005.74218
8.358006 3.2 2.96 5000006.93001
7.8540779999999994 3.12 2.96 5000006.09013
7.8540779999999994 3.02 2.96 5000006.09013
7.8540779999999994 3.0 2.96 5000006.09013
7.141176 2.92 2.96 5000004.90196
7.8540779999999994 2.72 2.96 5000006.09013
7.8540779999999994 2.68 2.96 5000006.09013
8.358006 2.58 2.96 5000006.93001
7.8540779999999994 2.48 2.96 5000006.09013
7.8540779999999994 2.46 2.96 5000006.09013
12.23748 2.0 2.96 5000013.3958
12.23748 1.54 2.96 5000013.3958
12.23748 1.32 2.96 5000013.3958
124.19999999999999 1.16 2.96 5000200.0
44.33376 1.04 2.96 5000066.8896
11.29218 0.54 2.96 5000011.8203
11.29218 0.52 2.96 5000011.8203
9.941628000000001 0.4 2.96 5000009.56938
28.29636 -0.9 2.96 5000040.1606
28.29636 -0.94 2.96 5000040.1606
15.15888 -1.9 2.96 5000018.2648
13.4736 -1.98 2.96 5000015.456
44.33376 -6.06 2.96 5000066.8896
28.29636 -6.14 2.96 5000040.1606
21.41664 -6.2 2.96 5000028.6944
28.29636 5.88 2.94 5000040.1606
28.29636 5.86 2.94 5000040.1606
28.29636 5.84 2.94 5000040.1606
21.41664 4.18 2.94 5000028.6944
8.089788 3.94 2.94 5000006.48298
7.645308 3.86 2.94 5000005.74218
8.358006 3.2 2.94 5000006.93001
7.8540779999999994 3.12 2.94 5000006.09013
7.8540779999999994 3.0 2.94 5000006.09013
7.141176 2.92 2.94 5000004.90196
7.141176 2.9 2.94 5000004.90196
7.8540779999999994 2.68 2.94 5000006.09013
28.29636 2.54 2.94 5000040.1606
7.8540779999999994 2.48 2.94 5000006.09013
7.8540779999999994 2.46 2.94 5000006.09013
12.23748 2.0 2.94 5000013.3958
13.4736 1.38 2.94 5000015.456
12.23748 1.32 2.94 5000013.3958
10.54584 1.24 2.94 5000010.5764
44.33376 1.04 2.94 5000066.8896
11.29218 0.54 2.94 5000011.8203
11.29218 0.52 2.94 5000011.8203
9.941628000000001 0.4 2.94 5000009.56938
44.33376 -0.2 2.94 5000066.8896
21.41664 -0.9 2.94 5000028.6944
21.41664 -0.94 2.94 5000028.6944
15.15888 -1.9 2.94 5000018.2648
13.4736 -1.98 2.94 5000015.456
28.29636 -6.14 2.94 5000040.1606
21.41664 -6.2 2.94 5000028.6944
17.592840000000002 -6.26 2.94 5000022.3214
28.29636 5.94 2.92 5000040.1606
21.41664 4.18 2.92 5000028.6944
7.645308 3.86 2.92 5000005.74218
8.358006 3.2 2.92 5000006.93001
7.8540779999999994 3.12 2.92 5000006.09013
7.8540779999999994 3.1 2.92 5000006.09013
7.8540779999999994 3.02 2.92 5000006.09013
7.8540779999999994 3.0 2.92 5000006.09013
7.141176 2.9 2.92 5000004.90196
7.141176 2.88 2.92 5000004.90196
28.29636 2.54 2.92 5000040.1606
7.8540779999999994 2.46 2.92 5000006.09013
12.23748 2.0 2.92 5000013.3958
13.4736 1.38 2.92 5000015.456
12.23748 1.32 2.92 5000013.3958
11.29218 0.54 2.92 5000011.8203
44.33376 -0.2 2.92 5000066.8896
21.41664 -0.9 2.92 5000028.6944
21.41664 -0.94 2.92 5000028.6944
15.15888 -1.9 2.92 5000018.2648
13.4736 -1.98 2.92 5000015.456
28.29636 -6.14 2.92 5000040.1606
21.41664 -6.2 2.92 5000028.6944
21.41664 4.18 2.9 5000028.6944
8.089788 3.94 2.9 5000006.48298
7.645308 3.86 2.9 5000005.74218
8.358006 3.2 2.9 5000006.93001
7.8540779999999994 3.12 2.9 5000006.09013
7.8540779999999994 3.0 2.9 5000006.09013
28.29636 2.54 2.9 5000040.1606
7.8540779999999994 2.46 2.9 5000006.09013
7.8540779999999994 2.44 2.9 5000006.09013
15.15888 2.36 2.9 5000018.2648
12.23748 1.52 2.9 5000013.3958
12.23748 1.36 2.9 5000013.3958
12.23748 0.84 2.9 5000013.3958
11.29218 0.54 2.9 5000011.8203
44.33376 -0.2 2.9 5000066.8896
15.15888 -0.42 2.9 5000018.2648
28.29636 -0.68 2.9 5000040.1606
21.41664 -0.9 2.9 5000028.6944
21.41664 -0.92 2.9 5000028.6944
21.41664 -0.94 2.9 5000028.6944
15.15888 -1.9 2.9 5000018.2648
13.4736 -1.98 2.9 5000015.456
28.29636 -6.14 2.9 5000040.1606
21.41664 -6.2 2.9 5000028.6944
21.41664 4.2 2.88 5000028.6944
21.41664 4.18 2.88 5000028.6944
8.089788 3.94 2.88 5000006.48298
7.645308 3.86 2.88 5000005.74218
8.358006 3.2 2.88 5000006.93001
7.8540779999999994 3.12 2.88 5000006.09013
7.8540779999999994 3.0 2.88 5000006.09013
7.8540779999999994 2.82 2.88 5000006.09013
7.8540779999999994 2.8 2.88 5000006.09013
7.8540779999999994 2.46 2.88 5000006.09013
7.8540779999999994 2.44 2.88 5000006.09013
12.23748 1.98 2.88 5000013.3958
12.23748 1.52 2.88 5000013.3958
12.23748 1.36 2.88 5000013.3958
12.23748 1.32 2.88 5000013.3958
28.29636 0.96 2.88 5000040.1606
28.29636 0.92 2.88 5000040.1606
11.29218 0.54 2.88 5000011.8203
28.29636 0.44 2.88 5000040.1606
28.29636 0.34 2.88 5000040.1606
17.592840000000002 0.24 2.88 5000022.3214
17.592840000000002 0.18 2.88 5000022.3214
44.33376 -0.2 2.88 5000066.8896
44.33376 -0.62 2.88 5000066.8896
28.29636 -0.68 2.88 5000040.1606
21.41664 -0.9 2.88 5000028.6944
21.41664 -0.94 2.88 5000028.6944
13.4736 -1.98 2.88 5000015.456
28.29636 -6.14 2.88 5000040.1606
21.41664 -6.2 2.88 5000028.6944
28.29636 4.5 2.86 5000040.1606
21.41664 4.2 2.86 5000028.6944
21.41664 4.18 2.86 5000028.6944
8.089788 3.94 2.86 5000006.48298
7.645308 3.86 2.86 5000005.74218
8.358006 3.2 2.86 5000006.93001
7.8540779999999994 3.12 2.86 5000006.09013
7.8540779999999994 3.0 2.86 5000006.09013
8.358006 2.94 2.86 5000006.93001
7.8540779999999994 2.84 2.86 5000006.09013
7.8540779999999994 2.82 2.86 5000006.09013
7.8540779999999994 2.76 2.86 5000006.09013
7.8540779999999994 2.46 2.86 5000006.09013
7.8540779999999994 2.44 2.86 5000006.09013
12.23748 1.98 2.86 5000013.3958
11.29218 1.32 2.86 5000011.8203
28.29636 0.92 2.86 5000040.1606
11.29218 0.56 2.86 5000011.8203
11.29218 0.54 2.86 5000011.8203
17.592840000000002 0.22 2.86 5000022.3214
44.33376 -0.2 2.86 5000066.8896
13.4736 -0.48 2.86 5000015.456
44.33376 -0.62 2.86 5000066.8896
21.41664 -0.9 2.86 5000028.6944
21.41664 -0.94 2.86 5000028.6944
13.4736 -1.98 2.86 5000015.456
28.29636 -6.14 2.86 5000040.1606
21.41664 -6.2 2.86 5000028.6944
17.592840000000002 -6.26 2.86 5000022.3214
28.29636 4.5 2.84 5000040.1606
21.41664 4.18 2.84 5000028.6944
8.089788 3.94 2.84 5000006.48298
8.089788 3.92 2.84 5000006.48298
7.645308 3.86 2.84 5000005.74218
7.8540779999999994 3.3 2.84 5000006.09013
8.358006 3.2 2.84 5000006.93001
7.8540779999999994 3.12 2.84 5000006.09013
7.8540779999999994 3.0 2.84 5000006.09013
8.665944 2.94 2.84 5000007.44324
7.8540779999999994 2.84 2.84 5000006.09013
7.8540779999999994 2.82 2.84 5000006.09013
7.8540779999999994 2.76 2.84 5000006.09013
7.8540779999999994 2.74 2.84 5000006.09013
7.8540779999999994 2.48 2.84 5000006.09013
7.8540779999999994 2.46 2.84 5000006.09013
7.8540779999999994 2.44 2.84 5000006.09013
12.23748 1.98 2.84 5000013.3958
11.29218 1.32 2.84 5000011.8203
13.4736 1.16 2.84 5000015.456
28.29636 0.94 2.84 5000040.1606
11.29218 0.56 2.84 5000011.8203
11.29218 0.54 2.84 5000011.8203
11.29218 0.5 2.84 5000011.8203
17.592840000000002 0.22 2.84 5000022.3214
44.33376 -0.2 2.84 5000066.8896
21.41664 -0.9 2.84 5000028.6944
21.41664 -0.94 2.84 5000028.6944
15.15888 -1.92 2.84 5000018.2648
13.4736 -1.98 2.84 5000015.456
28.29636 -6.14 2.84 5000040.1606
21.41664 -6.2 2.84 5000028.6944
17.592840000000002 -6.26 2.84 5000022.3214
28.29636 4.5 2.82 5000040.1606
8.089788 3.94 2.82 5000006.48298
7.645308 3.86 2.82 5000005.74218
7.8540779999999994 3.32 2.82 5000006.09013
8.358006 3.2 2.82 5000006.93001
7.8540779999999994 3.12 2.82 5000006.09013
8.089788 3.06 2.82 5000006.48298
7.8540779999999994 3.0 2.82 5000006.09013
7.8540779999999994 2.82 2.82 5000006.09013
7.8540779999999994 2.8 2.82 5000006.09013
7.8540779999999994 2.76 2.82 5000006.09013
7.8540779999999994 2.74 2.82 5000006.09013
7.8540779999999994 2.48 2.82 5000006.09013
7.8540779999999994 2.46 2.82 5000006.09013
15.15888 2.3 2.82 5000018.2648
11.29218 0.58 2.82 5000011.8203
11.29218 0.56 2.82 5000011.8203
15.15888 0.5 2.82 5000018.2648
28.29636 0.34 2.82 5000040.1606
28.29636 0.22 2.82 5000040.1606
13.4736 0.06 2.82 5000015.456
28.29636 -0.22 2.82 5000040.1606
21.41664 -0.94 2.82 5000028.6944
15.15888 -1.92 2.82 5000018.2648
13.4736 -1.98 2.82 5000015.456
28.29636 -6.14 2.82 5000040.1606
21.41664 -6.2 2.82 5000028.6944
28.29636 5.02 2.8 5000040.1606
8.089788 3.94 2.8 5000006.48298
7.645308 3.86 2.8 5000005.74218
8.358006 3.2 2.8 5000006.93001
7.8540779999999994 3.12 2.8 5000006.09013
7.8540779999999994 3.1 2.8 5000006.09013
7.8540779999999994 3.06 2.8 5000006.09013
7.8540779999999994 3.0 2.8 5000006.09013
8.665944 2.92 2.8 5000007.44324
8.665944 2.9 2.8 5000007.44324
7.8540779999999994 2.8 2.8 5000006.09013
7.8540779999999994 2.76 2.8 5000006.09013
7.8540779999999994 2.52 2.8 5000006.09013
7.8540779999999994 2.5 2.8 5000006.09013
7.8540779999999994 2.48 2.8 5000006.09013
7.8540779999999994 2.46 2.8 5000006.09013
11.29218 0.6 2.8 5000011.8203
11.29218 0.58 2.8 5000011.8203
28.29636 0.34 2.8 5000040.1606
28.29636 0.32 2.8 5000040.1606
28.29636 0.2 2.8 5000040.1606
28.29636 0.18 2.8 5000040.1606
13.4736 0.06 2.8 5000015.456
28.29636 -0.22 2.8 5000040.1606
15.15888 -1.92 2.8 5000018.2648
13.4736 -1.98 2.8 5000015.456
28.29636 -6.14 2.8 5000040.1606
21.41664 -6.2 2.8 5000028.6944
28.29636 5.02 2.78 5000040.1606
21.41664 4.2 2.78 5000028.6944
21.41664 4.18 2.78 5000028.6944
7.645308 3.86 2.78 5000005.74218
7.645308 3.6 2.78 5000005.74218
7.8540779999999994 3.12 2.78 5000006.09013
7.8540779999999994 3.1 2.78 5000006.09013
7.8540779999999994 3.0 2.78 5000006.09013
8.665944 2.92 2.78 5000007.44324
8.665944 2.9 2.78 5000007.44324
7.8540779999999994 2.56 2.78 5000006.09013
7.8540779999999994 2.54 2.78 5000006.09013
7.8540779999999994 2.52 2.78 5000006.09013
7.8540779999999994 2.5 2.78 5000006.09013
15.15888 2.26 2.78 5000018.2648
11.29218 0.62 2.78 5000011.8203
11.29218 0.6 2.78 5000011.8203
28.29636 0.48 2.78 5000040.1606
28.29636 0.32 2.78 5000040.1606
28.29636 0.2 2.78 5000040.1606
28.29636 -0.2 2.78 5000040.1606
15.15888 -1.92 2.78 5000018.2648
13.4736 -1.98 2.78 5000015.456
28.29636 -6.14 2.78 5000040.1606
21.41664 -6.2 2.78 5000028.6944
28.29636 5.04 2.76 5000040.1606
28.29636 5.02 2.76 5000040.1606
21.41664 4.2 2.76 5000028.6944
7.645308 3.88 2.76 5000005.74218
7.645308 3.86 2.76 5000005.74218
7.645308 3.64 2.76 5000005.74218
7.645308 3.62 2.76 5000005.74218
7.8540779999999994 3.12 2.76 5000006.09013
7.8540779999999994 3.1 2.76 5000006.09013
7.8540779999999994 3.0 2.76 5000006.09013
9.023147999999999 2.72 2.76 5000008.03858
7.8540779999999994 2.62 2.76 5000006.09013
7.8540779999999994 2.6 2.76 5000006.09013
7.8540779999999994 2.58 2.76 5000006.09013
7.8540779999999994 2.56 2.76 5000006.09013
7.8540779999999994 2.54 2.76 5000006.09013
7.8540779999999994 2.52 2.76 5000006.09013
28.29636 2.42 2.76 5000040.1606
15.15888 2.24 2.76 5000018.2648
15.15888 0.78 2.76 5000018.2648
11.29218 0.62 2.76 5000011.8203
11.29218 0.6 2.76 5000011.8203
28.29636 0.32 2.76 5000040.1606
28.29636 0.22 2.76 5000040.1606
28.29636 -0.2 2.76 5000040.1606
15.15888 -1.92 2.76 5000018.2648
13.4736 -1.98 2.76 5000015.456
28.29636 -6.14 2.76 5000040.1606
21.41664 -6.2 2.76 5000028.6944
28.29636 5.02 2.74 5000040.1606
28.29636 4.5 2.74 5000040.1606
44.33376 4.12 2.74 5000066.8896
7.645308 3.86 2.74 5000005.74218
7.645308 3.66 2.74 5000005.74218
7.8540779999999994 3.12 2.74 5000006.09013
7.8540779999999994 3.1 2.74 5000006.09013
7.8540779999999994 3.06 2.74 5000006.09013
7.8540779999999994 3.0 2.74 5000006.09013
7.8540779999999994 2.64 2.74 5000006.09013
7.8540779999999994 2.62 2.74 5000006.09013
7.8540779999999994 2.6 2.74 5000006.09013
7.8540779999999994 2.58 2.74 5000006.09013
28.29636 2.42 2.74 5000040.1606
15.15888 2.22 2.74 5000018.2648
12.23748 1.32 2.74 5000013.3958
44.33376 0.7 2.74 5000066.8896
11.29218 0.62 2.74 5000011.8203
28.29636 0.48 2.74 5000040.1606
28.29636 0.44 2.74 5000040.1606
28.29636 0.3 2.74 5000040.1606
28.29636 -0.2 2.74 5000040.1606
15.15888 -1.92 2.74 5000018.2648
13.4736 -1.98 2.74 5000015.456
28.29636 -6.14 2.74 5000040.1606
21.41664 -6.2 2.74 5000028.6944
21.41664 5.14 2.72 5000028.6944
28.29636 5.02 2.72 5000040.1606
44.33376 4.1 2.72 5000066.8896
7.645308 3.88 2.72 5000005.74218
7.645308 3.86 2.72 5000005.74218
7.645308 3.68 2.72 5000005.74218
7.645308 3.36 2.72 5000005.74218
7.8540779999999994 3.12 2.72 5000006.09013
7.8540779999999994 3.1 2.72 5000006.09013
7.8540779999999994 3.06 2.72 5000006.09013
7.8540779999999994 3.0 2.72 5000006.09013
7.8540779999999994 2.66 2.72 5000006.09013
7.8540779999999994 2.64 2.72 5000006.09013
7.8540779999999994 2.62 2.72 5000006.09013
7.8540779999999994 2.6 2.72 5000006.09013
15.15888 2.26 2.72 5000018.2648
12.23748 1.94 2.72 5000013.3958
13.4736 1.38 2.72 5000015.456
12.23748 1.32 2.72 5000013.3958
12.23748 1.3 2.72 5000013.3958
44.33376 0.7 2.72 5000066.8896
11.29218 0.62 2.72 5000011.8203
28.29636 0.48 2.72 5000040.1606
28.29636 0.28 2.72 5000040.1606
28.29636 -0.2 2.72 5000040.1606
15.15888 -1.92 2.72 5000018.2648
13.4736 -1.98 2.72 5000015.456
28.29636 -6.14 2.72 5000040.1606
21.41664 -6.2 2.72 5000028.6944
28.29636 5.4 2.7 5000040.1606
28.29636 5.04 2.7 5000040.1606
28.29636 5.02 2.7 5000040.1606
7.645308 3.88 2.7 5000005.74218
7.645308 3.86 2.7 5000005.74218
7.645308 3.7 2.7 5000005.74218
7.645308 3.34 2.7 5000005.74218
7.8540779999999994 3.12 2.7 5000006.09013
7.8540779999999994 3.1 2.7 5000006.09013
7.8540779999999994 3.06 2.7 5000006.09013
7.8540779999999994 3.0 2.7 5000006.09013
9.442464 2.94 2.7 5000008.73744
8.089788 2.7 2.7 5000006.48298
8.089788 2.68 2.7 5000006.48298
12.23748 1.96 2.7 5000013.3958
12.23748 1.94 2.7 5000013.3958
12.23748 1.5 2.7 5000013.3958
15.15888 1.44 2.7 5000018.2648
13.4736 1.38 2.7 5000015.456
12.23748 1.32 2.7 5000013.3958
12.23748 1.3 2.7 5000013.3958
11.29218 0.64 2.7 5000011.8203
28.29636 0.5 2.7 5000040.1606
124.19999999999999 0.42 2.7 5000200.0
28.29636 0.28 2.7 5000040.1606
28.29636 -0.2 2.7 5000040.1606
15.15888 -1.92 2.7 5000018.2648
13.4736 -1.98 2.7 5000015.456
28.29636 -6.14 2.7 5000040.1606
21.41664 -6.2 2.7 5000028.6944
28.29636 5.44 2.68 5000040.1606
28.29636 5.42 2.68 5000040.1606
7.645308 3.88 2.68 5000005.74218
7.645308 3.86 2.68 5000005.74218
7.645308 3.7 2.68 5000005.74218
7.645308 3.34 2.68 5000005.74218
7.645308 3.32 2.68 5000005.74218
7.8540779999999994 3.12 2.68 5000006.09013
7.8540779999999994 3.1 2.68 5000006.09013
7.8540779999999994 3.0 2.68 5000006.09013
9.442464 2.94 2.68 5000008.73744
8.089788 2.72 2.68 5000006.48298
8.089788 2.7 2.68 5000006.48298
12.23748 1.96 2.68 5000013.3958
13.4736 1.38 2.68 5000015.456
11.29218 1.32 2.68 5000011.8203
11.29218 1.3 2.68 5000011.8203
11.29218 0.64 2.68 5000011.8203
44.33376 0.54 2.68 5000066.8896
28.29636 0.34 2.68 5000040.1606
28.29636 0.12 2.68 5000040.1606
28.29636 -0.2 2.68 5000040.1606
15.15888 -1.92 2.68 5000018.2648
13.4736 -1.98 2.68 5000015.456
28.29636 -6.14 2.68 5000040.1606
28.29636 5.5 2.66 5000040.1606
28.29636 5.48 2.66 5000040.1606
7.645308 3.88 2.66 5000005.74218
7.645308 3.86 2.66 5000005.74218
7.645308 3.72 2.66 5000005.74218
7.645308 3.32 2.66 5000005.74218
7.8540779999999994 3.12 2.66 5000006.09013
7.8540779999999994 3.1 2.66 5000006.09013
7.8540779999999994 3.06 2.66 5000006.09013
7.8540779999999994 3.0 2.66 5000006.09013
8.089788 2.74 2.66 5000006.48298
8.089788 2.72 2.66 5000006.48298
12.23748 1.96 2.66 5000013.3958
15.15888 1.44 2.66 5000018.2648
11.29218 1.32 2.66 5000011.8203
11.29218 1.3 2.66 5000011.8203
11.29218 0.66 2.66 5000011.8203
11.29218 0.64 2.66 5000011.8203
28.29636 0.12 2.66 5000040.1606
28.29636 0.1 2.66 5000040.1606
28.29636 -0.2 2.66 5000040.1606
15.15888 -1.92 2.66 5000018.2648
28.29636 -6.14 2.66 5000040.1606
28.29636 5.5 2.64 5000040.1606
28.29636 5.14 2.64 5000040.1606
7.645308 3.88 2.64 5000005.74218
7.645308 3.86 2.64 5000005.74218
7.645308 3.72 2.64 5000005.74218
7.645308 3.32 2.64 5000005.74218
7.645308 3.3 2.64 5000005.74218
7.8540779999999994 3.12 2.64 5000006.09013
7.8540779999999994 3.1 2.64 5000006.09013
7.8540779999999994 3.0 2.64 5000006.09013
8.089788 2.76 2.64 5000006.48298
8.089788 2.74 2.64 5000006.48298
8.089788 2.72 2.64 5000006.48298
13.4736 2.02 2.64 5000015.456
12.23748 1.96 2.64 5000013.3958
15.15888 1.44 2.64 5000018.2648
11.29218 1.3 2.64 5000011.8203
11.29218 0.66 2.64 5000011.8203
28.29636 0.3 2.64 5000040.1606
28.29636 0.1 2.64 5000040.1606
28.29636 -0.2 2.64 5000040.1606
21.41664 -0.28 2.64 5000028.6944
21.41664 -0.94 2.64 5000028.6944
15.15888 -1.92 2.64 5000018.2648
13.4736 -1.98 2.64 5000015.456
28.29636 5.5 2.62 5000040.1606
28.29636 5.14 2.62 5000040.1606
7.645308 3.88 2.62 5000005.74218
7.645308 3.86 2.62 5000005.74218
7.645308 3.72 2.62 5000005.74218
7.645308 3.32 2.62 5000005.74218
7.645308 3.3 2.62 5000005.74218
8.665944 3.24 2.62 5000007.44324
8.665944 3.22 2.62 5000007.44324
7.8540779999999994 3.12 2.62 5000006.09013
7.8540779999999994 3.1 2.62 5000006.09013
7.8540779999999994 3.06 2.62 5000006.09013
7.8540779999999994 3.0 2.62 5000006.09013
8.089788 2.76 2.62 5000006.48298
8.089788 2.74 2.62 5000006.48298
13.4736 2.02 2.62 5000015.456
12.23748 1.98 2.62 5000013.3958
12.23748 1.96 2.62 5000013.3958
15.15888 1.44 2.62 5000018.2648
11.29218 1.3 2.62 5000011.8203
11.29218 0.68 2.62 5000011.8203
11.29218 0.66 2.62 5000011.8203
28.29636 0.48 2.62 5000040.1606
28.29636 0.22 2.62 5000040.1606
28.29636 -0.2 2.62 5000040.1606
21.41664 -0.28 2.62 5000028.6944
21.41664 -0.94 2.62 5000028.6944
15.15888 -1.92 2.62 5000018.2648
28.29636 5.5 2.6 5000040.1606
28.29636 5.3 2.6 5000040.1606
7.645308 3.88 2.6 5000005.74218
7.645308 3.86 2.6 5000005.74218
7.645308 3.72 2.6 5000005.74218
7.645308 3.3 2.6 5000005.74218
8.358006 3.2 2.6 5000006.93001
7.8540779999999994 3.12 2.6 5000006.09013
7.8540779999999994 3.1 2.6 5000006.09013
7.8540779999999994 3.06 2.6 5000006.09013
7.8540779999999994 3.0 2.6 5000006.09013
13.4736 2.02 2.6 5000015.456
12.23748 1.98 2.6 5000013.3958
12.23748 1.96 2.6 5000013.3958
11.29218 0.68 2.6 5000011.8203
44.33376 0.52 2.6 5000066.8896
28.29636 0.46 2.6 5000040.1606
28.29636 -0.2 2.6 5000040.1606
21.41664 -0.28 2.6 5000028.6944
17.592840000000002 -0.36 2.6 5000022.3214
21.41664 -0.9 2.6 5000028.6944
21.41664 -0.94 2.6 5000028.6944
15.15888 -1.92 2.6 5000018.2648
28.29636 -2.62 2.6 5000040.1606
28.29636 5.52 2.58 5000040.1606
28.29636 5.5 2.58 5000040.1606
28.29636 5.3 2.58 5000040.1606
7.645308 3.88 2.58 5000005.74218
7.645308 3.86 2.58 5000005.74218
7.645308 3.72 2.58 5000005.74218
7.645308 3.3 2.58 5000005.74218
8.358006 3.22 2.58 5000006.93001
7.8540779999999994 3.12 2.58 5000006.09013
7.8540779999999994 3.1 2.58 5000006.09013
7.8540779999999994 3.0 2.58 5000006.09013
7.8540779999999994 2.6 2.58 5000006.09013
7.8540779999999994 2.58 2.58 5000006.09013
12.23748 1.96 2.58 5000013.3958
13.4736 1.28 2.58 5000015.456
44.33376 0.52 2.58 5000066.8896
28.29636 0.46 2.58 5000040.1606
28.29636 0.44 2.58 5000040.1606
28.29636 0.3 2.58 5000040.1606
28.29636 0.16 2.58 5000040.1606
28.29636 -0.2 2.58 5000040.1606
28.29636 -0.36 2.58 5000040.1606
21.41664 -0.9 2.58 5000028.6944
21.41664 -0.94 2.58 5000028.6944
15.15888 -1.92 2.58 5000018.2648
28.29636 -2.6 2.58 5000040.1606
28.29636 -6.14 2.58 5000040.1606
28.29636 5.5 2.56 5000040.1606
28.29636 5.3 2.56 5000040.1606
7.645308 3.88 2.56 5000005.74218
7.645308 3.86 2.56 5000005.74218
7.645308 3.72 2.56 5000005.74218
28.29636 3.44 2.56 5000040.1606
7.645308 3.3 2.56 5000005.74218
7.645308 3.28 2.56 5000005.74218
8.358006 3.22 2.56 5000006.93001
7.8540779999999994 3.12 2.56 5000006.09013
7.8540779999999994 3.1 2.56 5000006.09013
7.8540779999999994 3.06 2.56 5000006.09013
7.8540779999999994 3.0 2.56 5000006.09013
7.8540779999999994 2.62 2.56 5000006.09013
8.089788 2.56 2.56 5000006.48298
7.8540779999999994 2.5 2.56 5000006.09013
44.33376 0.52 2.56 5000066.8896
44.33376 0.5 2.56 5000066.8896
28.29636 0.44 2.56 5000040.1606
28.29636 0.16 2.56 5000040.1606
28.29636 -0.2 2.56 5000040.1606
28.29636 -0.38 2.56 5000040.1606
124.19999999999999 -0.74 2.56 5000200.0
15.15888 -1.92 2.56 5000018.2648
28.29636 -2.6 2.56 5000040.1606
28.29636 -6.14 2.56 5000040.1606
28.29636 5.52 2.54 5000040.1606
28.29636 5.5 2.54 5000040.1606
28.29636 5.3 2.54 5000040.1606
7.645308 3.88 2.54 5000005.74218
7.645308 3.86 2.54 5000005.74218
7.645308 3.72 2.54 5000005.74218
7.8540779999999994 3.54 2.54 5000006.09013
7.8540779999999994 3.52 2.54 5000006.09013
7.645308 3.3 2.54 5000005.74218
7.645308 3.28 2.54 5000005.74218
8.358006 3.22 2.54 5000006.93001
8.358006 3.2 2.54 5000006.93001
7.8540779999999994 3.12 2.54 5000006.09013
7.8540779999999994 3.1 2.54 5000006.09013
7.8540779999999994 3.06 2.54 5000006.09013
7.8540779999999994 3.0 2.54 5000006.09013
7.8540779999999994 2.64 2.54 5000006.09013
7.8540779999999994 2.48 2.54 5000006.09013
12.23748 1.5 2.54 5000013.3958
11.29218 0.72 2.54 5000011.8203
44.33376 0.52 2.54 5000066.8896
44.33376 0.5 2.54 5000066.8896
28.29636 0.28 2.54 5000040.1606
13.4736 0.1 2.54 5000015.456
28.29636 -0.2 2.54 5000040.1606
44.33376 -0.28 2.54 5000066.8896
28.29636 -0.36 2.54 5000040.1606
15.15888 -1.92 2.54 5000018.2648
13.4736 -2.0 2.54 5000015.456
28.29636 -6.14 2.54 5000040.1606
28.29636 5.52 2.52 5000040.1606
28.29636 5.5 2.52 5000040.1606
28.29636 5.3 2.52 5000040.1606
7.645308 3.88 2.52 5000005.74218
7.645308 3.86 2.52 5000005.74218
7.645308 3.72 2.52 5000005.74218
7.8540779999999994 3.56 2.52 5000006.09013
7.8540779999999994 3.54 2.52 5000006.09013
7.8540779999999994 3.52 2.52 5000006.09013
7.645308 3.28 2.52 5000005.74218
8.358006 3.2 2.52 5000006.93001
7.8540779999999994 3.12 2.52 5000006.09013
7.8540779999999994 3.1 2.52 5000006.09013
8.089788 3.06 2.52 5000006.48298
7.8540779999999994 3.0 2.52 5000006.09013
7.8540779999999994 2.64 2.52 5000006.09013
8.358006 2.58 2.52 5000006.93001
7.8540779999999994 2.48 2.52 5000006.09013
7.8540779999999994 2.46 2.52 5000006.09013
11.29218 0.72 2.52 5000011.8203
28.29636 0.28 2.52 5000040.1606
21.41664 0.22 2.52 5000028.6944
28.29636 -0.2 2.52 5000040.1606
44.33376 -0.28 2.52 5000066.8896
8.665944 -0.9 2.52 5000007.44324
15.15888 -1.92 2.52 5000018.2648
13.4736 -2.0 2.52 5000015.456
21.41664 -4.76 2.52 5000028.6944
28.29636 -6.14 2.52 5000040.1606
28.29636 5.52 2.5 5000040.1606
28.29636 5.5 2.5 5000040.1606
28.29636 5.3 2.5 5000040.1606
7.645308 3.88 2.5 5000005.74218
7.645308 3.86 2.5 5000005.74218
7.8540779999999994 3.56 2.5 5000006.09013
7.8540779999999994 3.54 2.5 5000006.09013
7.645308 3.28 2.5 5000005.74218
8.358006 3.2 2.5 5000006.93001
7.8540779999999994 3.12 2.5 5000006.09013
7.8540779999999994 3.1 2.5 5000006.09013
8.089788 3.06 2.5 5000006.48298
7.8540779999999994 3.0 2.5 5000006.09013
7.8540779999999994 2.66 2.5 5000006.09013
8.358006 2.58 2.5 5000006.93001
7.8540779999999994 2.48 2.5 5000006.09013
7.8540779999999994 2.46 2.5 5000006.09013
11.29218 1.32 2.5 5000011.8203
11.29218 1.3 2.5 5000011.8203
28.29636 0.36 2.5 5000040.1606
28.29636 0.28 2.5 5000040.1606
28.29636 -0.2 2.5 5000040.1606
21.41664 -0.9 2.5 5000028.6944
21.41664 -0.94 2.5 5000028.6944
15.15888 -1.92 2.5 5000018.2648
13.4736 -2.0 2.5 5000015.456
28.29636 -4.7 2.5 5000040.1606
21.41664 -4.76 2.5 5000028.6944
28.29636 5.52 2.48 5000040.1606
28.29636 5.5 2.48 5000040.1606
28.29636 5.3 2.48 5000040.1606
7.645308 3.88 2.48 5000005.74218
7.645308 3.86 2.48 5000005.74218
7.8540779999999994 3.56 2.48 5000006.09013
8.358006 3.2 2.48 5000006.93001
7.8540779999999994 3.12 2.48 5000006.09013
7.8540779999999994 3.1 2.48 5000006.09013
8.089788 3.06 2.48 5000006.48298
7.8540779999999994 3.0 2.48 5000006.09013
7.8540779999999994 2.66 2.48 5000006.09013
8.358006 2.58 2.48 5000006.93001
7.8540779999999994 2.48 2.48 5000006.09013
7.8540779999999994 2.46 2.48 5000006.09013
7.459097999999999 2.34 2.48 5000005.43183
11.29218 1.32 2.48 5000011.8203
11.29218 1.3 2.48 5000011.8203
11.29218 1.28 2.48 5000011.8203
11.29218 0.7 2.48 5000011.8203
