VERSION .7
FIELDS x y z rgb
SIZE 4 4 4 4
TYPE F F F F
COUNT 1 1 1 1
WIDTH 1634
HEIGHT 1
VIEWPOINT 0 0 0 1 0 0 0
POINTS 1634
DATA ascii
11.29218 1.38 2.24 11.8203
28.29636 0.92 2.24 40.1606
28.29636 0.78 2.24 40.1606
28.29636 0.6 2.24 40.1606
28.29636 0.12 2.24 40.1606
28.29636 0.08 2.24 40.1606
28.29636 0.06 2.24 40.1606
15.15888 -0.5 2.24 18.2648
21.41664 -0.56 2.24 28.6944
21.41664 -0.6 2.24 28.6944
15.15888 -1.62 2.24 18.2648
21.41664 5.9 2.22 28.6944
7.2919860000000005 4.98 2.22 5.15331
7.2919860000000005 4.96 2.22 5.15331
21.41664 4.9 2.22 28.6944
7.2919860000000005 4.7 2.22 5.15331
7.2919860000000005 4.68 2.22 5.15331
7.645308 4.56 2.22 5.74218
7.8540779999999994 4.54 2.22 6.09013
7.8540779999999994 4.5 2.22 6.09013
7.2919860000000005 4.44 2.22 5.15331
7.2919860000000005 4.42 2.22 5.15331
7.2919860000000005 4.34 2.22 5.15331
7.2919860000000005 4.08 2.22 5.15331
7.2919860000000005 4.06 2.22 5.15331
7.2919860000000005 3.96 2.22 5.15331
7.2919860000000005 3.94 2.22 5.15331
7.459097999999999 3.32 2.22 5.43183
7.459097999999999 3.3 2.22 5.43183
11.29218 1.7 2.22 11.8203
12.23748 1.4 2.22 13.3958
28.29636 1.26 2.22 40.1606
28.29636 1.24 2.22 40.1606
44.33376 0.98 2.22 66.8896
44.33376 0.58 2.22 66.8896
28.29636 0.52 2.22 40.1606
28.29636 0.12 2.22 40.1606
28.29636 0.08 2.22 40.1606
28.29636 -0.32 2.22 40.1606
44.33376 -0.5 2.22 66.8896
21.41664 -0.56 2.22 28.6944
21.41664 -0.6 2.22 28.6944
15.15888 -1.62 2.22 18.2648
21.41664 5.86 2.2 28.6944
21.41664 5.54 2.2 28.6944
21.41664 5.14 2.2 28.6944
21.41664 5.12 2.2 28.6944
7.2919860000000005 4.98 2.2 5.15331
7.2919860000000005 4.96 2.2 5.15331
21.41664 4.9 2.2 28.6944
7.2919860000000005 4.68 2.2 5.15331
7.2919860000000005 4.62 2.2 5.15331
7.645308 4.6 2.2 5.74218
7.8540779999999994 4.52 2.2 6.09013
7.8540779999999994 4.5 2.2 6.09013
7.2919860000000005 4.44 2.2 5.15331
7.2919860000000005 4.42 2.2 5.15331
7.2919860000000005 4.36 2.2 5.15331
7.2919860000000005 4.34 2.2 5.15331
7.2919860000000005 4.08 2.2 5.15331
7.2919860000000005 4.06 2.2 5.15331
7.2919860000000005 3.96 2.2 5.15331
7.2919860000000005 3.94 2.2 5.15331
7.459097999999999 3.34 2.2 5.43183
7.459097999999999 3.32 2.2 5.43183
7.459097999999999 3.3 2.2 5.43183
11.29218 1.7 2.2 11.8203
11.29218 1.68 2.2 11.8203
12.23748 1.4 2.2 13.3958
44.33376 0.58 2.2 66.8896
28.29636 0.52 2.2 40.1606
124.19999999999999 0.32 2.2 200.0
28.29636 0.08 2.2 40.1606
28.29636 -0.32 2.2 40.1606
44.33376 -0.5 2.2 66.8896
21.41664 -0.56 2.2 28.6944
21.41664 -0.6 2.2 28.6944
15.15888 -1.62 2.2 18.2648
28.29636 -6.02 2.2 40.1606
21.41664 5.86 2.18 28.6944
21.41664 5.84 2.18 28.6944
21.41664 5.54 2.18 28.6944
7.2919860000000005 4.98 2.18 5.15331
7.2919860000000005 4.96 2.18 5.15331
21.41664 4.9 2.18 28.6944
7.2919860000000005 4.68 2.18 5.15331
7.2919860000000005 4.62 2.18 5.15331
7.8540779999999994 4.58 2.18 6.09013
7.8540779999999994 4.56 2.18 6.09013
7.8540779999999994 4.54 2.18 6.09013
7.8540779999999994 4.52 2.18 6.09013
7.2919860000000005 4.44 2.18 5.15331
7.2919860000000005 4.42 2.18 5.15331
7.2919860000000005 4.38 2.18 5.15331
7.2919860000000005 4.36 2.18 5.15331
7.2919860000000005 4.08 2.18 5.15331
7.2919860000000005 4.06 2.18 5.15331
7.2919860000000005 3.96 2.18 5.15331
7.2919860000000005 3.94 2.18 5.15331
7.459097999999999 3.36 2.18 5.43183
7.459097999999999 3.34 2.18 5.43183
7.459097999999999 3.32 2.18 5.43183
7.459097999999999 3.3 2.18 5.43183
11.29218 1.68 2.18 11.8203
11.29218 1.42 2.18 11.8203
124.19999999999999 0.36 2.18 200.0
28.29636 0.12 2.18 40.1606
10.54584 -0.26 2.18 10.5764
28.29636 -0.32 2.18 40.1606
44.33376 -0.5 2.18 66.8896
21.41664 -0.56 2.18 28.6944
21.41664 -0.6 2.18 28.6944
15.15888 -1.62 2.18 18.2648
28.29636 -6.02 2.18 40.1606
21.41664 5.84 2.16 28.6944
21.41664 5.54 2.16 28.6944
28.29636 5.48 2.16 40.1606
21.41664 5.12 2.16 28.6944
7.2919860000000005 4.98 2.16 5.15331
7.2919860000000005 4.96 2.16 5.15331
21.41664 4.9 2.16 28.6944
7.8540779999999994 4.56 2.16 6.09013
7.8540779999999994 4.54 2.16 6.09013
7.2919860000000005 4.38 2.16 5.15331
7.2919860000000005 4.08 2.16 5.15331
7.2919860000000005 4.06 2.16 5.15331
7.2919860000000005 4.0 2.16 5.15331
7.2919860000000005 3.96 2.16 5.15331
7.2919860000000005 3.94 2.16 5.15331
7.459097999999999 3.4 2.16 5.43183
7.459097999999999 3.38 2.16 5.43183
7.459097999999999 3.36 2.16 5.43183
7.459097999999999 3.34 2.16 5.43183
21.41664 2.34 2.16 28.6944
11.29218 2.14 2.16 11.8203
11.29218 1.68 2.16 11.8203
44.33376 0.58 2.16 66.8896
124.19999999999999 0.36 2.16 200.0
44.33376 0.3 2.16 66.8896
44.33376 0.26 2.16 66.8896
44.33376 0.24 2.16 66.8896
21.41664 0.12 2.16 28.6944
28.29636 -0.32 2.16 40.1606
44.33376 -0.5 2.16 66.8896
21.41664 -0.56 2.16 28.6944
21.41664 -0.6 2.16 28.6944
15.15888 -1.62 2.16 18.2648
21.41664 5.84 2.14 28.6944
21.41664 5.54 2.14 28.6944
21.41664 5.12 2.14 28.6944
7.2919860000000005 4.98 2.14 5.15331
7.2919860000000005 4.96 2.14 5.15331
21.41664 4.9 2.14 28.6944
7.2919860000000005 4.08 2.14 5.15331
7.2919860000000005 4.06 2.14 5.15331
7.2919860000000005 4.0 2.14 5.15331
7.2919860000000005 3.96 2.14 5.15331
7.459097999999999 3.44 2.14 5.43183
7.459097999999999 3.42 2.14 5.43183
7.459097999999999 3.4 2.14 5.43183
7.459097999999999 3.38 2.14 5.43183
21.41664 2.38 2.14 28.6944
21.41664 2.34 2.14 28.6944
11.29218 2.14 2.14 11.8203
11.29218 2.12 2.14 11.8203
11.29218 1.68 2.14 11.8203
15.15888 0.88 2.14 18.2648
44.33376 0.24 2.14 66.8896
44.33376 0.22 2.14 66.8896
28.29636 -0.32 2.14 40.1606
44.33376 -0.5 2.14 66.8896
21.41664 -0.56 2.14 28.6944
21.41664 -0.6 2.14 28.6944
15.15888 -1.62 2.14 18.2648
21.41664 5.84 2.12 28.6944
21.41664 5.74 2.12 28.6944
21.41664 5.54 2.12 28.6944
21.41664 5.14 2.12 28.6944
21.41664 5.12 2.12 28.6944
7.2919860000000005 4.98 2.12 5.15331
7.2919860000000005 4.96 2.12 5.15331
21.41664 4.9 2.12 28.6944
7.2919860000000005 4.08 2.12 5.15331
7.2919860000000005 4.06 2.12 5.15331
7.2919860000000005 4.0 2.12 5.15331
7.2919860000000005 3.96 2.12 5.15331
7.459097999999999 3.5 2.12 5.43183
7.459097999999999 3.48 2.12 5.43183
7.459097999999999 3.46 2.12 5.43183
7.459097999999999 3.44 2.12 5.43183
7.459097999999999 3.42 2.12 5.43183
21.41664 2.38 2.12 28.6944
17.592840000000002 2.3 2.12 22.3214
11.29218 2.12 2.12 11.8203
28.29636 1.04 2.12 40.1606
15.15888 0.86 2.12 18.2648
44.33376 0.78 2.12 66.8896
44.33376 0.76 2.12 66.8896
44.33376 0.24 2.12 66.8896
44.33376 0.22 2.12 66.8896
28.29636 -0.32 2.12 40.1606
44.33376 -0.5 2.12 66.8896
21.41664 -0.56 2.12 28.6944
21.41664 -0.6 2.12 28.6944
15.15888 -1.62 2.12 18.2648
21.41664 5.84 2.1 28.6944
21.41664 5.74 2.1 28.6944
21.41664 5.54 2.1 28.6944
28.29636 5.48 2.1 40.1606
21.41664 5.14 2.1 28.6944
21.41664 5.12 2.1 28.6944
7.2919860000000005 4.98 2.1 5.15331
7.2919860000000005 4.96 2.1 5.15331
21.41664 4.9 2.1 28.6944
8.665944 4.44 2.1 7.44324
8.665944 4.42 2.1 7.44324
7.2919860000000005 4.08 2.1 5.15331
7.2919860000000005 4.06 2.1 5.15331
7.2919860000000005 4.0 2.1 5.15331
7.2919860000000005 3.96 2.1 5.15331
7.459097999999999 3.54 2.1 5.43183
7.459097999999999 3.52 2.1 5.43183
7.459097999999999 3.5 2.1 5.43183
7.459097999999999 3.48 2.1 5.43183
7.459097999999999 3.46 2.1 5.43183
13.4736 2.08 2.1 15.456
11.29218 1.72 2.1 11.8203
11.29218 1.7 2.1 11.8203
21.41664 0.98 2.1 28.6944
17.592840000000002 0.86 2.1 22.3214
44.33376 0.76 2.1 66.8896
44.33376 0.22 2.1 66.8896
44.33376 0.16 2.1 66.8896
28.29636 -0.32 2.1 40.1606
44.33376 -0.5 2.1 66.8896
28.29636 -0.56 2.1 40.1606
28.29636 -0.6 2.1 40.1606
15.15888 -1.62 2.1 18.2648
21.41664 5.84 2.08 28.6944
21.41664 5.74 2.08 28.6944
21.41664 5.54 2.08 28.6944
21.41664 5.14 2.08 28.6944
21.41664 5.12 2.08 28.6944
7.2919860000000005 4.98 2.08 5.15331
7.2919860000000005 4.96 2.08 5.15331
21.41664 4.9 2.08 28.6944
7.2919860000000005 4.08 2.08 5.15331
7.2919860000000005 4.06 2.08 5.15331
7.2919860000000005 4.0 2.08 5.15331
7.2919860000000005 3.96 2.08 5.15331
7.459097999999999 3.58 2.08 5.43183
7.459097999999999 3.56 2.08 5.43183
7.459097999999999 3.54 2.08 5.43183
7.459097999999999 3.52 2.08 5.43183
21.41664 2.66 2.08 28.6944
15.15888 2.04 2.08 18.2648
11.29218 1.9 2.08 11.8203
11.29218 1.74 2.08 11.8203
11.29218 1.44 2.08 11.8203
21.41664 0.98 2.08 28.6944
44.33376 0.82 2.08 66.8896
28.29636 -0.32 2.08 40.1606
44.33376 -0.5 2.08 66.8896
28.29636 -0.56 2.08 40.1606
28.29636 -0.6 2.08 40.1606
15.15888 -1.62 2.08 18.2648
21.41664 5.84 2.06 28.6944
21.41664 5.74 2.06 28.6944
21.41664 5.54 2.06 28.6944
21.41664 5.12 2.06 28.6944
7.2919860000000005 4.98 2.06 5.15331
7.2919860000000005 4.96 2.06 5.15331
21.41664 4.9 2.06 28.6944
28.29636 4.84 2.06 40.1606
7.2919860000000005 4.08 2.06 5.15331
7.2919860000000005 4.06 2.06 5.15331
7.2919860000000005 4.0 2.06 5.15331
7.2919860000000005 3.96 2.06 5.15331
7.459097999999999 3.6 2.06 5.43183
7.459097999999999 3.58 2.06 5.43183
7.459097999999999 3.56 2.06 5.43183
21.41664 2.22 2.06 28.6944
11.29218 1.9 2.06 11.8203
11.29218 1.46 2.06 11.8203
11.29218 1.44 2.06 11.8203
17.592840000000002 0.9 2.06 22.3214
44.33376 0.82 2.06 66.8896
44.33376 0.14 2.06 66.8896
28.29636 -0.32 2.06 40.1606
44.33376 -0.5 2.06 66.8896
28.29636 -0.58 2.06 40.1606
28.29636 -0.6 2.06 40.1606
15.15888 -1.62 2.06 18.2648
21.41664 5.84 2.04 28.6944
21.41664 5.74 2.04 28.6944
21.41664 5.54 2.04 28.6944
21.41664 5.12 2.04 28.6944
7.2919860000000005 4.98 2.04 5.15331
7.2919860000000005 4.96 2.04 5.15331
21.41664 4.9 2.04 28.6944
7.2919860000000005 4.08 2.04 5.15331
7.2919860000000005 4.06 2.04 5.15331
7.2919860000000005 4.0 2.04 5.15331
7.2919860000000005 3.96 2.04 5.15331
7.459097999999999 3.6 2.04 5.43183
7.459097999999999 3.58 2.04 5.43183
21.41664 2.22 2.04 28.6944
11.29218 1.46 2.04 11.8203
11.29218 1.44 2.04 11.8203
44.33376 0.8 2.04 66.8896
44.33376 0.76 2.04 66.8896
28.29636 -0.32 2.04 40.1606
21.41664 -0.42 2.04 28.6944
44.33376 -0.5 2.04 66.8896
28.29636 -0.58 2.04 40.1606
15.15888 -1.62 2.04 18.2648
21.41664 5.84 2.02 28.6944
21.41664 5.74 2.02 28.6944
21.41664 5.54 2.02 28.6944
21.41664 5.14 2.02 28.6944
21.41664 5.12 2.02 28.6944
7.2919860000000005 4.98 2.02 5.15331
7.2919860000000005 4.96 2.02 5.15331
21.41664 4.9 2.02 28.6944
9.941628000000001 4.56 2.02 9.56938
7.2919860000000005 4.08 2.02 5.15331
7.2919860000000005 4.06 2.02 5.15331
7.2919860000000005 4.0 2.02 5.15331
7.2919860000000005 3.96 2.02 5.15331
7.459097999999999 3.6 2.02 5.43183
7.459097999999999 3.58 2.02 5.43183
11.29218 1.46 2.02 11.8203
28.29636 1.1 2.02 40.1606
28.29636 1.06 2.02 40.1606
44.33376 0.74 2.02 66.8896
17.592840000000002 0.6 2.02 22.3214
44.33376 -0.5 2.02 66.8896
28.29636 -0.58 2.02 40.1606
28.29636 -0.62 2.02 40.1606
15.15888 -1.62 2.02 18.2648
11.29218 -1.74 2.02 11.8203
28.29636 -5.9 2.02 40.1606
21.41664 5.84 2.0 28.6944
21.41664 5.74 2.0 28.6944
21.41664 5.54 2.0 28.6944
21.41664 5.14 2.0 28.6944
21.41664 5.12 2.0 28.6944
7.2919860000000005 4.98 2.0 5.15331
7.2919860000000005 4.96 2.0 5.15331
21.41664 4.9 2.0 28.6944
7.2919860000000005 4.08 2.0 5.15331
7.2919860000000005 4.06 2.0 5.15331
7.2919860000000005 3.96 2.0 5.15331
7.459097999999999 3.6 2.0 5.43183
7.459097999999999 3.58 2.0 5.43183
11.29218 1.84 2.0 11.8203
11.29218 1.8 2.0 11.8203
28.29636 1.1 2.0 40.1606
44.33376 0.86 2.0 66.8896
44.33376 0.84 2.0 66.8896
44.33376 0.74 2.0 66.8896
44.33376 -0.5 2.0 66.8896
28.29636 -0.58 2.0 40.1606
28.29636 -0.62 2.0 40.1606
15.15888 -1.62 2.0 18.2648
28.29636 -5.9 2.0 40.1606
21.41664 5.86 1.98 28.6944
21.41664 5.74 1.98 28.6944
21.41664 5.54 1.98 28.6944
21.41664 5.12 1.98 28.6944
7.2919860000000005 4.98 1.98 5.15331
7.2919860000000005 4.96 1.98 5.15331
21.41664 4.9 1.98 28.6944
7.2919860000000005 4.08 1.98 5.15331
7.2919860000000005 4.06 1.98 5.15331
7.2919860000000005 4.0 1.98 5.15331
7.2919860000000005 3.96 1.98 5.15331
7.459097999999999 3.6 1.98 5.43183
7.459097999999999 3.58 1.98 5.43183
28.29636 2.4 1.98 40.1606
11.29218 1.84 1.98 11.8203
11.29218 1.8 1.98 11.8203
11.29218 1.78 1.98 11.8203
11.29218 1.46 1.98 11.8203
44.33376 0.86 1.98 66.8896
44.33376 0.82 1.98 66.8896
21.41664 0.42 1.98 28.6944
44.33376 0.26 1.98 66.8896
124.19999999999999 -0.44 1.98 200.0
28.29636 -0.58 1.98 40.1606
28.29636 -0.62 1.98 40.1606
15.15888 -1.62 1.98 18.2648
11.29218 -1.74 1.98 11.8203
28.29636 -5.9 1.98 40.1606
21.41664 5.74 1.96 28.6944
21.41664 5.54 1.96 28.6944
21.41664 5.12 1.96 28.6944
7.2919860000000005 4.98 1.96 5.15331
7.2919860000000005 4.96 1.96 5.15331
21.41664 4.9 1.96 28.6944
28.29636 4.84 1.96 40.1606
7.2919860000000005 4.08 1.96 5.15331
7.2919860000000005 4.06 1.96 5.15331
7.2919860000000005 4.0 1.96 5.15331
7.2919860000000005 3.96 1.96 5.15331
7.2919860000000005 3.94 1.96 5.15331
7.459097999999999 3.6 1.96 5.43183
7.459097999999999 3.58 1.96 5.43183
21.41664 3.3 1.96 28.6944
21.41664 2.66 1.96 28.6944
11.29218 1.84 1.96 11.8203
11.29218 1.78 1.96 11.8203
11.29218 1.64 1.96 11.8203
11.29218 1.46 1.96 11.8203
21.41664 1.24 1.96 28.6944
124.19999999999999 0.82 1.96 200.0
44.33376 0.7 1.96 66.8896
44.33376 0.26 1.96 66.8896
11.29218 -1.74 1.96 11.8203
21.41664 5.74 1.94 28.6944
21.41664 5.54 1.94 28.6944
7.2919860000000005 4.98 1.94 5.15331
7.2919860000000005 4.96 1.94 5.15331
21.41664 4.9 1.94 28.6944
7.2919860000000005 4.08 1.94 5.15331
7.2919860000000005 4.06 1.94 5.15331
7.141176 4.0 1.94 4.90196
7.2919860000000005 3.96 1.94 5.15331
7.2919860000000005 3.94 1.94 5.15331
7.459097999999999 3.6 1.94 5.43183
7.459097999999999 3.58 1.94 5.43183
11.29218 1.86 1.94 11.8203
11.29218 1.84 1.94 11.8203
11.29218 1.78 1.94 11.8203
11.29218 1.64 1.94 11.8203
28.29636 1.0 1.94 40.1606
28.29636 0.7 1.94 40.1606
28.29636 -6.02 1.94 40.1606
21.41664 5.74 1.92 28.6944
21.41664 5.54 1.92 28.6944
7.2919860000000005 4.98 1.92 5.15331
7.2919860000000005 4.96 1.92 5.15331
21.41664 4.9 1.92 28.6944
21.41664 4.62 1.92 28.6944
7.2919860000000005 4.42 1.92 5.15331
7.2919860000000005 4.4 1.92 5.15331
7.2919860000000005 4.08 1.92 5.15331
7.2919860000000005 4.06 1.92 5.15331
7.141176 4.0 1.92 4.90196
7.2919860000000005 3.96 1.92 5.15331
7.459097999999999 3.6 1.92 5.43183
7.459097999999999 3.58 1.92 5.43183
15.15888 1.94 1.92 18.2648
11.29218 1.86 1.92 11.8203
11.29218 1.78 1.92 11.8203
28.29636 1.0 1.92 40.1606
124.19999999999999 0.82 1.92 200.0
28.29636 0.74 1.92 40.1606
11.29218 -1.74 1.92 11.8203
21.41664 5.74 1.9 28.6944
21.41664 5.54 1.9 28.6944
21.41664 5.12 1.9 28.6944
7.2919860000000005 4.98 1.9 5.15331
7.2919860000000005 4.96 1.9 5.15331
21.41664 4.9 1.9 28.6944
21.41664 4.58 1.9 28.6944
7.2919860000000005 4.42 1.9 5.15331
7.2919860000000005 4.4 1.9 5.15331
7.2919860000000005 4.08 1.9 5.15331
7.2919860000000005 4.06 1.9 5.15331
7.2919860000000005 4.0 1.9 5.15331
7.459097999999999 3.6 1.9 5.43183
7.459097999999999 3.58 1.9 5.43183
28.29636 3.22 1.9 40.1606
28.29636 2.48 1.9 40.1606
17.592840000000002 2.4 1.9 22.3214
11.29218 1.58 1.9 11.8203
124.19999999999999 0.8 1.9 200.0
44.33376 0.58 1.9 66.8896
15.15888 -1.64 1.9 18.2648
11.29218 -1.74 1.9 11.8203
21.41664 5.74 1.88 28.6944
21.41664 5.54 1.88 28.6944
7.2919860000000005 4.96 1.88 5.15331
21.41664 4.9 1.88 28.6944
8.358006 4.34 1.88 6.93001
8.358006 4.32 1.88 6.93001
7.2919860000000005 4.08 1.88 5.15331
7.2919860000000005 4.06 1.88 5.15331
7.459097999999999 3.94 1.88 5.43183
7.459097999999999 3.92 1.88 5.43183
7.459097999999999 3.6 1.88 5.43183
7.459097999999999 3.58 1.88 5.43183
124.19999999999999 3.32 1.88 200.0
28.29636 3.2 1.88 40.1606
21.41664 2.6 1.88 28.6944
28.29636 2.48 1.88 40.1606
11.29218 1.6 1.88 11.8203
11.29218 1.58 1.88 11.8203
44.33376 0.32 1.88 66.8896
15.15888 -1.64 1.88 18.2648
11.29218 -1.74 1.88 11.8203
21.41664 5.74 1.86 28.6944
21.41664 5.54 1.86 28.6944
7.2919860000000005 4.96 1.86 5.15331
7.2919860000000005 4.94 1.86 5.15331
7.2919860000000005 4.08 1.86 5.15331
7.2919860000000005 4.06 1.86 5.15331
7.459097999999999 3.98 1.86 5.43183
7.459097999999999 3.94 1.86 5.43183
7.459097999999999 3.92 1.86 5.43183
7.459097999999999 3.58 1.86 5.43183
28.29636 3.18 1.86 40.1606
21.41664 2.6 1.86 28.6944
11.29218 1.58 1.86 11.8203
44.33376 0.46 1.86 66.8896
44.33376 0.44 1.86 66.8896
44.33376 0.3 1.86 66.8896
15.15888 -1.64 1.86 18.2648
11.29218 -1.74 1.86 11.8203
21.41664 5.74 1.84 28.6944
21.41664 5.54 1.84 28.6944
7.2919860000000005 4.1 1.84 5.15331
7.2919860000000005 4.08 1.84 5.15331
7.2919860000000005 4.06 1.84 5.15331
7.459097999999999 3.8 1.84 5.43183
7.459097999999999 3.78 1.84 5.43183
7.459097999999999 3.6 1.84 5.43183
7.459097999999999 3.58 1.84 5.43183
28.29636 3.16 1.84 40.1606
21.41664 2.6 1.84 28.6944
11.29218 1.92 1.84 11.8203
44.33376 0.46 1.84 66.8896
15.15888 -1.64 1.84 18.2648
21.41664 5.76 1.82 28.6944
21.41664 5.74 1.82 28.6944
21.41664 5.54 1.82 28.6944
21.41664 5.14 1.82 28.6944
7.2919860000000005 4.12 1.82 5.15331
7.2919860000000005 4.1 1.82 5.15331
7.2919860000000005 4.08 1.82 5.15331
7.2919860000000005 4.06 1.82 5.15331
7.645308 3.94 1.82 5.74218
7.8540779999999994 3.92 1.82 6.09013
7.459097999999999 3.82 1.82 5.43183
7.459097999999999 3.8 1.82 5.43183
7.459097999999999 3.6 1.82 5.43183
7.459097999999999 3.58 1.82 5.43183
21.41664 3.54 1.82 28.6944
28.29636 3.18 1.82 40.1606
28.29636 3.16 1.82 40.1606
21.41664 2.64 1.82 28.6944
21.41664 2.6 1.82 28.6944
21.41664 2.34 1.82 28.6944
21.41664 2.0 1.82 28.6944
11.29218 1.84 1.82 11.8203
11.29218 1.54 1.82 11.8203
44.33376 0.46 1.82 66.8896
28.29636 0.12 1.82 40.1606
15.15888 -1.64 1.82 18.2648
11.29218 -1.74 1.82 11.8203
21.41664 5.74 1.8 28.6944
7.2919860000000005 4.14 1.8 5.15331
7.2919860000000005 4.12 1.8 5.15331
7.2919860000000005 4.1 1.8 5.15331
7.2919860000000005 4.08 1.8 5.15331
21.41664 3.54 1.8 28.6944
28.29636 3.18 1.8 40.1606
28.29636 2.64 1.8 40.1606
11.29218 1.84 1.8 11.8203
11.29218 1.54 1.8 11.8203
44.33376 0.46 1.8 66.8896
15.15888 -1.64 1.8 18.2648
21.41664 5.74 1.78 28.6944
7.645308 4.24 1.78 5.74218
7.645308 4.22 1.78 5.74218
7.459097999999999 4.18 1.78 5.43183
7.2919860000000005 4.16 1.78 5.15331
21.41664 3.54 1.78 28.6944
28.29636 3.18 1.78 40.1606
28.29636 3.16 1.78 40.1606
15.15888 -1.64 1.78 18.2648
28.29636 -5.88 1.78 40.1606
28.29636 3.18 1.76 40.1606
15.15888 -0.02 1.76 18.2648
28.29636 -0.62 1.76 40.1606
15.15888 -1.64 1.76 18.2648
21.41664 4.58 1.74 28.6944
28.29636 3.18 1.74 40.1606
28.29636 2.64 1.74 40.1606
28.29636 2.28 1.74 40.1606
11.29218 1.56 1.74 11.8203
21.41664 1.42 1.74 28.6944
44.33376 0.76 1.74 66.8896
15.15888 -0.02 1.74 18.2648
21.41664 -0.6 1.74 28.6944
21.41664 -0.62 1.74 28.6944
15.15888 -1.64 1.74 18.2648
28.29636 3.18 1.72 40.1606
28.29636 2.28 1.72 40.1606
11.29218 1.62 1.72 11.8203
11.29218 1.56 1.72 11.8203
17.592840000000002 1.06 1.72 22.3214
44.33376 0.2 1.72 66.8896
15.15888 -0.02 1.72 18.2648
15.15888 -0.04 1.72 18.2648
21.41664 -0.08 1.72 28.6944
21.41664 -0.58 1.72 28.6944
21.41664 -0.6 1.72 28.6944
21.41664 -0.62 1.72 28.6944
15.15888 -1.64 1.72 18.2648
21.41664 5.86 1.7 28.6944
28.29636 3.18 1.7 40.1606
11.29218 1.58 1.7 11.8203
11.29218 1.56 1.7 11.8203
44.33376 0.2 1.7 66.8896
21.41664 -0.04 1.7 28.6944
21.41664 -0.06 1.7 28.6944
28.29636 -0.62 1.7 40.1606
15.15888 -1.64 1.7 18.2648
28.29636 -2.32 1.7 40.1606
21.41664 -2.4 1.7 28.6944
21.41664 5.86 1.68 28.6944
7.459097999999999 4.44 1.68 5.43183
7.459097999999999 4.42 1.68 5.43183
28.29636 3.18 1.68 40.1606
21.41664 2.6 1.68 28.6944
28.29636 2.26 1.68 40.1606
11.29218 1.58 1.68 11.8203
124.19999999999999 0.1 1.68 200.0
44.33376 0.04 1.68 66.8896
21.41664 -0.04 1.68 28.6944
21.41664 -0.06 1.68 28.6944
124.19999999999999 -0.44 1.68 200.0
28.29636 -2.32 1.68 40.1606
21.41664 5.86 1.66 28.6944
7.459097999999999 4.44 1.66 5.43183
7.459097999999999 4.42 1.66 5.43183
7.459097999999999 4.2 1.66 5.43183
7.459097999999999 4.18 1.66 5.43183
7.459097999999999 4.16 1.66 5.43183
28.29636 3.18 1.66 40.1606
21.41664 2.6 1.66 28.6944
28.29636 2.26 1.66 40.1606
11.29218 1.58 1.66 11.8203
21.41664 1.46 1.66 28.6944
21.41664 0.7 1.66 28.6944
124.19999999999999 0.14 1.66 200.0
124.19999999999999 0.1 1.66 200.0
44.33376 0.04 1.66 66.8896
21.41664 -0.04 1.66 28.6944
28.29636 -2.32 1.66 40.1606
21.41664 5.86 1.64 28.6944
7.459097999999999 4.44 1.64 5.43183
7.459097999999999 4.42 1.64 5.43183
7.459097999999999 4.2 1.64 5.43183
7.459097999999999 4.18 1.64 5.43183
28.29636 3.18 1.64 40.1606
21.41664 2.6 1.64 28.6944
11.29218 1.92 1.64 11.8203
11.29218 1.7 1.64 11.8203
21.41664 0.7 1.64 28.6944
124.19999999999999 0.1 1.64 200.0
15.15888 -1.64 1.64 18.2648
21.41664 -4.5 1.64 28.6944
28.29636 -5.92 1.64 40.1606
21.41664 5.86 1.62 28.6944
7.459097999999999 4.44 1.62 5.43183
7.459097999999999 4.42 1.62 5.43183
7.459097999999999 4.2 1.62 5.43183
7.459097999999999 4.18 1.62 5.43183
28.29636 3.18 1.62 40.1606
21.41664 2.6 1.62 28.6944
11.29218 1.7 1.62 11.8203
21.41664 -0.62 1.62 28.6944
15.15888 -1.64 1.62 18.2648
28.29636 -4.44 1.62 40.1606
21.41664 -4.5 1.62 28.6944
21.41664 5.86 1.6 28.6944
7.459097999999999 4.44 1.6 5.43183
7.459097999999999 4.42 1.6 5.43183
7.459097999999999 4.2 1.6 5.43183
7.459097999999999 4.18 1.6 5.43183
28.29636 3.6 1.6 40.1606
28.29636 3.18 1.6 40.1606
21.41664 2.6 1.6 28.6944
11.29218 1.7 1.6 11.8203
44.33376 0.98 1.6 66.8896
44.33376 0.96 1.6 66.8896
21.41664 -0.6 1.6 28.6944
21.41664 -0.62 1.6 28.6944
28.29636 -4.44 1.6 40.1606
21.41664 -4.5 1.6 28.6944
21.41664 5.88 1.58 28.6944
21.41664 5.86 1.58 28.6944
7.459097999999999 4.44 1.58 5.43183
7.459097999999999 4.42 1.58 5.43183
7.459097999999999 4.2 1.58 5.43183
7.459097999999999 4.18 1.58 5.43183
28.29636 3.32 1.58 40.1606
28.29636 3.18 1.58 40.1606
28.29636 3.16 1.58 40.1606
21.41664 2.6 1.58 28.6944
21.41664 -0.62 1.58 28.6944
21.41664 -2.4 1.58 28.6944
21.41664 -4.5 1.58 28.6944
21.41664 5.88 1.56 28.6944
21.41664 5.86 1.56 28.6944
7.459097999999999 4.44 1.56 5.43183
7.459097999999999 4.42 1.56 5.43183
7.459097999999999 4.2 1.56 5.43183
7.459097999999999 4.18 1.56 5.43183
28.29636 3.18 1.56 40.1606
28.29636 3.16 1.56 40.1606
21.41664 2.64 1.56 28.6944
21.41664 2.6 1.56 28.6944
28.29636 1.46 1.56 40.1606
28.29636 1.42 1.56 40.1606
21.41664 0.12 1.56 28.6944
21.41664 -0.62 1.56 28.6944
15.15888 -1.64 1.56 18.2648
11.29218 -1.74 1.56 11.8203
28.29636 -2.34 1.56 40.1606
21.41664 -2.4 1.56 28.6944
21.41664 5.86 1.54 28.6944
7.459097999999999 4.44 1.54 5.43183
7.459097999999999 4.42 1.54 5.43183
7.459097999999999 4.2 1.54 5.43183
7.459097999999999 4.18 1.54 5.43183
28.29636 3.18 1.54 40.1606
28.29636 3.16 1.54 40.1606
21.41664 2.6 1.54 28.6944
21.41664 -0.62 1.54 28.6944
15.15888 -1.64 1.54 18.2648
12.23748 -1.74 1.54 13.3958
28.29636 -2.34 1.54 40.1606
21.41664 -2.4 1.54 28.6944
21.41664 -4.5 1.54 28.6944
21.41664 5.86 1.52 28.6944
7.459097999999999 4.44 1.52 5.43183
7.459097999999999 4.42 1.52 5.43183
7.459097999999999 4.2 1.52 5.43183
7.459097999999999 4.18 1.52 5.43183
28.29636 3.18 1.52 40.1606
28.29636 3.16 1.52 40.1606
21.41664 2.6 1.52 28.6944
28.29636 2.36 1.52 40.1606
11.29218 1.66 1.52 11.8203
44.33376 0.48 1.52 66.8896
21.41664 -0.62 1.52 28.6944
12.23748 -1.74 1.52 13.3958
28.29636 -2.34 1.52 40.1606
21.41664 -2.4 1.52 28.6944
21.41664 -3.78 1.52 28.6944
28.29636 -3.98 1.52 40.1606
21.41664 -4.04 1.52 28.6944
21.41664 5.86 1.5 28.6944
7.459097999999999 4.44 1.5 5.43183
7.459097999999999 4.42 1.5 5.43183
7.459097999999999 4.2 1.5 5.43183
7.459097999999999 4.18 1.5 5.43183
28.29636 3.18 1.5 40.1606
28.29636 3.16 1.5 40.1606
21.41664 2.64 1.5 28.6944
21.41664 2.6 1.5 28.6944
21.41664 2.36 1.5 28.6944
44.33376 0.96 1.5 66.8896
44.33376 0.28 1.5 66.8896
21.41664 -0.58 1.5 28.6944
21.41664 -0.62 1.5 28.6944
15.15888 -1.62 1.5 18.2648
15.15888 -1.64 1.5 18.2648
12.23748 -1.72 1.5 13.3958
12.23748 -1.76 1.5 13.3958
28.29636 -3.72 1.5 40.1606
21.41664 -3.78 1.5 28.6944
28.29636 -3.98 1.5 40.1606
21.41664 -4.02 1.5 28.6944
21.41664 -4.04 1.5 28.6944
7.459097999999999 4.44 1.48 5.43183
7.459097999999999 4.42 1.48 5.43183
7.459097999999999 4.2 1.48 5.43183
7.459097999999999 4.18 1.48 5.43183
28.29636 3.16 1.48 40.1606
21.41664 2.64 1.48 28.6944
21.41664 2.6 1.48 28.6944
44.33376 0.28 1.48 66.8896
44.33376 0.26 1.48 66.8896
21.41664 -0.58 1.48 28.6944
21.41664 -0.62 1.48 28.6944
15.15888 -1.62 1.48 18.2648
12.23748 -1.72 1.48 13.3958
12.23748 -1.76 1.48 13.3958
28.29636 -2.34 1.48 40.1606
21.41664 -3.78 1.48 28.6944
28.29636 -3.94 1.48 40.1606
7.459097999999999 4.44 1.46 5.43183
7.459097999999999 4.42 1.46 5.43183
7.459097999999999 4.2 1.46 5.43183
7.459097999999999 4.18 1.46 5.43183
28.29636 3.56 1.46 40.1606
28.29636 3.16 1.46 40.1606
21.41664 2.64 1.46 28.6944
21.41664 2.6 1.46 28.6944
21.41664 2.32 1.46 28.6944
44.33376 0.26 1.46 66.8896
21.41664 0.16 1.46 28.6944
28.29636 -0.58 1.46 40.1606
28.29636 -0.62 1.46 40.1606
28.29636 -3.72 1.46 40.1606
21.41664 -3.78 1.46 28.6944
28.29636 -3.94 1.46 40.1606
7.459097999999999 4.44 1.44 5.43183
7.459097999999999 4.42 1.44 5.43183
7.459097999999999 4.2 1.44 5.43183
7.459097999999999 4.18 1.44 5.43183
28.29636 3.16 1.44 40.1606
21.41664 2.6 1.44 28.6944
21.41664 2.32 1.44 28.6944
28.29636 0.0 1.44 40.1606
28.29636 -0.58 1.44 40.1606
28.29636 -0.62 1.44 40.1606
21.41664 -3.78 1.44 28.6944
44.33376 -3.9 1.44 66.8896
7.459097999999999 4.42 1.42 5.43183
7.459097999999999 4.2 1.42 5.43183
7.459097999999999 4.18 1.42 5.43183
28.29636 3.12 1.42 40.1606
21.41664 2.6 1.42 28.6944
28.29636 2.52 1.42 40.1606
28.29636 2.38 1.42 40.1606
124.19999999999999 0.3 1.42 200.0
28.29636 0.0 1.42 40.1606
28.29636 -0.58 1.42 40.1606
28.29636 -0.62 1.42 40.1606
17.592840000000002 -1.66 1.42 22.3214
21.41664 -3.78 1.42 28.6944
44.33376 -3.9 1.42 66.8896
21.41664 -4.04 1.42 28.6944
7.459097999999999 4.42 1.4 5.43183
7.459097999999999 4.2 1.4 5.43183
7.459097999999999 4.18 1.4 5.43183
28.29636 3.12 1.4 40.1606
28.29636 3.1 1.4 40.1606
21.41664 2.64 1.4 28.6944
21.41664 2.6 1.4 28.6944
28.29636 2.52 1.4 40.1606
28.29636 2.38 1.4 40.1606
21.41664 1.42 1.4 28.6944
21.41664 1.16 1.4 28.6944
44.33376 0.5 1.4 66.8896
124.19999999999999 0.12 1.4 200.0
28.29636 -0.58 1.4 40.1606
28.29636 -0.62 1.4 40.1606
44.33376 -3.9 1.4 66.8896
28.29636 -3.96 1.4 40.1606
21.41664 -4.04 1.4 28.6944
21.41664 4.8 1.38 28.6944
7.459097999999999 4.42 1.38 5.43183
7.459097999999999 4.2 1.38 5.43183
7.459097999999999 4.18 1.38 5.43183
28.29636 3.12 1.38 40.1606
21.41664 2.6 1.38 28.6944
28.29636 2.38 1.38 40.1606
11.29218 1.68 1.38 11.8203
11.29218 1.66 1.38 11.8203
21.41664 1.42 1.38 28.6944
44.33376 0.52 1.38 66.8896
28.29636 -0.34 1.38 40.1606
44.33376 -0.5 1.38 66.8896
28.29636 -0.58 1.38 40.1606
28.29636 -0.62 1.38 40.1606
17.592840000000002 -1.64 1.38 22.3214
44.33376 -3.9 1.38 66.8896
21.41664 -4.04 1.38 28.6944
44.33376 -5.86 1.38 66.8896
7.459097999999999 4.42 1.36 5.43183
7.459097999999999 4.2 1.36 5.43183
7.459097999999999 4.18 1.36 5.43183
28.29636 2.36 1.36 40.1606
44.33376 0.12 1.36 66.8896
28.29636 -0.34 1.36 40.1606
44.33376 -0.5 1.36 66.8896
28.29636 -0.58 1.36 40.1606
28.29636 -0.62 1.36 40.1606
17.592840000000002 -1.62 1.36 22.3214
17.592840000000002 -1.64 1.36 22.3214
28.29636 -4.0 1.36 40.1606
7.459097999999999 4.42 1.34 5.43183
7.459097999999999 4.2 1.34 5.43183
7.459097999999999 4.18 1.34 5.43183
44.33376 0.12 1.34 66.8896
44.33376 -0.5 1.34 66.8896
28.29636 -0.58 1.34 40.1606
28.29636 -0.62 1.34 40.1606
12.23748 -1.86 1.34 13.3958
21.41664 5.8 1.32 28.6944
7.459097999999999 4.42 1.32 5.43183
7.459097999999999 4.2 1.32 5.43183
7.459097999999999 4.18 1.32 5.43183
28.29636 2.66 1.32 40.1606
28.29636 2.46 1.32 40.1606
13.4736 0.68 1.32 15.456
44.33376 0.12 1.32 66.8896
44.33376 -0.5 1.32 66.8896
44.33376 -0.52 1.32 66.8896
28.29636 -0.58 1.32 40.1606
28.29636 -0.62 1.32 40.1606
12.23748 -1.86 1.32 13.3958
44.33376 -5.88 1.32 66.8896
28.29636 -5.96 1.32 40.1606
7.459097999999999 4.18 1.3 5.43183
13.4736 0.68 1.3 15.456
13.4736 0.66 1.3 15.456
44.33376 0.3 1.3 66.8896
44.33376 0.12 1.3 66.8896
11.29218 -0.02 1.3 11.8203
28.29636 -0.34 1.3 40.1606
44.33376 -0.5 1.3 66.8896
44.33376 -0.52 1.3 66.8896
28.29636 -0.58 1.3 40.1606
28.29636 -0.62 1.3 40.1606
21.41664 -1.6 1.3 28.6944
12.23748 -1.88 1.3 13.3958
44.33376 -5.88 1.3 66.8896
7.459097999999999 4.44 1.28 5.43183
7.459097999999999 4.18 1.28 5.43183
28.29636 0.88 1.28 40.1606
21.41664 0.84 1.28 28.6944
21.41664 0.82 1.28 28.6944
21.41664 0.62 1.28 28.6944
15.15888 0.48 1.28 18.2648
44.33376 0.32 1.28 66.8896
44.33376 0.12 1.28 66.8896
11.29218 -0.04 1.28 11.8203
28.29636 -0.34 1.28 40.1606
21.41664 -0.4 1.28 28.6944
44.33376 -0.5 1.28 66.8896
44.33376 -0.52 1.28 66.8896
28.29636 -0.58 1.28 40.1606
28.29636 -0.62 1.28 40.1606
10.54584 -1.74 1.28 10.5764
44.33376 -5.88 1.28 66.8896
28.29636 -5.96 1.28 40.1606
21.41664 4.84 1.26 28.6944
7.459097999999999 4.18 1.26 5.43183
21.41664 2.6 1.26 28.6944
21.41664 0.62 1.26 28.6944
15.15888 0.48 1.26 18.2648
44.33376 0.32 1.26 66.8896
21.41664 0.26 1.26 28.6944
15.15888 -0.24 1.26 18.2648
28.29636 -0.34 1.26 40.1606
44.33376 -0.52 1.26 66.8896
28.29636 -0.58 1.26 40.1606
28.29636 -0.62 1.26 40.1606
10.54584 -1.78 1.26 10.5764
12.23748 -1.9 1.26 13.3958
44.33376 -5.88 1.26 66.8896
21.41664 5.72 1.24 28.6944
21.41664 4.86 1.24 28.6944
21.41664 4.84 1.24 28.6944
7.459097999999999 4.18 1.24 5.43183
21.41664 2.64 1.24 28.6944
21.41664 2.6 1.24 28.6944
11.29218 1.74 1.24 11.8203
21.41664 0.62 1.24 28.6944
21.41664 0.26 1.24 28.6944
124.19999999999999 -0.24 1.24 200.0
21.41664 -0.44 1.24 28.6944
12.23748 -1.92 1.24 13.3958
44.33376 -5.88 1.24 66.8896
28.29636 -6.32 1.24 40.1606
21.41664 5.88 1.22 28.6944
21.41664 4.86 1.22 28.6944
21.41664 4.84 1.22 28.6944
21.41664 4.32 1.22 28.6944
7.459097999999999 4.18 1.22 5.43183
21.41664 2.6 1.22 28.6944
11.29218 1.72 1.22 11.8203
124.19999999999999 0.78 1.22 200.0
124.19999999999999 0.42 1.22 200.0
124.19999999999999 0.08 1.22 200.0
21.41664 -0.44 1.22 28.6944
21.41664 -1.56 1.22 28.6944
17.592840000000002 -1.64 1.22 22.3214
17.592840000000002 -1.72 1.22 22.3214
21.41664 -4.24 1.22 28.6944
21.41664 -4.5 1.22 28.6944
44.33376 -5.88 1.22 66.8896
28.29636 -5.94 1.22 40.1606
21.41664 4.32 1.2 28.6944
7.459097999999999 4.18 1.2 5.43183
21.41664 2.6 1.2 28.6944
124.19999999999999 0.76 1.2 200.0
124.19999999999999 0.58 1.2 200.0
124.19999999999999 0.42 1.2 200.0
28.29636 0.24 1.2 40.1606
124.19999999999999 0.06 1.2 200.0
124.19999999999999 -0.1 1.2 200.0
124.19999999999999 -0.26 1.2 200.0
124.19999999999999 -0.28 1.2 200.0
21.41664 -0.44 1.2 28.6944
21.41664 -1.54 1.2 28.6944
17.592840000000002 -1.6 1.2 22.3214
12.23748 -1.94 1.2 13.3958
28.29636 -4.2 1.2 40.1606
21.41664 -4.24 1.2 28.6944
21.41664 -4.26 1.2 28.6944
28.29636 -4.4 1.2 40.1606
28.29636 -4.42 1.2 40.1606
28.29636 -4.44 1.2 40.1606
21.41664 -4.48 1.2 28.6944
21.41664 5.84 1.18 28.6944
21.41664 4.9 1.18 28.6944
7.459097999999999 4.18 1.18 5.43183
21.41664 2.64 1.18 28.6944
21.41664 2.36 1.18 28.6944
28.29636 0.22 1.18 40.1606
124.19999999999999 0.12 1.18 200.0
124.19999999999999 -0.28 1.18 200.0
28.29636 -1.46 1.18 40.1606
21.41664 -1.54 1.18 28.6944
17.592840000000002 -1.76 1.18 22.3214
28.29636 -4.2 1.18 40.1606
21.41664 -4.24 1.18 28.6944
28.29636 -4.4 1.18 40.1606
21.41664 5.84 1.16 28.6944
21.41664 4.9 1.16 28.6944
21.41664 4.46 1.16 28.6944
7.459097999999999 4.18 1.16 5.43183
28.29636 0.4 1.16 40.1606
44.33376 0.3 1.16 66.8896
28.29636 0.22 1.16 40.1606
28.29636 -0.36 1.16 40.1606
21.41664 -0.46 1.16 28.6944
28.29636 -0.58 1.16 40.1606
28.29636 -0.62 1.16 40.1606
28.29636 -1.46 1.16 40.1606
28.29636 -4.2 1.16 40.1606
21.41664 5.84 1.14 28.6944
21.41664 4.8 1.14 28.6944
21.41664 4.46 1.14 28.6944
21.41664 4.34 1.14 28.6944
7.459097999999999 4.18 1.14 5.43183
21.41664 2.6 1.14 28.6944
11.29218 1.72 1.14 11.8203
21.41664 0.88 1.14 28.6944
44.33376 0.44 1.14 66.8896
28.29636 0.36 1.14 40.1606
44.33376 0.3 1.14 66.8896
28.29636 0.22 1.14 40.1606
11.29218 -0.04 1.14 11.8203
28.29636 -0.36 1.14 40.1606
44.33376 -0.52 1.14 66.8896
28.29636 -0.58 1.14 40.1606
28.29636 -0.62 1.14 40.1606
21.41664 -1.52 1.14 28.6944
10.54584 -1.66 1.14 10.5764
11.29218 -1.76 1.14 11.8203
12.23748 -1.98 1.14 13.3958
44.33376 -4.36 1.14 66.8896
21.41664 5.84 1.12 28.6944
21.41664 4.9 1.12 28.6944
21.41664 4.82 1.12 28.6944
21.41664 4.34 1.12 28.6944
7.459097999999999 4.18 1.12 5.43183
21.41664 4.12 1.12 28.6944
21.41664 2.6 1.12 28.6944
11.29218 1.72 1.12 11.8203
21.41664 0.88 1.12 28.6944
21.41664 0.6 1.12 28.6944
28.29636 0.36 1.12 40.1606
44.33376 0.34 1.12 66.8896
28.29636 0.26 1.12 40.1606
28.29636 -0.36 1.12 40.1606
21.41664 -0.42 1.12 28.6944
44.33376 -0.52 1.12 66.8896
28.29636 -0.58 1.12 40.1606
17.592840000000002 -1.5 1.12 22.3214
17.592840000000002 -1.6 1.12 22.3214
15.15888 -1.66 1.12 18.2648
11.29218 -1.76 1.12 11.8203
12.23748 -2.0 1.12 13.3958
44.33376 -5.86 1.12 66.8896
28.29636 -5.94 1.12 40.1606
21.41664 4.9 1.1 28.6944
21.41664 4.82 1.1 28.6944
21.41664 4.34 1.1 28.6944
21.41664 4.12 1.1 28.6944
28.29636 3.56 1.1 40.1606
21.41664 2.6 1.1 28.6944
21.41664 2.34 1.1 28.6944
21.41664 0.88 1.1 28.6944
17.592840000000002 0.82 1.1 22.3214
44.33376 0.42 1.1 66.8896
21.41664 -0.1 1.1 28.6944
124.19999999999999 -0.26 1.1 200.0
21.41664 -0.42 1.1 28.6944
21.41664 -0.46 1.1 28.6944
21.41664 -1.42 1.1 28.6944
17.592840000000002 -1.5 1.1 22.3214
17.592840000000002 -1.6 1.1 22.3214
15.15888 -1.66 1.1 18.2648
12.23748 -2.0 1.1 13.3958
44.33376 -5.86 1.1 66.8896
21.41664 -6.3 1.1 28.6944
21.41664 4.9 1.08 28.6944
21.41664 4.48 1.08 28.6944
7.459097999999999 4.18 1.08 5.43183
21.41664 4.12 1.08 28.6944
28.29636 3.56 1.08 40.1606
21.41664 2.6 1.08 28.6944
21.41664 2.32 1.08 28.6944
124.19999999999999 -0.1 1.08 200.0
21.41664 -0.46 1.08 28.6944
21.41664 -1.42 1.08 28.6944
17.592840000000002 -1.48 1.08 22.3214
17.592840000000002 -1.6 1.08 22.3214
15.15888 -1.66 1.08 18.2648
21.41664 -1.74 1.08 28.6944
12.23748 -2.02 1.08 13.3958
44.33376 -6.16 1.08 66.8896
21.41664 5.84 1.06 28.6944
21.41664 4.9 1.06 28.6944
7.459097999999999 4.18 1.06 5.43183
28.29636 3.56 1.06 40.1606
21.41664 3.3 1.06 28.6944
21.41664 2.6 1.06 28.6944
21.41664 2.3 1.06 28.6944
21.41664 0.76 1.06 28.6944
44.33376 0.4 1.06 66.8896
124.19999999999999 0.22 1.06 200.0
124.19999999999999 -0.12 1.06 200.0
124.19999999999999 -0.28 1.06 200.0
21.41664 -0.46 1.06 28.6944
21.41664 -1.38 1.06 28.6944
21.41664 -1.42 1.06 28.6944
17.592840000000002 -1.48 1.06 22.3214
12.23748 -2.02 1.06 13.3958
124.19999999999999 -5.8 1.06 200.0
28.29636 -5.96 1.06 40.1606
21.41664 5.84 1.04 28.6944
21.41664 4.9 1.04 28.6944
7.459097999999999 4.18 1.04 5.43183
28.29636 3.56 1.04 40.1606
28.29636 3.32 1.04 40.1606
21.41664 3.28 1.04 28.6944
21.41664 3.26 1.04 28.6944
21.41664 2.6 1.04 28.6944
11.29218 1.74 1.04 11.8203
21.41664 0.8 1.04 28.6944
28.29636 0.46 1.04 40.1606
28.29636 0.44 1.04 40.1606
28.29636 0.0 1.04 40.1606
28.29636 -0.02 1.04 40.1606
124.19999999999999 -0.12 1.04 200.0
15.15888 -0.18 1.04 18.2648
124.19999999999999 -0.3 1.04 200.0
21.41664 -0.46 1.04 28.6944
15.15888 -1.92 1.04 18.2648
12.23748 -2.0 1.04 13.3958
12.23748 -2.04 1.04 13.3958
28.29636 -5.96 1.04 40.1606
21.41664 4.9 1.02 28.6944
28.29636 3.56 1.02 40.1606
28.29636 3.32 1.02 40.1606
21.41664 3.24 1.02 28.6944
28.29636 3.22 1.02 40.1606
28.29636 3.2 1.02 40.1606
21.41664 2.6 1.02 28.6944
44.33376 0.9 1.02 66.8896
21.41664 0.8 1.02 28.6944
28.29636 0.48 1.02 40.1606
28.29636 0.46 1.02 40.1606
12.23748 0.24 1.02 13.3958
28.29636 0.0 1.02 40.1606
15.15888 -0.18 1.02 18.2648
28.29636 -0.4 1.02 40.1606
15.15888 -1.36 1.02 18.2648
15.15888 -1.92 1.02 18.2648
12.23748 -2.06 1.02 13.3958
28.29636 -6.26 1.02 40.1606
21.41664 4.9 1.0 28.6944
21.41664 4.36 1.0 28.6944
21.41664 4.34 1.0 28.6944
28.29636 3.32 1.0 40.1606
28.29636 3.2 1.0 40.1606
28.29636 3.18 1.0 40.1606
11.29218 1.7 1.0 11.8203
44.33376 0.9 1.0 66.8896
28.29636 0.48 1.0 40.1606
28.29636 0.46 1.0 40.1606
28.29636 0.44 1.0 40.1606
12.23748 0.22 1.0 13.3958
28.29636 0.0 1.0 40.1606
15.15888 -0.18 1.0 18.2648
28.29636 -0.32 1.0 40.1606
124.19999999999999 -0.48 1.0 200.0
21.41664 -0.64 1.0 28.6944
15.15888 -1.36 1.0 18.2648
12.23748 -2.06 1.0 13.3958
21.41664 4.9 0.98 28.6944
7.459097999999999 4.18 0.98 5.43183
28.29636 3.16 0.98 40.1606
11.29218 1.72 0.98 11.8203
11.29218 1.7 0.98 11.8203
44.33376 0.88 0.98 66.8896
28.29636 0.48 0.98 40.1606
28.29636 0.46 0.98 40.1606
28.29636 0.0 0.98 40.1606
28.29636 -0.34 0.98 40.1606
28.29636 -0.36 0.98 40.1606
124.19999999999999 -0.48 0.98 200.0
28.29636 -5.9 0.98 40.1606
44.33376 -6.34 0.98 66.8896
21.41664 4.9 0.96 28.6944
28.29636 3.6 0.96 40.1606
28.29636 3.32 0.96 40.1606
28.29636 3.16 0.96 40.1606
28.29636 3.14 0.96 40.1606
11.29218 1.72 0.96 11.8203
11.29218 1.7 0.96 11.8203
124.19999999999999 0.62 0.96 200.0
28.29636 0.48 0.96 40.1606
28.29636 0.46 0.96 40.1606
21.41664 0.18 0.96 28.6944
28.29636 0.0 0.96 40.1606
124.19999999999999 -0.24 0.96 200.0
28.29636 -0.34 0.96 40.1606
124.19999999999999 -0.48 0.96 200.0
21.41664 -0.66 0.96 28.6944
28.29636 -5.9 0.96 40.1606
21.41664 4.9 0.94 28.6944
28.29636 3.56 0.94 40.1606
28.29636 3.32 0.94 40.1606
28.29636 3.16 0.94 40.1606
11.29218 1.74 0.94 11.8203
21.41664 0.94 0.94 28.6944
21.41664 0.9 0.94 28.6944
124.19999999999999 0.6 0.94 200.0
44.33376 0.16 0.94 66.8896
28.29636 0.04 0.94 40.1606
11.29218 -2.06 0.94 11.8203
21.41664 -3.7 0.94 28.6944
21.41664 -5.52 0.94 28.6944
28.29636 -6.3 0.94 40.1606
21.41664 4.9 0.92 28.6944
28.29636 3.56 0.92 40.1606
28.29636 3.32 0.92 40.1606
28.29636 3.16 0.92 40.1606
21.41664 2.6 0.92 28.6944
11.29218 1.74 0.92 11.8203
11.29218 1.72 0.92 11.8203
21.41664 0.9 0.92 28.6944
13.4736 -1.36 0.92 15.456
21.41664 -3.7 0.92 28.6944
28.29636 -5.46 0.92 40.1606
21.41664 -5.52 0.92 28.6944
28.29636 -6.3 0.92 40.1606
21.41664 4.88 0.9 28.6944
21.41664 4.34 0.9 28.6944
28.29636 3.32 0.9 40.1606
28.29636 3.18 0.9 40.1606
28.29636 3.16 0.9 40.1606
21.41664 2.6 0.9 28.6944
21.41664 0.9 0.9 28.6944
17.592840000000002 0.82 0.9 22.3214
11.29218 -2.04 0.9 11.8203
21.41664 -3.7 0.9 28.6944
28.29636 -5.46 0.9 40.1606
28.29636 -6.08 0.9 40.1606
28.29636 -6.3 0.9 40.1606
21.41664 4.76 0.88 28.6944
21.41664 4.36 0.88 28.6944
28.29636 3.32 0.88 40.1606
28.29636 3.16 0.88 40.1606
21.41664 2.6 0.88 28.6944
21.41664 0.94 0.88 28.6944
21.41664 0.9 0.88 28.6944
17.592840000000002 0.82 0.88 22.3214
10.54584 -1.54 0.88 10.5764
21.41664 -3.7 0.88 28.6944
28.29636 -6.08 0.88 40.1606
21.41664 4.52 0.86 28.6944
21.41664 4.1 0.86 28.6944
28.29636 3.56 0.86 40.1606
28.29636 3.32 0.86 40.1606
28.29636 3.16 0.86 40.1606
21.41664 0.94 0.86 28.6944
21.41664 0.9 0.86 28.6944
21.41664 -3.7 0.86 28.6944
28.29636 -6.08 0.86 40.1606
28.29636 -6.32 0.86 40.1606
21.41664 4.9 0.84 28.6944
21.41664 4.52 0.84 28.6944
21.41664 4.1 0.84 28.6944
21.41664 4.08 0.84 28.6944
28.29636 3.56 0.84 40.1606
28.29636 3.32 0.84 40.1606
28.29636 3.16 0.84 40.1606
21.41664 2.6 0.84 28.6944
21.41664 0.9 0.84 28.6944
12.23748 -1.98 0.84 13.3958
28.29636 -5.9 0.84 40.1606
28.29636 -6.32 0.84 40.1606
21.41664 4.9 0.82 28.6944
21.41664 4.58 0.82 28.6944
21.41664 4.56 0.82 28.6944
21.41664 4.38 0.82 28.6944
21.41664 4.08 0.82 28.6944
21.41664 4.06 0.82 28.6944
28.29636 3.56 0.82 40.1606
28.29636 3.32 0.82 40.1606
28.29636 3.16 0.82 40.1606
21.41664 2.6 0.82 28.6944
21.41664 0.9 0.82 28.6944
15.15888 -1.54 0.82 18.2648
15.15888 -1.9 0.82 18.2648
12.23748 -1.96 0.82 13.3958
12.23748 -1.98 0.82 13.3958
10.54584 -2.04 0.82 10.5764
21.41664 -3.7 0.82 28.6944
28.29636 -5.9 0.82 40.1606
21.41664 -5.96 0.82 28.6944
21.41664 4.9 0.8 28.6944
21.41664 4.88 0.8 28.6944
21.41664 4.06 0.8 28.6944
28.29636 3.32 0.8 40.1606
21.41664 0.9 0.8 28.6944
15.15888 -1.82 0.8 18.2648
15.15888 -1.86 0.8 18.2648
15.15888 -1.88 0.8 18.2648
15.15888 -1.9 0.8 18.2648
10.54584 -2.04 0.8 10.5764
28.29636 -5.9 0.8 40.1606
21.41664 -5.96 0.8 28.6944
21.41664 5.1 0.78 28.6944
28.29636 3.32 0.78 40.1606
21.41664 2.6 0.78 28.6944
44.33376 1.0 0.78 66.8896
15.15888 -1.52 0.78 18.2648
15.15888 -1.56 0.78 18.2648
13.4736 -1.62 0.78 15.456
15.15888 -1.86 0.78 18.2648
21.41664 4.7 0.76 28.6944
28.29636 3.32 0.76 40.1606
21.41664 2.6 0.76 28.6944
44.33376 1.0 0.76 66.8896
124.19999999999999 -1.38 0.76 200.0
17.592840000000002 -2.42 0.76 22.3214
21.41664 5.7 0.74 28.6944
21.41664 4.58 0.74 28.6944
28.29636 3.32 0.74 40.1606
28.29636 3.16 0.74 40.1606
11.29218 1.86 0.74 11.8203
11.29218 1.66 0.74 11.8203
44.33376 1.0 0.74 66.8896
124.19999999999999 -1.42 0.74 200.0
28.29636 -6.34 0.74 40.1606
21.41664 5.92 0.72 28.6944
21.41664 5.38 0.72 28.6944
21.41664 4.58 0.72 28.6944
28.29636 3.16 0.72 40.1606
21.41664 5.72 0.7 28.6944
21.41664 5.38 0.7 28.6944
21.41664 5.36 0.7 28.6944
21.41664 4.58 0.7 28.6944
28.29636 3.32 0.7 40.1606
28.29636 3.18 0.7 40.1606
28.29636 3.16 0.7 40.1606
21.41664 2.6 0.7 28.6944
28.29636 0.92 0.7 40.1606
21.41664 0.74 0.7 28.6944
21.41664 -3.54 0.7 28.6944
21.41664 5.38 0.68 28.6944
21.41664 5.36 0.68 28.6944
21.41664 5.1 0.68 28.6944
21.41664 5.04 0.68 28.6944
21.41664 4.6 0.68 28.6944
21.41664 4.58 0.68 28.6944
28.29636 3.32 0.68 40.1606
17.592840000000002 3.26 0.68 22.3214
28.29636 3.16 0.68 40.1606
21.41664 2.6 0.68 28.6944
28.29636 0.92 0.68 40.1606
28.29636 -3.48 0.68 40.1606
21.41664 5.72 0.66 28.6944
21.41664 5.36 0.66 28.6944
21.41664 5.34 0.66 28.6944
21.41664 5.04 0.66 28.6944
21.41664 4.6 0.66 28.6944
21.41664 4.22 0.66 28.6944
28.29636 3.32 0.66 40.1606
28.29636 0.92 0.66 40.1606
21.41664 5.34 0.64 28.6944
21.41664 5.18 0.64 28.6944
28.29636 3.16 0.64 40.1606
21.41664 2.66 0.64 28.6944
44.33376 1.0 0.64 66.8896
28.29636 0.92 0.64 40.1606
21.41664 5.36 0.62 28.6944
21.41664 4.8 0.62 28.6944
21.41664 4.74 0.62 28.6944
21.41664 4.72 0.62 28.6944
21.41664 4.54 0.62 28.6944
21.41664 4.06 0.62 28.6944
28.29636 3.16 0.62 40.1606
21.41664 2.66 0.62 28.6944
21.41664 2.6 0.62 28.6944
21.41664 5.72 0.6 28.6944
21.41664 5.7 0.6 28.6944
21.41664 5.68 0.6 28.6944
21.41664 5.36 0.6 28.6944
21.41664 4.56 0.6 28.6944
21.41664 4.54 0.6 28.6944
21.41664 4.16 0.6 28.6944
21.41664 4.06 0.6 28.6944
28.29636 3.16 0.6 40.1606
21.41664 2.66 0.6 28.6944
21.41664 5.04 0.58 28.6944
21.41664 4.06 0.58 28.6944
21.41664 3.52 0.58 28.6944
28.29636 3.14 0.58 40.1606
21.41664 2.66 0.58 28.6944
28.29636 0.88 0.58 40.1606
11.29218 -0.96 0.58 11.8203
44.33376 -1.48 0.58 66.8896
28.29636 -6.38 0.58 40.1606
28.29636 -6.4 0.58 40.1606
21.41664 4.76 0.56 28.6944
7.459097999999999 4.2 0.56 5.43183
21.41664 2.66 0.56 28.6944
21.41664 -0.66 0.56 28.6944
15.15888 -0.78 0.56 18.2648
11.29218 -0.96 0.56 11.8203
12.23748 -1.78 0.56 13.3958
11.29218 -1.84 0.56 11.8203
21.41664 -5.5 0.56 28.6944
28.29636 -6.38 0.56 40.1606
21.41664 5.76 0.54 28.6944
21.41664 5.32 0.54 28.6944
21.41664 5.3 0.54 28.6944
21.41664 4.74 0.54 28.6944
21.41664 4.66 0.54 28.6944
21.41664 4.3 0.54 28.6944
21.41664 4.28 0.54 28.6944
21.41664 2.66 0.54 28.6944
21.41664 2.6 0.54 28.6944
44.33376 0.98 0.54 66.8896
44.33376 0.94 0.54 66.8896
21.41664 0.88 0.54 28.6944
21.41664 -0.66 0.54 28.6944
15.15888 -0.78 0.54 18.2648
11.29218 -0.96 0.54 11.8203
10.54584 -1.04 0.54 10.5764
28.29636 -5.44 0.54 40.1606
21.41664 -5.5 0.54 28.6944
21.41664 -6.46 0.54 28.6944
17.592840000000002 5.92 0.52 22.3214
21.41664 5.7 0.52 28.6944
21.41664 5.32 0.52 28.6944
21.41664 5.3 0.52 28.6944
21.41664 4.66 0.52 28.6944
21.41664 4.58 0.52 28.6944
21.41664 4.56 0.52 28.6944
21.41664 4.54 0.52 28.6944
7.459097999999999 4.44 0.52 5.43183
7.459097999999999 4.16 0.52 5.43183
124.19999999999999 1.04 0.52 200.0
44.33376 0.98 0.52 66.8896
21.41664 0.88 0.52 28.6944
21.41664 -0.66 0.52 28.6944
15.15888 -0.78 0.52 18.2648
11.29218 -0.96 0.52 11.8203
10.54584 -1.04 0.52 10.5764
11.29218 -1.12 0.52 11.8203
28.29636 -3.54 0.52 40.1606
28.29636 -5.44 0.52 40.1606
21.41664 -5.5 0.52 28.6944
28.29636 -6.4 0.52 40.1606
21.41664 -6.46 0.52 28.6944
17.592840000000002 5.88 0.5 22.3214
21.41664 5.68 0.5 28.6944
21.41664 5.06 0.5 28.6944
21.41664 5.04 0.5 28.6944
21.41664 4.66 0.5 28.6944
7.459097999999999 4.44 0.5 5.43183
21.41664 4.36 0.5 28.6944
7.459097999999999 4.16 0.5 5.43183
21.41664 2.24 0.5 28.6944
124.19999999999999 1.04 0.5 200.0
44.33376 0.98 0.5 66.8896
21.41664 0.88 0.5 28.6944
21.41664 0.86 0.5 28.6944
17.592840000000002 -0.36 0.5 22.3214
21.41664 -0.66 0.5 28.6944
15.15888 -0.78 0.5 18.2648
11.29218 -0.96 0.5 11.8203
10.54584 -1.04 0.5 10.5764
11.29218 -1.12 0.5 11.8203
28.29636 -5.44 0.5 40.1606
21.41664 -5.5 0.5 28.6944
28.29636 -6.4 0.5 40.1606
17.592840000000002 5.88 0.48 22.3214
17.592840000000002 5.72 0.48 22.3214
21.41664 5.08 0.48 28.6944
21.41664 5.06 0.48 28.6944
21.41664 4.66 0.48 28.6944
21.41664 4.6 0.48 28.6944
7.459097999999999 4.44 0.48 5.43183
21.41664 4.36 0.48 28.6944
7.459097999999999 4.16 0.48 5.43183
21.41664 3.64 0.48 28.6944
21.41664 2.66 0.48 28.6944
11.29218 1.76 0.48 11.8203
124.19999999999999 1.04 0.48 200.0
44.33376 0.98 0.48 66.8896
21.41664 0.86 0.48 28.6944
17.592840000000002 -0.36 0.48 22.3214
44.33376 -0.54 0.48 66.8896
15.15888 -0.78 0.48 18.2648
11.29218 -0.96 0.48 11.8203
10.54584 -1.04 0.48 10.5764
11.29218 -1.12 0.48 11.8203
124.19999999999999 -1.54 0.48 200.0
28.29636 -5.44 0.48 40.1606
21.41664 -5.5 0.48 28.6944
28.29636 -6.4 0.48 40.1606
21.41664 -6.48 0.48 28.6944
17.592840000000002 5.88 0.46 22.3214
17.592840000000002 5.72 0.46 22.3214
21.41664 5.28 0.46 28.6944
21.41664 5.12 0.46 28.6944
21.41664 5.08 0.46 28.6944
21.41664 5.06 0.46 28.6944
21.41664 4.62 0.46 28.6944
21.41664 4.6 0.46 28.6944
7.459097999999999 4.44 0.46 5.43183
7.459097999999999 4.42 0.46 5.43183
7.459097999999999 4.16 0.46 5.43183
21.41664 3.82 0.46 28.6944
21.41664 3.64 0.46 28.6944
21.41664 2.66 0.46 28.6944
21.41664 2.6 0.46 28.6944
124.19999999999999 1.04 0.46 200.0
44.33376 0.98 0.46 66.8896
21.41664 0.86 0.46 28.6944
21.41664 0.42 0.46 28.6944
44.33376 -0.28 0.46 66.8896
17.592840000000002 -0.36 0.46 22.3214
44.33376 -0.54 0.46 66.8896
15.15888 -0.78 0.46 18.2648
11.29218 -0.96 0.46 11.8203
10.54584 -1.02 0.46 10.5764
11.29218 -1.12 0.46 11.8203
9.023147999999999 -1.38 0.46 8.03858
21.41664 -4.72 0.46 28.6944
28.29636 -5.44 0.46 40.1606
21.41664 -5.5 0.46 28.6944
28.29636 -6.4 0.46 40.1606
21.41664 -6.48 0.46 28.6944
17.592840000000002 5.88 0.44 22.3214
17.592840000000002 5.74 0.44 22.3214
17.592840000000002 5.72 0.44 22.3214
21.41664 5.28 0.44 28.6944
21.41664 5.08 0.44 28.6944
21.41664 4.62 0.44 28.6944
7.459097999999999 4.44 0.44 5.43183
7.459097999999999 4.42 0.44 5.43183
7.459097999999999 4.16 0.44 5.43183
21.41664 2.66 0.44 28.6944
21.41664 2.6 0.44 28.6944
11.29218 1.94 0.44 11.8203
124.19999999999999 1.04 0.44 200.0
44.33376 0.98 0.44 66.8896
21.41664 0.88 0.44 28.6944
21.41664 0.42 0.44 28.6944
44.33376 -0.28 0.44 66.8896
17.592840000000002 -0.36 0.44 22.3214
44.33376 -0.54 0.44 66.8896
15.15888 -0.78 0.44 18.2648
10.54584 -1.02 0.44 10.5764
10.54584 -1.04 0.44 10.5764
11.29218 -1.12 0.44 11.8203
15.15888 -1.3 0.44 18.2648
9.023147999999999 -1.36 0.44 8.03858
124.19999999999999 -1.52 0.44 200.0
21.41664 -1.74 0.44 28.6944
17.592840000000002 -1.8 0.44 22.3214
21.41664 -4.72 0.44 28.6944
28.29636 -5.44 0.44 40.1606
21.41664 -5.5 0.44 28.6944
21.41664 -6.48 0.44 28.6944
17.592840000000002 5.88 0.42 22.3214
7.459097999999999 4.44 0.42 5.43183
7.459097999999999 4.42 0.42 5.43183
7.459097999999999 4.16 0.42 5.43183
21.41664 2.66 0.42 28.6944
124.19999999999999 1.04 0.42 200.0
44.33376 0.98 0.42 66.8896
44.33376 0.96 0.42 66.8896
44.33376 0.92 0.42 66.8896
44.33376 -0.28 0.42 66.8896
17.592840000000002 -0.36 0.42 22.3214
44.33376 -0.54 0.42 66.8896
15.15888 -0.78 0.42 18.2648
10.54584 -1.02 0.42 10.5764
11.29218 -1.12 0.42 11.8203
11.29218 -1.38 0.42 11.8203
21.41664 -1.74 0.42 28.6944
15.15888 -1.86 0.42 18.2648
15.15888 -1.88 0.42 18.2648
28.29636 -4.66 0.42 40.1606
21.41664 -4.72 0.42 28.6944
28.29636 -4.96 0.42 40.1606
21.41664 -5.02 0.42 28.6944
28.29636 -5.26 0.42 40.1606
21.41664 -5.32 0.42 28.6944
28.29636 -5.44 0.42 40.1606
21.41664 -5.5 0.42 28.6944
28.29636 -6.42 0.42 40.1606
17.592840000000002 5.88 0.4 22.3214
17.592840000000002 5.82 0.4 22.3214
7.459097999999999 4.44 0.4 5.43183
7.459097999999999 4.42 0.4 5.43183
7.459097999999999 4.16 0.4 5.43183
21.41664 2.66 0.4 28.6944
11.29218 1.64 0.4 11.8203
124.19999999999999 1.04 0.4 200.0
44.33376 0.98 0.4 66.8896
44.33376 0.96 0.4 66.8896
44.33376 0.92 0.4 66.8896
21.41664 0.86 0.4 28.6944
