VERSION .7
FIELDS x y z rgb
SIZE 4 4 4 4
TYPE F F F F
COUNT 1 1 1 1
WIDTH 1277
HEIGHT 1
VIEWPOINT 0 0 0 1 0 0 0
POINTS 1277
DATA ascii
21.41664 -1.6 -0.04 5000028.6944
44.33376 -2.68 -0.04 5000066.8896
21.41664 -2.86 -0.04 5000028.6944
17.592840000000002 -2.92 -0.04 5000022.3214
17.592840000000002 -2.94 -0.04 5000022.3214
21.41664 -3.2 -0.04 5000028.6944
21.41664 -3.24 -0.04 5000028.6944
17.592840000000002 -3.28 -0.04 5000022.3214
17.592840000000002 -3.3 -0.04 5000022.3214
15.15888 -3.38 -0.04 5000018.2648
15.15888 -3.4 -0.04 5000018.2648
15.15888 -3.44 -0.04 5000018.2648
21.41664 -5.1 -0.04 5000028.6944
28.29636 -5.26 -0.04 5000040.1606
21.41664 -5.32 -0.04 5000028.6944
17.592840000000002 5.52 -0.06 5000022.3214
17.592840000000002 4.6 -0.06 5000022.3214
17.592840000000002 3.6 -0.06 5000022.3214
21.41664 2.98 -0.06 5000028.6944
21.41664 2.42 -0.06 5000028.6944
28.29636 1.78 -0.06 5000040.1606
28.29636 1.76 -0.06 5000040.1606
17.592840000000002 1.7 -0.06 5000022.3214
17.592840000000002 1.66 -0.06 5000022.3214
17.592840000000002 -0.62 -0.06 5000022.3214
9.023147999999999 -1.1 -0.06 5000008.03858
21.41664 -1.58 -0.06 5000028.6944
21.41664 -2.86 -0.06 5000028.6944
17.592840000000002 -2.92 -0.06 5000022.3214
21.41664 -3.2 -0.06 5000028.6944
21.41664 -3.24 -0.06 5000028.6944
17.592840000000002 -3.28 -0.06 5000022.3214
17.592840000000002 -3.3 -0.06 5000022.3214
15.15888 -3.38 -0.06 5000018.2648
15.15888 -3.4 -0.06 5000018.2648
21.41664 -3.54 -0.06 5000028.6944
21.41664 -3.56 -0.06 5000028.6944
17.592840000000002 -3.6 -0.06 5000022.3214
21.41664 -5.1 -0.06 5000028.6944
28.29636 -5.26 -0.06 5000040.1606
21.41664 -5.32 -0.06 5000028.6944
21.41664 -5.86 -0.06 5000028.6944
28.29636 -6.04 -0.06 5000040.1606
17.592840000000002 5.52 -0.08 5000022.3214
17.592840000000002 5.06 -0.08 5000022.3214
17.592840000000002 5.04 -0.08 5000022.3214
17.592840000000002 3.6 -0.08 5000022.3214
21.41664 2.42 -0.08 5000028.6944
28.29636 1.78 -0.08 5000040.1606
17.592840000000002 1.7 -0.08 5000022.3214
17.592840000000002 1.66 -0.08 5000022.3214
17.592840000000002 -0.34 -0.08 5000022.3214
17.592840000000002 -0.52 -0.08 5000022.3214
17.592840000000002 -0.64 -0.08 5000022.3214
21.41664 -1.58 -0.08 5000028.6944
21.41664 -2.84 -0.08 5000028.6944
21.41664 -2.86 -0.08 5000028.6944
17.592840000000002 -2.92 -0.08 5000022.3214
21.41664 -3.24 -0.08 5000028.6944
17.592840000000002 -3.28 -0.08 5000022.3214
17.592840000000002 -3.3 -0.08 5000022.3214
15.15888 -3.4 -0.08 5000018.2648
21.41664 -3.58 -0.08 5000028.6944
17.592840000000002 -3.62 -0.08 5000022.3214
17.592840000000002 -3.64 -0.08 5000022.3214
21.41664 -5.08 -0.08 5000028.6944
21.41664 -5.1 -0.08 5000028.6944
28.29636 -5.26 -0.08 5000040.1606
21.41664 -5.32 -0.08 5000028.6944
28.29636 -6.04 -0.08 5000040.1606
21.41664 -6.1 -0.08 5000028.6944
21.41664 -6.12 -0.08 5000028.6944
17.592840000000002 4.0 -0.1 5000022.3214
21.41664 3.6 -0.1 5000028.6944
21.41664 2.42 -0.1 5000028.6944
17.592840000000002 1.7 -0.1 5000022.3214
17.592840000000002 1.68 -0.1 5000022.3214
17.592840000000002 1.66 -0.1 5000022.3214
17.592840000000002 0.22 -0.1 5000022.3214
17.592840000000002 -0.06 -0.1 5000022.3214
124.19999999999999 -0.1 -0.1 5000200.0
17.592840000000002 -0.3 -0.1 5000022.3214
17.592840000000002 -0.34 -0.1 5000022.3214
124.19999999999999 -0.36 -0.1 5000200.0
28.29636 -0.42 -0.1 5000040.1606
17.592840000000002 -0.56 -0.1 5000022.3214
17.592840000000002 -0.66 -0.1 5000022.3214
9.023147999999999 -1.1 -0.1 5000008.03858
21.41664 -1.58 -0.1 5000028.6944
21.41664 -2.4 -0.1 5000028.6944
21.41664 -2.56 -0.1 5000028.6944
21.41664 -2.62 -0.1 5000028.6944
21.41664 -2.66 -0.1 5000028.6944
21.41664 -2.84 -0.1 5000028.6944
21.41664 -2.86 -0.1 5000028.6944
17.592840000000002 -2.92 -0.1 5000022.3214
21.41664 -3.24 -0.1 5000028.6944
17.592840000000002 -3.28 -0.1 5000022.3214
17.592840000000002 -3.3 -0.1 5000022.3214
15.15888 -3.4 -0.1 5000018.2648
21.41664 -3.6 -0.1 5000028.6944
17.592840000000002 -3.64 -0.1 5000022.3214
17.592840000000002 -3.66 -0.1 5000022.3214
28.29636 -5.04 -0.1 5000040.1606
21.41664 -5.1 -0.1 5000028.6944
28.29636 -5.26 -0.1 5000040.1606
21.41664 -5.32 -0.1 5000028.6944
21.41664 -6.14 -0.1 5000028.6944
17.592840000000002 4.06 -0.12 5000022.3214
21.41664 3.6 -0.12 5000028.6944
21.41664 3.56 -0.12 5000028.6944
9.941628000000001 2.8 -0.12 5000009.56938
21.41664 2.42 -0.12 5000028.6944
17.592840000000002 1.7 -0.12 5000022.3214
17.592840000000002 1.68 -0.12 5000022.3214
17.592840000000002 0.22 -0.12 5000022.3214
44.33376 0.18 -0.12 5000066.8896
124.19999999999999 0.16 -0.12 5000200.0
17.592840000000002 -0.04 -0.12 5000022.3214
17.592840000000002 -0.06 -0.12 5000022.3214
124.19999999999999 -0.1 -0.12 5000200.0
17.592840000000002 -0.3 -0.12 5000022.3214
17.592840000000002 -0.34 -0.12 5000022.3214
124.19999999999999 -0.36 -0.12 5000200.0
28.29636 -0.44 -0.12 5000040.1606
17.592840000000002 -0.58 -0.12 5000022.3214
17.592840000000002 -0.6 -0.12 5000022.3214
15.15888 -0.68 -0.12 5000018.2648
21.41664 -1.58 -0.12 5000028.6944
21.41664 -1.82 -0.12 5000028.6944
12.23748 -1.84 -0.12 5000013.3958
28.29636 -1.92 -0.12 5000040.1606
21.41664 -2.26 -0.12 5000028.6944
21.41664 -2.32 -0.12 5000028.6944
21.41664 -2.4 -0.12 5000028.6944
21.41664 -2.56 -0.12 5000028.6944
21.41664 -2.62 -0.12 5000028.6944
21.41664 -2.66 -0.12 5000028.6944
21.41664 -2.84 -0.12 5000028.6944
21.41664 -2.86 -0.12 5000028.6944
15.15888 -2.98 -0.12 5000018.2648
21.41664 -3.2 -0.12 5000028.6944
21.41664 -3.24 -0.12 5000028.6944
17.592840000000002 -3.28 -0.12 5000022.3214
17.592840000000002 -3.3 -0.12 5000022.3214
15.15888 -3.4 -0.12 5000018.2648
17.592840000000002 -3.66 -0.12 5000022.3214
17.592840000000002 -3.68 -0.12 5000022.3214
21.41664 -5.1 -0.12 5000028.6944
28.29636 -5.26 -0.12 5000040.1606
21.41664 -5.32 -0.12 5000028.6944
21.41664 -6.16 -0.12 5000028.6944
21.41664 -6.18 -0.12 5000028.6944
17.592840000000002 5.76 -0.14 5000022.3214
21.41664 3.6 -0.14 5000028.6944
21.41664 3.52 -0.14 5000028.6944
21.41664 2.98 -0.14 5000028.6944
9.941628000000001 2.8 -0.14 5000009.56938
21.41664 2.42 -0.14 5000028.6944
28.29636 1.8 -0.14 5000040.1606
17.592840000000002 1.7 -0.14 5000022.3214
17.592840000000002 1.68 -0.14 5000022.3214
17.592840000000002 0.22 -0.14 5000022.3214
17.592840000000002 0.18 -0.14 5000022.3214
28.29636 0.06 -0.14 5000040.1606
17.592840000000002 -0.04 -0.14 5000022.3214
17.592840000000002 -0.06 -0.14 5000022.3214
124.19999999999999 -0.1 -0.14 5000200.0
17.592840000000002 -0.3 -0.14 5000022.3214
124.19999999999999 -0.36 -0.14 5000200.0
28.29636 -0.46 -0.14 5000040.1606
17.592840000000002 -0.6 -0.14 5000022.3214
17.592840000000002 -0.62 -0.14 5000022.3214
15.15888 -0.7 -0.14 5000018.2648
21.41664 -1.58 -0.14 5000028.6944
21.41664 -1.78 -0.14 5000028.6944
13.4736 -1.8 -0.14 5000015.456
12.23748 -1.84 -0.14 5000013.3958
28.29636 -1.92 -0.14 5000040.1606
28.29636 -1.94 -0.14 5000040.1606
17.592840000000002 -2.0 -0.14 5000022.3214
21.41664 -2.26 -0.14 5000028.6944
21.41664 -2.32 -0.14 5000028.6944
21.41664 -2.34 -0.14 5000028.6944
21.41664 -2.58 -0.14 5000028.6944
21.41664 -2.66 -0.14 5000028.6944
21.41664 -2.84 -0.14 5000028.6944
21.41664 -2.92 -0.14 5000028.6944
21.41664 -3.24 -0.14 5000028.6944
17.592840000000002 -3.28 -0.14 5000022.3214
17.592840000000002 -3.3 -0.14 5000022.3214
15.15888 -3.4 -0.14 5000018.2648
15.15888 -3.44 -0.14 5000018.2648
17.592840000000002 -3.64 -0.14 5000022.3214
17.592840000000002 -3.68 -0.14 5000022.3214
17.592840000000002 -3.7 -0.14 5000022.3214
15.15888 -3.78 -0.14 5000018.2648
28.29636 -5.26 -0.14 5000040.1606
21.41664 -5.32 -0.14 5000028.6944
21.41664 -6.2 -0.14 5000028.6944
21.41664 -6.22 -0.14 5000028.6944
17.592840000000002 5.9 -0.16 5000022.3214
17.592840000000002 5.78 -0.16 5000022.3214
17.592840000000002 5.76 -0.16 5000022.3214
17.592840000000002 5.72 -0.16 5000022.3214
21.41664 5.68 -0.16 5000028.6944
17.592840000000002 5.2 -0.16 5000022.3214
17.592840000000002 5.18 -0.16 5000022.3214
17.592840000000002 5.14 -0.16 5000022.3214
17.592840000000002 5.12 -0.16 5000022.3214
17.592840000000002 5.1 -0.16 5000022.3214
17.592840000000002 5.08 -0.16 5000022.3214
17.592840000000002 5.06 -0.16 5000022.3214
124.19999999999999 4.96 -0.16 5000200.0
124.19999999999999 4.94 -0.16 5000200.0
21.41664 3.6 -0.16 5000028.6944
21.41664 3.52 -0.16 5000028.6944
21.41664 2.98 -0.16 5000028.6944
9.941628000000001 2.8 -0.16 5000009.56938
9.941628000000001 2.76 -0.16 5000009.56938
21.41664 2.42 -0.16 5000028.6944
17.592840000000002 1.7 -0.16 5000022.3214
17.592840000000002 1.68 -0.16 5000022.3214
17.592840000000002 0.22 -0.16 5000022.3214
44.33376 0.14 -0.16 5000066.8896
44.33376 0.12 -0.16 5000066.8896
28.29636 0.1 -0.16 5000040.1606
28.29636 0.08 -0.16 5000040.1606
28.29636 0.06 -0.16 5000040.1606
17.592840000000002 0.0 -0.16 5000022.3214
17.592840000000002 -0.06 -0.16 5000022.3214
124.19999999999999 -0.1 -0.16 5000200.0
17.592840000000002 -0.34 -0.16 5000022.3214
124.19999999999999 -0.38 -0.16 5000200.0
17.592840000000002 -0.62 -0.16 5000022.3214
17.592840000000002 -0.64 -0.16 5000022.3214
15.15888 -0.72 -0.16 5000018.2648
15.15888 -0.74 -0.16 5000018.2648
11.29218 -0.88 -0.16 5000011.8203
9.442464 -1.08 -0.16 5000008.73744
8.665944 -1.2 -0.16 5000007.44324
8.665944 -1.22 -0.16 5000007.44324
21.41664 -1.58 -0.16 5000028.6944
12.23748 -1.84 -0.16 5000013.3958
21.41664 -2.2 -0.16 5000028.6944
21.41664 -2.22 -0.16 5000028.6944
21.41664 -2.7 -0.16 5000028.6944
21.41664 -2.92 -0.16 5000028.6944
21.41664 -3.24 -0.16 5000028.6944
17.592840000000002 -3.28 -0.16 5000022.3214
17.592840000000002 -3.3 -0.16 5000022.3214
15.15888 -3.4 -0.16 5000018.2648
13.4736 -3.46 -0.16 5000015.456
17.592840000000002 -3.66 -0.16 5000022.3214
17.592840000000002 -3.7 -0.16 5000022.3214
17.592840000000002 -3.72 -0.16 5000022.3214
15.15888 -3.8 -0.16 5000018.2648
21.41664 -4.16 -0.16 5000028.6944
21.41664 -4.7 -0.16 5000028.6944
21.41664 -4.72 -0.16 5000028.6944
21.41664 -4.76 -0.16 5000028.6944
21.41664 -6.24 -0.16 5000028.6944
17.592840000000002 5.22 -0.18 5000022.3214
17.592840000000002 5.2 -0.18 5000022.3214
17.592840000000002 4.42 -0.18 5000022.3214
17.592840000000002 4.4 -0.18 5000022.3214
21.41664 3.62 -0.18 5000028.6944
21.41664 3.6 -0.18 5000028.6944
21.41664 3.52 -0.18 5000028.6944
9.941628000000001 2.8 -0.18 5000009.56938
17.592840000000002 1.7 -0.18 5000022.3214
17.592840000000002 1.68 -0.18 5000022.3214
17.592840000000002 0.22 -0.18 5000022.3214
44.33376 0.14 -0.18 5000066.8896
44.33376 0.12 -0.18 5000066.8896
28.29636 0.1 -0.18 5000040.1606
28.29636 0.08 -0.18 5000040.1606
28.29636 0.06 -0.18 5000040.1606
17.592840000000002 0.0 -0.18 5000022.3214
17.592840000000002 -0.06 -0.18 5000022.3214
124.19999999999999 -0.1 -0.18 5000200.0
11.29218 -0.28 -0.18 5000011.8203
17.592840000000002 -0.34 -0.18 5000022.3214
17.592840000000002 -0.38 -0.18 5000022.3214
21.41664 -0.58 -0.18 5000028.6944
17.592840000000002 -0.64 -0.18 5000022.3214
17.592840000000002 -0.66 -0.18 5000022.3214
15.15888 -0.74 -0.18 5000018.2648
15.15888 -0.8 -0.18 5000018.2648
12.23748 -0.88 -0.18 5000013.3958
10.54584 -0.96 -0.18 5000010.5764
9.442464 -1.06 -0.18 5000008.73744
9.442464 -1.08 -0.18 5000008.73744
8.665944 -1.2 -0.18 5000007.44324
8.665944 -1.22 -0.18 5000007.44324
21.41664 -1.58 -0.18 5000028.6944
15.15888 -1.72 -0.18 5000018.2648
15.15888 -1.76 -0.18 5000018.2648
21.41664 -1.78 -0.18 5000028.6944
21.41664 -2.2 -0.18 5000028.6944
21.41664 -2.7 -0.18 5000028.6944
21.41664 -2.9 -0.18 5000028.6944
21.41664 -3.24 -0.18 5000028.6944
17.592840000000002 -3.28 -0.18 5000022.3214
17.592840000000002 -3.3 -0.18 5000022.3214
15.15888 -3.4 -0.18 5000018.2648
17.592840000000002 -3.72 -0.18 5000022.3214
17.592840000000002 -3.74 -0.18 5000022.3214
15.15888 -3.82 -0.18 5000018.2648
21.41664 -3.92 -0.18 5000028.6944
21.41664 -4.14 -0.18 5000028.6944
21.41664 -4.16 -0.18 5000028.6944
28.29636 -4.58 -0.18 5000040.1606
21.41664 -4.6 -0.18 5000028.6944
21.41664 -4.62 -0.18 5000028.6944
21.41664 -4.64 -0.18 5000028.6944
21.41664 -4.66 -0.18 5000028.6944
21.41664 -4.68 -0.18 5000028.6944
21.41664 -5.14 -0.18 5000028.6944
21.41664 -6.28 -0.18 5000028.6944
21.41664 -6.38 -0.18 5000028.6944
17.592840000000002 5.94 -0.2 5000022.3214
17.592840000000002 5.22 -0.2 5000022.3214
17.592840000000002 4.42 -0.2 5000022.3214
17.592840000000002 4.4 -0.2 5000022.3214
21.41664 3.6 -0.2 5000028.6944
21.41664 3.52 -0.2 5000028.6944
9.941628000000001 3.1 -0.2 5000009.56938
17.592840000000002 1.7 -0.2 5000022.3214
17.592840000000002 1.68 -0.2 5000022.3214
17.592840000000002 0.22 -0.2 5000022.3214
17.592840000000002 0.18 -0.2 5000022.3214
17.592840000000002 -0.04 -0.2 5000022.3214
17.592840000000002 -0.06 -0.2 5000022.3214
124.19999999999999 -0.1 -0.2 5000200.0
17.592840000000002 -0.34 -0.2 5000022.3214
17.592840000000002 -0.36 -0.2 5000022.3214
44.33376 -0.48 -0.2 5000066.8896
44.33376 -0.5 -0.2 5000066.8896
28.29636 -0.58 -0.2 5000040.1606
17.592840000000002 -0.68 -0.2 5000022.3214
15.15888 -0.76 -0.2 5000018.2648
15.15888 -0.78 -0.2 5000018.2648
12.23748 -0.88 -0.2 5000013.3958
10.54584 -0.96 -0.2 5000010.5764
10.54584 -1.0 -0.2 5000010.5764
9.941628000000001 -1.06 -0.2 5000009.56938
9.941628000000001 -1.08 -0.2 5000009.56938
9.023147999999999 -1.2 -0.2 5000008.03858
9.023147999999999 -1.22 -0.2 5000008.03858
21.41664 -1.58 -0.2 5000028.6944
15.15888 -1.72 -0.2 5000018.2648
28.29636 -1.92 -0.2 5000040.1606
21.41664 -2.04 -0.2 5000028.6944
28.29636 -2.52 -0.2 5000040.1606
21.41664 -2.58 -0.2 5000028.6944
21.41664 -2.66 -0.2 5000028.6944
21.41664 -2.7 -0.2 5000028.6944
21.41664 -3.2 -0.2 5000028.6944
17.592840000000002 -3.26 -0.2 5000022.3214
17.592840000000002 -3.3 -0.2 5000022.3214
15.15888 -3.4 -0.2 5000018.2648
13.4736 -3.46 -0.2 5000015.456
17.592840000000002 -3.7 -0.2 5000022.3214
17.592840000000002 -3.74 -0.2 5000022.3214
17.592840000000002 -3.76 -0.2 5000022.3214
15.15888 -3.84 -0.2 5000018.2648
21.41664 -4.54 -0.2 5000028.6944
28.29636 -4.58 -0.2 5000040.1606
21.41664 -4.6 -0.2 5000028.6944
21.41664 -5.14 -0.2 5000028.6944
21.41664 -5.16 -0.2 5000028.6944
21.41664 -6.28 -0.2 5000028.6944
21.41664 -6.32 -0.2 5000028.6944
21.41664 -6.38 -0.2 5000028.6944
17.592840000000002 5.76 -0.22 5000022.3214
17.592840000000002 5.74 -0.22 5000022.3214
17.592840000000002 5.22 -0.22 5000022.3214
17.592840000000002 4.42 -0.22 5000022.3214
17.592840000000002 4.4 -0.22 5000022.3214
21.41664 3.6 -0.22 5000028.6944
9.941628000000001 3.12 -0.22 5000009.56938
9.941628000000001 3.1 -0.22 5000009.56938
17.592840000000002 1.7 -0.22 5000022.3214
17.592840000000002 1.68 -0.22 5000022.3214
17.592840000000002 0.22 -0.22 5000022.3214
17.592840000000002 0.18 -0.22 5000022.3214
17.592840000000002 -0.04 -0.22 5000022.3214
17.592840000000002 -0.06 -0.22 5000022.3214
124.19999999999999 -0.1 -0.22 5000200.0
17.592840000000002 -0.36 -0.22 5000022.3214
17.592840000000002 -0.38 -0.22 5000022.3214
28.29636 -0.6 -0.22 5000040.1606
17.592840000000002 -0.66 -0.22 5000022.3214
17.592840000000002 -0.7 -0.22 5000022.3214
15.15888 -0.78 -0.22 5000018.2648
12.23748 -0.88 -0.22 5000013.3958
10.54584 -0.96 -0.22 5000010.5764
9.941628000000001 -1.06 -0.22 5000009.56938
9.941628000000001 -1.08 -0.22 5000009.56938
9.023147999999999 -1.2 -0.22 5000008.03858
9.023147999999999 -1.22 -0.22 5000008.03858
21.41664 -1.58 -0.22 5000028.6944
15.15888 -1.72 -0.22 5000018.2648
28.29636 -1.92 -0.22 5000040.1606
21.41664 -2.04 -0.22 5000028.6944
21.41664 -2.66 -0.22 5000028.6944
21.41664 -2.7 -0.22 5000028.6944
17.592840000000002 -3.3 -0.22 5000022.3214
17.592840000000002 -3.4 -0.22 5000022.3214
15.15888 -3.42 -0.22 5000018.2648
13.4736 -3.46 -0.22 5000015.456
17.592840000000002 -3.78 -0.22 5000022.3214
15.15888 -3.86 -0.22 5000018.2648
28.29636 -4.48 -0.22 5000040.1606
28.29636 -4.5 -0.22 5000040.1606
21.41664 -4.54 -0.22 5000028.6944
21.41664 -4.56 -0.22 5000028.6944
21.41664 -6.38 -0.22 5000028.6944
17.592840000000002 5.76 -0.24 5000022.3214
21.41664 5.56 -0.24 5000028.6944
21.41664 5.52 -0.24 5000028.6944
124.19999999999999 5.44 -0.24 5000200.0
44.33376 5.36 -0.24 5000066.8896
17.592840000000002 5.22 -0.24 5000022.3214
17.592840000000002 4.42 -0.24 5000022.3214
17.592840000000002 4.4 -0.24 5000022.3214
21.41664 3.6 -0.24 5000028.6944
21.41664 3.52 -0.24 5000028.6944
9.941628000000001 3.1 -0.24 5000009.56938
17.592840000000002 1.7 -0.24 5000022.3214
17.592840000000002 1.68 -0.24 5000022.3214
17.592840000000002 0.22 -0.24 5000022.3214
17.592840000000002 0.18 -0.24 5000022.3214
17.592840000000002 -0.04 -0.24 5000022.3214
17.592840000000002 -0.06 -0.24 5000022.3214
17.592840000000002 -0.1 -0.24 5000022.3214
17.592840000000002 -0.32 -0.24 5000022.3214
17.592840000000002 -0.36 -0.24 5000022.3214
15.15888 -0.46 -0.24 5000018.2648
28.29636 -0.6 -0.24 5000040.1606
17.592840000000002 -0.7 -0.24 5000022.3214
17.592840000000002 -0.72 -0.24 5000022.3214
15.15888 -0.8 -0.24 5000018.2648
12.23748 -0.88 -0.24 5000013.3958
9.941628000000001 -1.06 -0.24 5000009.56938
9.941628000000001 -1.08 -0.24 5000009.56938
9.023147999999999 -1.2 -0.24 5000008.03858
9.023147999999999 -1.22 -0.24 5000008.03858
21.41664 -1.58 -0.24 5000028.6944
15.15888 -1.7 -0.24 5000018.2648
28.29636 -1.86 -0.24 5000040.1606
21.41664 -1.92 -0.24 5000028.6944
21.41664 -2.04 -0.24 5000028.6944
13.4736 -2.14 -0.24 5000015.456
21.41664 -2.22 -0.24 5000028.6944
21.41664 -2.84 -0.24 5000028.6944
17.592840000000002 -3.3 -0.24 5000022.3214
17.592840000000002 -3.38 -0.24 5000022.3214
17.592840000000002 -3.42 -0.24 5000022.3214
28.29636 -3.64 -0.24 5000040.1606
17.592840000000002 -3.76 -0.24 5000022.3214
17.592840000000002 -3.8 -0.24 5000022.3214
28.29636 -4.46 -0.24 5000040.1606
28.29636 -4.5 -0.24 5000040.1606
17.592840000000002 5.7 -0.26 5000022.3214
17.592840000000002 5.68 -0.26 5000022.3214
17.592840000000002 5.22 -0.26 5000022.3214
17.592840000000002 4.42 -0.26 5000022.3214
17.592840000000002 4.4 -0.26 5000022.3214
17.592840000000002 4.38 -0.26 5000022.3214
21.41664 3.62 -0.26 5000028.6944
21.41664 3.6 -0.26 5000028.6944
21.41664 3.52 -0.26 5000028.6944
17.592840000000002 1.7 -0.26 5000022.3214
17.592840000000002 1.68 -0.26 5000022.3214
17.592840000000002 0.22 -0.26 5000022.3214
44.33376 0.12 -0.26 5000066.8896
44.33376 0.1 -0.26 5000066.8896
28.29636 0.06 -0.26 5000040.1606
17.592840000000002 0.0 -0.26 5000022.3214
17.592840000000002 -0.04 -0.26 5000022.3214
17.592840000000002 -0.06 -0.26 5000022.3214
17.592840000000002 -0.1 -0.26 5000022.3214
17.592840000000002 -0.32 -0.26 5000022.3214
17.592840000000002 -0.34 -0.26 5000022.3214
17.592840000000002 -0.36 -0.26 5000022.3214
124.19999999999999 -0.42 -0.26 5000200.0
28.29636 -0.56 -0.26 5000040.1606
28.29636 -0.6 -0.26 5000040.1606
17.592840000000002 -0.72 -0.26 5000022.3214
17.592840000000002 -0.74 -0.26 5000022.3214
15.15888 -0.82 -0.26 5000018.2648
13.4736 -0.88 -0.26 5000015.456
9.941628000000001 -1.06 -0.26 5000009.56938
9.941628000000001 -1.08 -0.26 5000009.56938
9.023147999999999 -1.2 -0.26 5000008.03858
21.41664 -1.58 -0.26 5000028.6944
21.41664 -1.68 -0.26 5000028.6944
28.29636 -1.86 -0.26 5000040.1606
21.41664 -1.92 -0.26 5000028.6944
21.41664 -2.06 -0.26 5000028.6944
13.4736 -2.14 -0.26 5000015.456
21.41664 -2.22 -0.26 5000028.6944
21.41664 -2.64 -0.26 5000028.6944
21.41664 -2.84 -0.26 5000028.6944
17.592840000000002 -2.92 -0.26 5000022.3214
124.19999999999999 -3.02 -0.26 5000200.0
124.19999999999999 -3.04 -0.26 5000200.0
44.33376 -3.22 -0.26 5000066.8896
17.592840000000002 -3.3 -0.26 5000022.3214
21.41664 -3.38 -0.26 5000028.6944
13.4736 -3.46 -0.26 5000015.456
44.33376 -3.58 -0.26 5000066.8896
17.592840000000002 -3.82 -0.26 5000022.3214
21.41664 -4.66 -0.26 5000028.6944
17.592840000000002 5.68 -0.28 5000022.3214
17.592840000000002 5.22 -0.28 5000022.3214
17.592840000000002 4.42 -0.28 5000022.3214
17.592840000000002 4.4 -0.28 5000022.3214
17.592840000000002 4.38 -0.28 5000022.3214
17.592840000000002 4.22 -0.28 5000022.3214
21.41664 3.6 -0.28 5000028.6944
21.41664 3.52 -0.28 5000028.6944
9.941628000000001 3.12 -0.28 5000009.56938
17.592840000000002 1.7 -0.28 5000022.3214
17.592840000000002 1.68 -0.28 5000022.3214
17.592840000000002 0.22 -0.28 5000022.3214
44.33376 0.14 -0.28 5000066.8896
44.33376 0.12 -0.28 5000066.8896
44.33376 0.1 -0.28 5000066.8896
44.33376 0.08 -0.28 5000066.8896
28.29636 0.06 -0.28 5000040.1606
21.41664 0.02 -0.28 5000028.6944
17.592840000000002 0.0 -0.28 5000022.3214
17.592840000000002 -0.06 -0.28 5000022.3214
17.592840000000002 -0.36 -0.28 5000022.3214
124.19999999999999 -0.5 -0.28 5000200.0
13.4736 -0.52 -0.28 5000015.456
17.592840000000002 -0.74 -0.28 5000022.3214
17.592840000000002 -0.76 -0.28 5000022.3214
15.15888 -0.84 -0.28 5000018.2648
9.941628000000001 -1.08 -0.28 5000009.56938
21.41664 -1.58 -0.28 5000028.6944
21.41664 -1.66 -0.28 5000028.6944
28.29636 -1.84 -0.28 5000040.1606
21.41664 -1.92 -0.28 5000028.6944
10.54584 -1.98 -0.28 5000010.5764
13.4736 -2.14 -0.28 5000015.456
21.41664 -2.22 -0.28 5000028.6944
21.41664 -2.64 -0.28 5000028.6944
21.41664 -2.84 -0.28 5000028.6944
124.19999999999999 -3.0 -0.28 5000200.0
124.19999999999999 -3.02 -0.28 5000200.0
124.19999999999999 -3.04 -0.28 5000200.0
44.33376 -3.06 -0.28 5000066.8896
44.33376 -3.1 -0.28 5000066.8896
44.33376 -3.22 -0.28 5000066.8896
21.41664 -3.24 -0.28 5000028.6944
17.592840000000002 -3.28 -0.28 5000022.3214
17.592840000000002 -3.3 -0.28 5000022.3214
21.41664 -3.4 -0.28 5000028.6944
13.4736 -3.44 -0.28 5000015.456
13.4736 -3.46 -0.28 5000015.456
13.4736 -3.48 -0.28 5000015.456
28.29636 -3.68 -0.28 5000040.1606
21.41664 -3.78 -0.28 5000028.6944
17.592840000000002 -3.82 -0.28 5000022.3214
17.592840000000002 -3.84 -0.28 5000022.3214
21.41664 -4.54 -0.28 5000028.6944
21.41664 -4.66 -0.28 5000028.6944
28.29636 -5.56 -0.28 5000040.1606
17.592840000000002 5.56 -0.3 5000022.3214
17.592840000000002 5.22 -0.3 5000022.3214
17.592840000000002 4.42 -0.3 5000022.3214
17.592840000000002 4.4 -0.3 5000022.3214
21.41664 3.6 -0.3 5000028.6944
21.41664 3.52 -0.3 5000028.6944
21.41664 3.48 -0.3 5000028.6944
21.41664 3.46 -0.3 5000028.6944
9.941628000000001 3.12 -0.3 5000009.56938
9.941628000000001 2.84 -0.3 5000009.56938
17.592840000000002 1.7 -0.3 5000022.3214
17.592840000000002 1.68 -0.3 5000022.3214
17.592840000000002 1.66 -0.3 5000022.3214
17.592840000000002 1.22 -0.3 5000022.3214
17.592840000000002 0.22 -0.3 5000022.3214
44.33376 0.12 -0.3 5000066.8896
28.29636 0.06 -0.3 5000040.1606
21.41664 0.04 -0.3 5000028.6944
17.592840000000002 -0.04 -0.3 5000022.3214
17.592840000000002 -0.06 -0.3 5000022.3214
10.54584 -0.34 -0.3 5000010.5764
17.592840000000002 -0.4 -0.3 5000022.3214
28.29636 -0.64 -0.3 5000040.1606
17.592840000000002 -0.76 -0.3 5000022.3214
17.592840000000002 -0.78 -0.3 5000022.3214
15.15888 -0.86 -0.3 5000018.2648
10.54584 -1.08 -0.3 5000010.5764
124.19999999999999 -1.38 -0.3 5000200.0
21.41664 -1.58 -0.3 5000028.6944
21.41664 -1.92 -0.3 5000028.6944
13.4736 -2.14 -0.3 5000015.456
21.41664 -2.54 -0.3 5000028.6944
21.41664 -2.64 -0.3 5000028.6944
21.41664 -2.84 -0.3 5000028.6944
44.33376 -3.18 -0.3 5000066.8896
17.592840000000002 -3.28 -0.3 5000022.3214
17.592840000000002 -3.3 -0.3 5000022.3214
13.4736 -3.48 -0.3 5000015.456
12.23748 -3.52 -0.3 5000013.3958
21.41664 -3.78 -0.3 5000028.6944
17.592840000000002 -3.86 -0.3 5000022.3214
15.15888 -3.96 -0.3 5000018.2648
124.19999999999999 -4.28 -0.3 5000200.0
28.29636 -4.34 -0.3 5000040.1606
21.41664 -4.36 -0.3 5000028.6944
28.29636 -4.44 -0.3 5000040.1606
21.41664 -4.52 -0.3 5000028.6944
21.41664 -4.54 -0.3 5000028.6944
21.41664 -4.66 -0.3 5000028.6944
21.41664 -5.42 -0.3 5000028.6944
21.41664 -5.62 -0.3 5000028.6944
21.41664 -5.88 -0.3 5000028.6944
17.592840000000002 5.56 -0.32 5000022.3214
17.592840000000002 5.22 -0.32 5000022.3214
17.592840000000002 4.42 -0.32 5000022.3214
17.592840000000002 4.4 -0.32 5000022.3214
21.41664 3.6 -0.32 5000028.6944
21.41664 3.52 -0.32 5000028.6944
9.941628000000001 3.12 -0.32 5000009.56938
9.941628000000001 2.84 -0.32 5000009.56938
17.592840000000002 1.7 -0.32 5000022.3214
17.592840000000002 1.68 -0.32 5000022.3214
17.592840000000002 1.66 -0.32 5000022.3214
17.592840000000002 0.22 -0.32 5000022.3214
17.592840000000002 0.18 -0.32 5000022.3214
124.19999999999999 0.16 -0.32 5000200.0
17.592840000000002 -0.04 -0.32 5000022.3214
17.592840000000002 -0.06 -0.32 5000022.3214
10.54584 -0.34 -0.32 5000010.5764
17.592840000000002 -0.38 -0.32 5000022.3214
17.592840000000002 -0.4 -0.32 5000022.3214
28.29636 -0.62 -0.32 5000040.1606
28.29636 -0.64 -0.32 5000040.1606
28.29636 -0.68 -0.32 5000040.1606
17.592840000000002 -0.76 -0.32 5000022.3214
17.592840000000002 -0.78 -0.32 5000022.3214
17.592840000000002 -0.8 -0.32 5000022.3214
15.15888 -0.88 -0.32 5000018.2648
21.41664 -2.64 -0.32 5000028.6944
21.41664 -2.84 -0.32 5000028.6944
17.592840000000002 -2.92 -0.32 5000022.3214
21.41664 -3.24 -0.32 5000028.6944
17.592840000000002 -3.3 -0.32 5000022.3214
12.23748 -3.54 -0.32 5000013.3958
12.23748 -3.56 -0.32 5000013.3958
21.41664 -3.74 -0.32 5000028.6944
17.592840000000002 -3.88 -0.32 5000022.3214
124.19999999999999 -4.26 -0.32 5000200.0
28.29636 -4.32 -0.32 5000040.1606
21.41664 -4.36 -0.32 5000028.6944
21.41664 -4.38 -0.32 5000028.6944
28.29636 -4.42 -0.32 5000040.1606
21.41664 -4.52 -0.32 5000028.6944
13.4736 -4.6 -0.32 5000015.456
21.41664 -4.66 -0.32 5000028.6944
21.41664 -5.22 -0.32 5000028.6944
21.41664 -5.38 -0.32 5000028.6944
21.41664 -5.42 -0.32 5000028.6944
28.29636 -5.58 -0.32 5000040.1606
21.41664 -5.64 -0.32 5000028.6944
21.41664 -5.88 -0.32 5000028.6944
21.41664 -5.9 -0.32 5000028.6944
17.592840000000002 5.86 -0.34 5000022.3214
17.592840000000002 5.22 -0.34 5000022.3214
17.592840000000002 4.88 -0.34 5000022.3214
17.592840000000002 4.42 -0.34 5000022.3214
17.592840000000002 4.4 -0.34 5000022.3214
21.41664 3.62 -0.34 5000028.6944
21.41664 3.6 -0.34 5000028.6944
21.41664 3.52 -0.34 5000028.6944
9.941628000000001 2.84 -0.34 5000009.56938
17.592840000000002 1.68 -0.34 5000022.3214
17.592840000000002 1.66 -0.34 5000022.3214
17.592840000000002 0.22 -0.34 5000022.3214
124.19999999999999 0.18 -0.34 5000200.0
124.19999999999999 0.16 -0.34 5000200.0
17.592840000000002 -0.04 -0.34 5000022.3214
17.592840000000002 -0.06 -0.34 5000022.3214
10.54584 -0.34 -0.34 5000010.5764
17.592840000000002 -0.36 -0.34 5000022.3214
17.592840000000002 -0.38 -0.34 5000022.3214
44.33376 -0.4 -0.34 5000066.8896
44.33376 -0.62 -0.34 5000066.8896
28.29636 -0.64 -0.34 5000040.1606
28.29636 -0.68 -0.34 5000040.1606
28.29636 -0.7 -0.34 5000040.1606
17.592840000000002 -0.76 -0.34 5000022.3214
17.592840000000002 -0.78 -0.34 5000022.3214
17.592840000000002 -0.8 -0.34 5000022.3214
17.592840000000002 -0.82 -0.34 5000022.3214
15.15888 -0.88 -0.34 5000018.2648
13.4736 -0.9 -0.34 5000015.456
17.592840000000002 -3.3 -0.34 5000022.3214
17.592840000000002 -3.9 -0.34 5000022.3214
13.4736 -4.06 -0.34 5000015.456
17.592840000000002 -4.08 -0.34 5000022.3214
124.19999999999999 -4.24 -0.34 5000200.0
44.33376 -4.3 -0.34 5000066.8896
21.41664 -4.34 -0.34 5000028.6944
21.41664 -4.36 -0.34 5000028.6944
28.29636 -4.42 -0.34 5000040.1606
21.41664 -4.5 -0.34 5000028.6944
21.41664 -4.52 -0.34 5000028.6944
15.15888 -4.64 -0.34 5000018.2648
21.41664 -5.22 -0.34 5000028.6944
21.41664 -5.42 -0.34 5000028.6944
21.41664 -5.44 -0.34 5000028.6944
21.41664 -5.66 -0.34 5000028.6944
28.29636 -6.44 -0.34 5000040.1606
17.592840000000002 5.22 -0.36 5000022.3214
17.592840000000002 4.88 -0.36 5000022.3214
17.592840000000002 4.42 -0.36 5000022.3214
17.592840000000002 4.4 -0.36 5000022.3214
17.592840000000002 4.12 -0.36 5000022.3214
17.592840000000002 3.62 -0.36 5000022.3214
17.592840000000002 3.6 -0.36 5000022.3214
21.41664 3.52 -0.36 5000028.6944
17.592840000000002 1.7 -0.36 5000022.3214
17.592840000000002 1.64 -0.36 5000022.3214
17.592840000000002 1.26 -0.36 5000022.3214
17.592840000000002 0.5 -0.36 5000022.3214
17.592840000000002 0.46 -0.36 5000022.3214
17.592840000000002 0.44 -0.36 5000022.3214
17.592840000000002 0.22 -0.36 5000022.3214
17.592840000000002 -0.04 -0.36 5000022.3214
17.592840000000002 -0.06 -0.36 5000022.3214
17.592840000000002 -0.4 -0.36 5000022.3214
44.33376 -0.44 -0.36 5000066.8896
44.33376 -0.5 -0.36 5000066.8896
44.33376 -0.62 -0.36 5000066.8896
28.29636 -0.64 -0.36 5000040.1606
28.29636 -0.68 -0.36 5000040.1606
28.29636 -0.7 -0.36 5000040.1606
17.592840000000002 -0.8 -0.36 5000022.3214
17.592840000000002 -0.82 -0.36 5000022.3214
13.4736 -0.92 -0.36 5000015.456
13.4736 -0.94 -0.36 5000015.456
21.41664 -3.22 -0.36 5000028.6944
17.592840000000002 -3.3 -0.36 5000022.3214
17.592840000000002 -3.86 -0.36 5000022.3214
17.592840000000002 -3.9 -0.36 5000022.3214
17.592840000000002 -3.92 -0.36 5000022.3214
21.41664 -4.04 -0.36 5000028.6944
17.592840000000002 -4.1 -0.36 5000022.3214
124.19999999999999 -4.22 -0.36 5000200.0
21.41664 -4.34 -0.36 5000028.6944
28.29636 -4.44 -0.36 5000040.1606
21.41664 -4.5 -0.36 5000028.6944
21.41664 -4.52 -0.36 5000028.6944
15.15888 -4.64 -0.36 5000018.2648
28.29636 -5.12 -0.36 5000040.1606
28.29636 -5.14 -0.36 5000040.1606
21.41664 -5.22 -0.36 5000028.6944
28.29636 -6.06 -0.36 5000040.1606
21.41664 -6.16 -0.36 5000028.6944
21.41664 -6.3 -0.36 5000028.6944
17.592840000000002 5.6 -0.38 5000022.3214
17.592840000000002 5.22 -0.38 5000022.3214
17.592840000000002 4.88 -0.38 5000022.3214
17.592840000000002 4.42 -0.38 5000022.3214
17.592840000000002 4.4 -0.38 5000022.3214
17.592840000000002 3.6 -0.38 5000022.3214
9.941628000000001 2.86 -0.38 5000009.56938
9.941628000000001 2.74 -0.38 5000009.56938
21.41664 1.7 -0.38 5000028.6944
17.592840000000002 1.68 -0.38 5000022.3214
17.592840000000002 1.64 -0.38 5000022.3214
17.592840000000002 1.62 -0.38 5000022.3214
124.19999999999999 1.5 -0.38 5000200.0
9.941628000000001 1.32 -0.38 5000009.56938
17.592840000000002 1.26 -0.38 5000022.3214
17.592840000000002 1.24 -0.38 5000022.3214
17.592840000000002 1.22 -0.38 5000022.3214
17.592840000000002 0.46 -0.38 5000022.3214
17.592840000000002 0.44 -0.38 5000022.3214
44.33376 -0.42 -0.38 5000066.8896
44.33376 -0.44 -0.38 5000066.8896
44.33376 -0.46 -0.38 5000066.8896
44.33376 -0.64 -0.38 5000066.8896
17.592840000000002 -0.82 -0.38 5000022.3214
17.592840000000002 -0.84 -0.38 5000022.3214
13.4736 -0.94 -0.38 5000015.456
13.4736 -0.96 -0.38 5000015.456
11.29218 -1.08 -0.38 5000011.8203
9.941628000000001 -1.2 -0.38 5000009.56938
124.19999999999999 -1.4 -0.38 5000200.0
21.41664 -1.56 -0.38 5000028.6944
21.41664 -3.22 -0.38 5000028.6944
17.592840000000002 -3.3 -0.38 5000022.3214
13.4736 -3.46 -0.38 5000015.456
13.4736 -3.48 -0.38 5000015.456
44.33376 -3.7 -0.38 5000066.8896
44.33376 -3.72 -0.38 5000066.8896
17.592840000000002 -3.88 -0.38 5000022.3214
17.592840000000002 -3.92 -0.38 5000022.3214
17.592840000000002 -3.94 -0.38 5000022.3214
21.41664 -4.06 -0.38 5000028.6944
17.592840000000002 -4.12 -0.38 5000022.3214
21.41664 -4.5 -0.38 5000028.6944
21.41664 -4.52 -0.38 5000028.6944
21.41664 -4.7 -0.38 5000028.6944
28.29636 -5.16 -0.38 5000040.1606
21.41664 -5.2 -0.38 5000028.6944
21.41664 -5.22 -0.38 5000028.6944
21.41664 -5.44 -0.38 5000028.6944
21.41664 -5.7 -0.38 5000028.6944
21.41664 -6.3 -0.38 5000028.6944
17.592840000000002 5.22 -0.4 5000022.3214
17.592840000000002 4.88 -0.4 5000022.3214
17.592840000000002 4.42 -0.4 5000022.3214
17.592840000000002 4.4 -0.4 5000022.3214
17.592840000000002 3.6 -0.4 5000022.3214
21.41664 3.52 -0.4 5000028.6944
9.941628000000001 2.92 -0.4 5000009.56938
21.41664 1.8 -0.4 5000028.6944
28.29636 1.76 -0.4 5000040.1606
28.29636 1.74 -0.4 5000040.1606
21.41664 1.7 -0.4 5000028.6944
17.592840000000002 1.62 -0.4 5000022.3214
17.592840000000002 1.6 -0.4 5000022.3214
9.442464 1.4 -0.4 5000008.73744
9.442464 1.38 -0.4 5000008.73744
9.941628000000001 1.36 -0.4 5000009.56938
17.592840000000002 1.24 -0.4 5000022.3214
17.592840000000002 0.46 -0.4 5000022.3214
17.592840000000002 -0.82 -0.4 5000022.3214
17.592840000000002 -0.84 -0.4 5000022.3214
11.29218 -1.08 -0.4 5000011.8203
9.941628000000001 -1.2 -0.4 5000009.56938
9.941628000000001 -1.22 -0.4 5000009.56938
21.41664 -3.22 -0.4 5000028.6944
17.592840000000002 -3.3 -0.4 5000022.3214
17.592840000000002 -3.94 -0.4 5000022.3214
21.41664 -4.08 -0.4 5000028.6944
17.592840000000002 -4.12 -0.4 5000022.3214
17.592840000000002 -4.14 -0.4 5000022.3214
21.41664 -4.34 -0.4 5000028.6944
21.41664 -4.5 -0.4 5000028.6944
21.41664 -4.7 -0.4 5000028.6944
21.41664 -5.22 -0.4 5000028.6944
21.41664 -5.24 -0.4 5000028.6944
21.41664 -5.44 -0.4 5000028.6944
21.41664 -5.98 -0.4 5000028.6944
21.41664 -6.0 -0.4 5000028.6944
21.41664 -6.3 -0.4 5000028.6944
17.592840000000002 5.58 -0.42 5000022.3214
17.592840000000002 5.22 -0.42 5000022.3214
17.592840000000002 4.88 -0.42 5000022.3214
17.592840000000002 4.42 -0.42 5000022.3214
17.592840000000002 4.4 -0.42 5000022.3214
17.592840000000002 4.34 -0.42 5000022.3214
17.592840000000002 4.28 -0.42 5000022.3214
17.592840000000002 3.6 -0.42 5000022.3214
21.41664 3.52 -0.42 5000028.6944
21.41664 1.94 -0.42 5000028.6944
21.41664 1.82 -0.42 5000028.6944
21.41664 1.8 -0.42 5000028.6944
28.29636 1.74 -0.42 5000040.1606
17.592840000000002 1.62 -0.42 5000022.3214
17.592840000000002 1.6 -0.42 5000022.3214
11.29218 -0.64 -0.42 5000011.8203
11.29218 -0.66 -0.42 5000011.8203
21.41664 -0.74 -0.42 5000028.6944
21.41664 -0.76 -0.42 5000028.6944
17.592840000000002 -0.84 -0.42 5000022.3214
17.592840000000002 -0.86 -0.42 5000022.3214
15.15888 -1.02 -0.42 5000018.2648
9.941628000000001 -1.2 -0.42 5000009.56938
9.941628000000001 -1.22 -0.42 5000009.56938
124.19999999999999 -1.36 -0.42 5000200.0
28.29636 -3.16 -0.42 5000040.1606
21.41664 -3.22 -0.42 5000028.6944
17.592840000000002 -3.3 -0.42 5000022.3214
21.41664 -4.1 -0.42 5000028.6944
17.592840000000002 -4.14 -0.42 5000022.3214
21.41664 -4.32 -0.42 5000028.6944
21.41664 -4.36 -0.42 5000028.6944
21.41664 -4.5 -0.42 5000028.6944
21.41664 -4.66 -0.42 5000028.6944
21.41664 -5.22 -0.42 5000028.6944
21.41664 -5.24 -0.42 5000028.6944
21.41664 -5.44 -0.42 5000028.6944
28.29636 -5.66 -0.42 5000040.1606
21.41664 -5.74 -0.42 5000028.6944
21.41664 -5.76 -0.42 5000028.6944
21.41664 -6.3 -0.42 5000028.6944
21.41664 -6.32 -0.42 5000028.6944
17.592840000000002 5.9 -0.44 5000022.3214
17.592840000000002 5.22 -0.44 5000022.3214
17.592840000000002 5.08 -0.44 5000022.3214
17.592840000000002 4.42 -0.44 5000022.3214
17.592840000000002 4.4 -0.44 5000022.3214
21.41664 4.06 -0.44 5000028.6944
21.41664 3.6 -0.44 5000028.6944
12.23748 3.42 -0.44 5000013.3958
12.23748 3.38 -0.44 5000013.3958
17.592840000000002 2.16 -0.44 5000022.3214
21.41664 1.82 -0.44 5000028.6944
21.41664 1.8 -0.44 5000028.6944
17.592840000000002 1.66 -0.44 5000022.3214
17.592840000000002 1.6 -0.44 5000022.3214
21.41664 -0.14 -0.44 5000028.6944
21.41664 -0.16 -0.44 5000028.6944
44.33376 -0.2 -0.44 5000066.8896
44.33376 -0.22 -0.44 5000066.8896
21.41664 -0.32 -0.44 5000028.6944
17.592840000000002 -0.34 -0.44 5000022.3214
17.592840000000002 -0.38 -0.44 5000022.3214
17.592840000000002 -0.4 -0.44 5000022.3214
11.29218 -0.62 -0.44 5000011.8203
11.29218 -0.64 -0.44 5000011.8203
17.592840000000002 -0.74 -0.44 5000022.3214
17.592840000000002 -0.76 -0.44 5000022.3214
17.592840000000002 -0.82 -0.44 5000022.3214
12.23748 -0.96 -0.44 5000013.3958
12.23748 -0.98 -0.44 5000013.3958
15.15888 -1.02 -0.44 5000018.2648
12.23748 -1.04 -0.44 5000013.3958
9.941628000000001 -1.2 -0.44 5000009.56938
9.941628000000001 -1.22 -0.44 5000009.56938
124.19999999999999 -1.36 -0.44 5000200.0
124.19999999999999 -1.38 -0.44 5000200.0
17.592840000000002 -1.62 -0.44 5000022.3214
28.29636 -3.16 -0.44 5000040.1606
21.41664 -3.22 -0.44 5000028.6944
17.592840000000002 -3.3 -0.44 5000022.3214
17.592840000000002 -4.16 -0.44 5000022.3214
44.33376 -4.22 -0.44 5000066.8896
21.41664 -4.36 -0.44 5000028.6944
17.592840000000002 -4.42 -0.44 5000022.3214
21.41664 -4.48 -0.44 5000028.6944
21.41664 -4.66 -0.44 5000028.6944
21.41664 -5.22 -0.44 5000028.6944
21.41664 -5.24 -0.44 5000028.6944
17.592840000000002 -5.3 -0.44 5000022.3214
21.41664 -5.44 -0.44 5000028.6944
28.29636 -5.66 -0.44 5000040.1606
21.41664 -5.76 -0.44 5000028.6944
21.41664 -6.32 -0.44 5000028.6944
17.592840000000002 5.9 -0.46 5000022.3214
44.33376 5.36 -0.46 5000066.8896
17.592840000000002 5.22 -0.46 5000022.3214
17.592840000000002 4.88 -0.46 5000022.3214
17.592840000000002 4.42 -0.46 5000022.3214
17.592840000000002 4.38 -0.46 5000022.3214
21.41664 4.06 -0.46 5000028.6944
21.41664 4.04 -0.46 5000028.6944
21.41664 3.6 -0.46 5000028.6944
9.941628000000001 2.8 -0.46 5000009.56938
21.41664 1.82 -0.46 5000028.6944
21.41664 1.8 -0.46 5000028.6944
13.4736 1.66 -0.46 5000015.456
17.592840000000002 1.6 -0.46 5000022.3214
28.29636 -0.08 -0.46 5000040.1606
21.41664 -0.14 -0.46 5000028.6944
21.41664 -0.16 -0.46 5000028.6944
44.33376 -0.2 -0.46 5000066.8896
44.33376 -0.22 -0.46 5000066.8896
21.41664 -0.32 -0.46 5000028.6944
17.592840000000002 -0.34 -0.46 5000022.3214
17.592840000000002 -0.38 -0.46 5000022.3214
17.592840000000002 -0.4 -0.46 5000022.3214
11.29218 -0.62 -0.46 5000011.8203
11.29218 -0.64 -0.46 5000011.8203
17.592840000000002 -0.74 -0.46 5000022.3214
17.592840000000002 -0.82 -0.46 5000022.3214
12.23748 -0.94 -0.46 5000013.3958
12.23748 -0.96 -0.46 5000013.3958
12.23748 -1.04 -0.46 5000013.3958
9.941628000000001 -1.2 -0.46 5000009.56938
124.19999999999999 -1.36 -0.46 5000200.0
17.592840000000002 -1.62 -0.46 5000022.3214
21.41664 -3.22 -0.46 5000028.6944
17.592840000000002 -3.3 -0.46 5000022.3214
21.41664 -4.12 -0.46 5000028.6944
21.41664 -4.36 -0.46 5000028.6944
17.592840000000002 -4.42 -0.46 5000022.3214
21.41664 -4.44 -0.46 5000028.6944
28.29636 -5.14 -0.46 5000040.1606
21.41664 -5.24 -0.46 5000028.6944
21.41664 -5.44 -0.46 5000028.6944
28.29636 -5.62 -0.46 5000040.1606
21.41664 -5.68 -0.46 5000028.6944
21.41664 -5.76 -0.46 5000028.6944
21.41664 -6.32 -0.46 5000028.6944
17.592840000000002 5.9 -0.48 5000022.3214
17.592840000000002 5.5 -0.48 5000022.3214
17.592840000000002 5.22 -0.48 5000022.3214
17.592840000000002 5.2 -0.48 5000022.3214
17.592840000000002 4.88 -0.48 5000022.3214
17.592840000000002 4.86 -0.48 5000022.3214
17.592840000000002 4.42 -0.48 5000022.3214
21.41664 4.36 -0.48 5000028.6944
21.41664 4.06 -0.48 5000028.6944
21.41664 4.04 -0.48 5000028.6944
21.41664 3.6 -0.48 5000028.6944
9.941628000000001 2.8 -0.48 5000009.56938
21.41664 1.82 -0.48 5000028.6944
21.41664 1.8 -0.48 5000028.6944
17.592840000000002 1.6 -0.48 5000022.3214
17.592840000000002 0.74 -0.48 5000022.3214
21.41664 -0.14 -0.48 5000028.6944
44.33376 -0.2 -0.48 5000066.8896
17.592840000000002 -0.22 -0.48 5000022.3214
13.4736 -0.32 -0.48 5000015.456
17.592840000000002 -0.34 -0.48 5000022.3214
17.592840000000002 -0.38 -0.48 5000022.3214
17.592840000000002 -0.4 -0.48 5000022.3214
9.941628000000001 -0.72 -0.48 5000009.56938
9.941628000000001 -0.74 -0.48 5000009.56938
12.23748 -0.96 -0.48 5000013.3958
12.23748 -1.2 -0.48 5000013.3958
21.41664 -1.36 -0.48 5000028.6944
21.41664 -1.38 -0.48 5000028.6944
21.41664 -3.22 -0.48 5000028.6944
17.592840000000002 -3.3 -0.48 5000022.3214
21.41664 -4.12 -0.48 5000028.6944
17.592840000000002 -4.18 -0.48 5000022.3214
17.592840000000002 -4.2 -0.48 5000022.3214
21.41664 -4.34 -0.48 5000028.6944
21.41664 -4.36 -0.48 5000028.6944
21.41664 -4.7 -0.48 5000028.6944
28.29636 -5.14 -0.48 5000040.1606
28.29636 -5.16 -0.48 5000040.1606
21.41664 -5.24 -0.48 5000028.6944
21.41664 -5.68 -0.48 5000028.6944
21.41664 -6.34 -0.48 5000028.6944
21.41664 -6.36 -0.48 5000028.6944
17.592840000000002 5.9 -0.5 5000022.3214
17.592840000000002 5.52 -0.5 5000022.3214
17.592840000000002 5.5 -0.5 5000022.3214
17.592840000000002 4.42 -0.5 5000022.3214
21.41664 4.36 -0.5 5000028.6944
21.41664 4.06 -0.5 5000028.6944
21.41664 4.04 -0.5 5000028.6944
21.41664 3.6 -0.5 5000028.6944
21.41664 3.56 -0.5 5000028.6944
21.41664 3.52 -0.5 5000028.6944
9.941628000000001 2.8 -0.5 5000009.56938
17.592840000000002 1.6 -0.5 5000022.3214
21.41664 -0.14 -0.5 5000028.6944
21.41664 -0.16 -0.5 5000028.6944
21.41664 -0.2 -0.5 5000028.6944
17.592840000000002 -0.22 -0.5 5000022.3214
13.4736 -0.32 -0.5 5000015.456
17.592840000000002 -0.38 -0.5 5000022.3214
17.592840000000002 -0.4 -0.5 5000022.3214
8.665944 -0.96 -0.5 5000007.44324
7.8540779999999994 -1.08 -0.5 5000006.09013
7.8540779999999994 -1.1 -0.5 5000006.09013
12.23748 -1.2 -0.5 5000013.3958
9.941628000000001 -1.36 -0.5 5000009.56938
9.941628000000001 -1.38 -0.5 5000009.56938
21.41664 -3.22 -0.5 5000028.6944
17.592840000000002 -3.3 -0.5 5000022.3214
21.41664 -4.12 -0.5 5000028.6944
17.592840000000002 -4.18 -0.5 5000022.3214
21.41664 -4.34 -0.5 5000028.6944
28.29636 -4.62 -0.5 5000040.1606
28.29636 -4.64 -0.5 5000040.1606
21.41664 -4.7 -0.5 5000028.6944
28.29636 -5.16 -0.5 5000040.1606
21.41664 -5.22 -0.5 5000028.6944
21.41664 -5.24 -0.5 5000028.6944
28.29636 -5.62 -0.5 5000040.1606
21.41664 -5.68 -0.5 5000028.6944
21.41664 -6.36 -0.5 5000028.6944
17.592840000000002 5.52 -0.52 5000022.3214
17.592840000000002 5.5 -0.52 5000022.3214
17.592840000000002 4.42 -0.52 5000022.3214
21.41664 4.36 -0.52 5000028.6944
21.41664 4.06 -0.52 5000028.6944
21.41664 4.04 -0.52 5000028.6944
21.41664 3.6 -0.52 5000028.6944
21.41664 3.56 -0.52 5000028.6944
21.41664 3.52 -0.52 5000028.6944
9.941628000000001 3.12 -0.52 5000009.56938
21.41664 1.96 -0.52 5000028.6944
21.41664 1.94 -0.52 5000028.6944
124.19999999999999 1.86 -0.52 5000200.0
124.19999999999999 1.84 -0.52 5000200.0
17.592840000000002 1.7 -0.52 5000022.3214
17.592840000000002 1.68 -0.52 5000022.3214
17.592840000000002 1.62 -0.52 5000022.3214
17.592840000000002 1.6 -0.52 5000022.3214
21.41664 -0.14 -0.52 5000028.6944
21.41664 -0.2 -0.52 5000028.6944
13.4736 -0.32 -0.52 5000015.456
17.592840000000002 -0.36 -0.52 5000022.3214
17.592840000000002 -0.38 -0.52 5000022.3214
7.8540779999999994 -1.08 -0.52 5000006.09013
12.23748 -1.2 -0.52 5000013.3958
9.941628000000001 -1.38 -0.52 5000009.56938
21.41664 -1.48 -0.52 5000028.6944
21.41664 -3.22 -0.52 5000028.6944
17.592840000000002 -3.3 -0.52 5000022.3214
21.41664 -4.14 -0.52 5000028.6944
21.41664 -4.18 -0.52 5000028.6944
28.29636 -4.26 -0.52 5000040.1606
28.29636 -4.28 -0.52 5000040.1606
21.41664 -4.34 -0.52 5000028.6944
28.29636 -4.6 -0.52 5000040.1606
28.29636 -4.62 -0.52 5000040.1606
28.29636 -4.64 -0.52 5000040.1606
21.41664 -4.7 -0.52 5000028.6944
21.41664 -5.22 -0.52 5000028.6944
21.41664 -5.24 -0.52 5000028.6944
28.29636 -5.62 -0.52 5000040.1606
21.41664 -5.68 -0.52 5000028.6944
21.41664 -5.7 -0.52 5000028.6944
21.41664 -5.78 -0.52 5000028.6944
21.41664 -6.26 -0.52 5000028.6944
21.41664 -6.36 -0.52 5000028.6944
21.41664 -6.38 -0.52 5000028.6944
17.592840000000002 5.86 -0.54 5000022.3214
17.592840000000002 5.52 -0.54 5000022.3214
17.592840000000002 5.5 -0.54 5000022.3214
17.592840000000002 4.42 -0.54 5000022.3214
21.41664 4.36 -0.54 5000028.6944
21.41664 4.06 -0.54 5000028.6944
21.41664 4.04 -0.54 5000028.6944
21.41664 3.6 -0.54 5000028.6944
21.41664 3.52 -0.54 5000028.6944
9.941628000000001 3.12 -0.54 5000009.56938
21.41664 1.96 -0.54 5000028.6944
21.41664 1.94 -0.54 5000028.6944
124.19999999999999 1.84 -0.54 5000200.0
17.592840000000002 1.7 -0.54 5000022.3214
17.592840000000002 1.68 -0.54 5000022.3214
17.592840000000002 1.62 -0.54 5000022.3214
17.592840000000002 1.6 -0.54 5000022.3214
17.592840000000002 -1.0 -0.54 5000022.3214
7.8540779999999994 -1.08 -0.54 5000006.09013
12.23748 -1.2 -0.54 5000013.3958
9.941628000000001 -1.4 -0.54 5000009.56938
21.41664 -1.48 -0.54 5000028.6944
21.41664 -3.22 -0.54 5000028.6944
17.592840000000002 -3.28 -0.54 5000022.3214
124.19999999999999 -3.84 -0.54 5000200.0
124.19999999999999 -3.86 -0.54 5000200.0
124.19999999999999 -3.88 -0.54 5000200.0
44.33376 -3.9 -0.54 5000066.8896
44.33376 -3.92 -0.54 5000066.8896
21.41664 -4.14 -0.54 5000028.6944
21.41664 -4.18 -0.54 5000028.6944
28.29636 -4.24 -0.54 5000040.1606
28.29636 -4.26 -0.54 5000040.1606
44.33376 -4.56 -0.54 5000066.8896
28.29636 -4.6 -0.54 5000040.1606
28.29636 -4.62 -0.54 5000040.1606
28.29636 -4.64 -0.54 5000040.1606
21.41664 -4.7 -0.54 5000028.6944
21.41664 -5.22 -0.54 5000028.6944
21.41664 -5.24 -0.54 5000028.6944
28.29636 -5.52 -0.54 5000040.1606
21.41664 -5.68 -0.54 5000028.6944
21.41664 -6.26 -0.54 5000028.6944
21.41664 -6.38 -0.54 5000028.6944
44.33376 5.68 -0.56 5000066.8896
28.29636 5.6 -0.56 5000040.1606
28.29636 5.58 -0.56 5000040.1606
17.592840000000002 5.52 -0.56 5000022.3214
17.592840000000002 5.5 -0.56 5000022.3214
21.41664 4.42 -0.56 5000028.6944
21.41664 4.4 -0.56 5000028.6944
21.41664 4.38 -0.56 5000028.6944
21.41664 4.36 -0.56 5000028.6944
21.41664 4.06 -0.56 5000028.6944
21.41664 4.04 -0.56 5000028.6944
21.41664 3.6 -0.56 5000028.6944
21.41664 3.52 -0.56 5000028.6944
9.941628000000001 3.12 -0.56 5000009.56938
9.941628000000001 2.76 -0.56 5000009.56938
21.41664 1.94 -0.56 5000028.6944
21.41664 1.88 -0.56 5000028.6944
17.592840000000002 1.7 -0.56 5000022.3214
17.592840000000002 1.68 -0.56 5000022.3214
17.592840000000002 1.62 -0.56 5000022.3214
17.592840000000002 1.6 -0.56 5000022.3214
44.33376 -1.0 -0.56 5000066.8896
12.23748 -1.2 -0.56 5000013.3958
21.41664 -1.48 -0.56 5000028.6944
17.592840000000002 -1.5 -0.56 5000022.3214
17.592840000000002 -1.52 -0.56 5000022.3214
17.592840000000002 -1.54 -0.56 5000022.3214
21.41664 -1.88 -0.56 5000028.6944
21.41664 -3.24 -0.56 5000028.6944
17.592840000000002 -3.28 -0.56 5000022.3214
17.592840000000002 -3.3 -0.56 5000022.3214
124.19999999999999 -3.64 -0.56 5000200.0
124.19999999999999 -3.66 -0.56 5000200.0
21.41664 -3.74 -0.56 5000028.6944
44.33376 -3.92 -0.56 5000066.8896
21.41664 -3.94 -0.56 5000028.6944
17.592840000000002 -3.98 -0.56 5000022.3214
17.592840000000002 -4.0 -0.56 5000022.3214
21.41664 -4.14 -0.56 5000028.6944
28.29636 -4.2 -0.56 5000040.1606
28.29636 -4.28 -0.56 5000040.1606
44.33376 -4.54 -0.56 5000066.8896
44.33376 -4.56 -0.56 5000066.8896
28.29636 -4.6 -0.56 5000040.1606
28.29636 -4.62 -0.56 5000040.1606
21.41664 -4.7 -0.56 5000028.6944
21.41664 -4.72 -0.56 5000028.6944
21.41664 -5.22 -0.56 5000028.6944
28.29636 -5.52 -0.56 5000040.1606
21.41664 -5.58 -0.56 5000028.6944
21.41664 -5.78 -0.56 5000028.6944
21.41664 -6.26 -0.56 5000028.6944
21.41664 -6.4 -0.56 5000028.6944
17.592840000000002 5.82 -0.58 5000022.3214
17.592840000000002 5.76 -0.58 5000022.3214
17.592840000000002 5.72 -0.58 5000022.3214
17.592840000000002 5.52 -0.58 5000022.3214
17.592840000000002 5.5 -0.58 5000022.3214
17.592840000000002 5.38 -0.58 5000022.3214
21.41664 4.42 -0.58 5000028.6944
21.41664 4.4 -0.58 5000028.6944
21.41664 4.38 -0.58 5000028.6944
21.41664 4.36 -0.58 5000028.6944
21.41664 4.06 -0.58 5000028.6944
21.41664 4.04 -0.58 5000028.6944
21.41664 3.6 -0.58 5000028.6944
10.54584 3.12 -0.58 5000010.5764
21.41664 1.94 -0.58 5000028.6944
21.41664 1.88 -0.58 5000028.6944
21.41664 1.84 -0.58 5000028.6944
13.4736 1.76 -0.58 5000015.456
17.592840000000002 1.72 -0.58 5000022.3214
17.592840000000002 1.6 -0.58 5000022.3214
44.33376 -1.0 -0.58 5000066.8896
17.592840000000002 -1.2 -0.58 5000022.3214
17.592840000000002 -1.52 -0.58 5000022.3214
17.592840000000002 -1.54 -0.58 5000022.3214
17.592840000000002 -1.56 -0.58 5000022.3214
21.41664 -1.88 -0.58 5000028.6944
10.54584 -1.94 -0.58 5000010.5764
28.29636 -3.08 -0.58 5000040.1606
28.29636 -3.1 -0.58 5000040.1606
28.29636 -3.12 -0.58 5000040.1606
28.29636 -3.16 -0.58 5000040.1606
21.41664 -3.24 -0.58 5000028.6944
17.592840000000002 -3.28 -0.58 5000022.3214
17.592840000000002 -3.3 -0.58 5000022.3214
21.41664 -3.72 -0.58 5000028.6944
17.592840000000002 -3.78 -0.58 5000022.3214
21.41664 -3.94 -0.58 5000028.6944
17.592840000000002 -3.98 -0.58 5000022.3214
17.592840000000002 -4.0 -0.58 5000022.3214
28.29636 -4.26 -0.58 5000040.1606
28.29636 -4.62 -0.58 5000040.1606
21.41664 -4.7 -0.58 5000028.6944
21.41664 -4.72 -0.58 5000028.6944
21.41664 -5.22 -0.58 5000028.6944
28.29636 -5.52 -0.58 5000040.1606
21.41664 -5.58 -0.58 5000028.6944
21.41664 -5.78 -0.58 5000028.6944
21.41664 -5.98 -0.58 5000028.6944
21.41664 -6.26 -0.58 5000028.6944
21.41664 -6.4 -0.58 5000028.6944
17.592840000000002 5.52 -0.6 5000022.3214
17.592840000000002 5.5 -0.6 5000022.3214
21.41664 4.42 -0.6 5000028.6944
21.41664 4.38 -0.6 5000028.6944
