VERSION .7
FIELDS x y z rgb
SIZE 4 4 4 4
TYPE F F F F
COUNT 1 1 1 1
WIDTH 1279
HEIGHT 1
VIEWPOINT 0 0 0 1 0 0 0
POINTS 1279
DATA ascii
17.592840000000002 1.36 -0.84 5000022.3214
17.592840000000002 1.34 -0.84 5000022.3214
17.592840000000002 -0.32 -0.84 5000022.3214
17.592840000000002 -0.34 -0.84 5000022.3214
17.592840000000002 -0.44 -0.84 5000022.3214
13.4736 -0.58 -0.84 5000015.456
10.54584 -0.76 -0.84 5000010.5764
9.442464 -0.92 -0.84 5000008.73744
13.4736 -1.02 -0.84 5000015.456
9.941628000000001 -1.3 -0.84 5000009.56938
9.442464 -1.36 -0.84 5000008.73744
8.665944 -1.52 -0.84 5000007.44324
17.592840000000002 -1.54 -0.84 5000022.3214
21.41664 -1.64 -0.84 5000028.6944
17.592840000000002 -1.72 -0.84 5000022.3214
17.592840000000002 -1.74 -0.84 5000022.3214
15.15888 -1.84 -0.84 5000018.2648
21.41664 -2.2 -0.84 5000028.6944
44.33376 -3.12 -0.84 5000066.8896
44.33376 -3.14 -0.84 5000066.8896
21.41664 -3.18 -0.84 5000028.6944
17.592840000000002 -3.2 -0.84 5000022.3214
21.41664 -3.28 -0.84 5000028.6944
21.41664 -3.3 -0.84 5000028.6944
15.15888 -3.46 -0.84 5000018.2648
15.15888 -3.48 -0.84 5000018.2648
11.29218 -3.74 -0.84 5000011.8203
17.592840000000002 5.9 -0.86 5000022.3214
17.592840000000002 5.8 -0.86 5000022.3214
17.592840000000002 5.78 -0.86 5000022.3214
17.592840000000002 4.98 -0.86 5000022.3214
17.592840000000002 4.08 -0.86 5000022.3214
21.41664 2.64 -0.86 5000028.6944
21.41664 2.36 -0.86 5000028.6944
21.41664 1.72 -0.86 5000028.6944
17.592840000000002 1.64 -0.86 5000022.3214
17.592840000000002 1.62 -0.86 5000022.3214
17.592840000000002 1.36 -0.86 5000022.3214
17.592840000000002 1.34 -0.86 5000022.3214
17.592840000000002 -0.32 -0.86 5000022.3214
17.592840000000002 -0.34 -0.86 5000022.3214
17.592840000000002 -0.44 -0.86 5000022.3214
17.592840000000002 -0.46 -0.86 5000022.3214
17.592840000000002 -0.5 -0.86 5000022.3214
13.4736 -0.58 -0.86 5000015.456
10.54584 -0.76 -0.86 5000010.5764
17.592840000000002 -1.54 -0.86 5000022.3214
44.33376 -1.56 -0.86 5000066.8896
21.41664 -1.66 -0.86 5000028.6944
17.592840000000002 -1.68 -0.86 5000022.3214
17.592840000000002 -1.74 -0.86 5000022.3214
17.592840000000002 -1.86 -0.86 5000022.3214
15.15888 -3.52 -0.86 5000018.2648
17.592840000000002 5.92 -0.88 5000022.3214
17.592840000000002 5.9 -0.88 5000022.3214
17.592840000000002 5.86 -0.88 5000022.3214
17.592840000000002 5.8 -0.88 5000022.3214
17.592840000000002 5.78 -0.88 5000022.3214
17.592840000000002 5.46 -0.88 5000022.3214
17.592840000000002 5.44 -0.88 5000022.3214
17.592840000000002 4.96 -0.88 5000022.3214
17.592840000000002 4.1 -0.88 5000022.3214
17.592840000000002 4.08 -0.88 5000022.3214
9.442464 3.58 -0.88 5000008.73744
9.442464 3.56 -0.88 5000008.73744
17.592840000000002 1.64 -0.88 5000022.3214
17.592840000000002 1.36 -0.88 5000022.3214
17.592840000000002 -0.3 -0.88 5000022.3214
17.592840000000002 -0.32 -0.88 5000022.3214
17.592840000000002 -0.44 -0.88 5000022.3214
17.592840000000002 -0.46 -0.88 5000022.3214
17.592840000000002 -0.48 -0.88 5000022.3214
13.4736 -0.56 -0.88 5000015.456
13.4736 -0.58 -0.88 5000015.456
10.54584 -0.76 -0.88 5000010.5764
9.442464 -1.32 -0.88 5000008.73744
44.33376 -1.52 -0.88 5000066.8896
17.592840000000002 -1.54 -0.88 5000022.3214
21.41664 -1.68 -0.88 5000028.6944
17.592840000000002 -1.76 -0.88 5000022.3214
7.004394 -1.98 -0.88 5000004.67399
17.592840000000002 5.8 -0.9 5000022.3214
17.592840000000002 5.78 -0.9 5000022.3214
17.592840000000002 5.46 -0.9 5000022.3214
17.592840000000002 5.44 -0.9 5000022.3214
17.592840000000002 1.64 -0.9 5000022.3214
17.592840000000002 1.62 -0.9 5000022.3214
44.33376 1.3 -0.9 5000066.8896
17.592840000000002 1.16 -0.9 5000022.3214
17.592840000000002 1.14 -0.9 5000022.3214
28.29636 -0.24 -0.9 5000040.1606
21.41664 -0.26 -0.9 5000028.6944
17.592840000000002 -0.36 -0.9 5000022.3214
28.29636 -0.38 -0.9 5000040.1606
17.592840000000002 -0.48 -0.9 5000022.3214
13.4736 -0.56 -0.9 5000015.456
15.15888 -0.72 -0.9 5000018.2648
8.358006 -1.58 -0.9 5000006.93001
17.592840000000002 -1.76 -0.9 5000022.3214
17.592840000000002 -1.78 -0.9 5000022.3214
17.592840000000002 5.78 -0.92 5000022.3214
9.941628000000001 3.38 -0.92 5000009.56938
17.592840000000002 1.74 -0.92 5000022.3214
17.592840000000002 1.7 -0.92 5000022.3214
17.592840000000002 1.62 -0.92 5000022.3214
17.592840000000002 1.6 -0.92 5000022.3214
17.592840000000002 1.38 -0.92 5000022.3214
12.23748 1.22 -0.92 5000013.3958
12.23748 1.2 -0.92 5000013.3958
17.592840000000002 1.14 -0.92 5000022.3214
28.29636 -0.38 -0.92 5000040.1606
28.29636 -0.4 -0.92 5000040.1606
7.2919860000000005 -1.34 -0.92 5000005.15331
17.592840000000002 4.08 -0.94 5000022.3214
9.941628000000001 3.8 -0.94 5000009.56938
9.941628000000001 3.38 -0.94 5000009.56938
17.592840000000002 1.74 -0.94 5000022.3214
17.592840000000002 1.72 -0.94 5000022.3214
17.592840000000002 1.6 -0.94 5000022.3214
17.592840000000002 1.58 -0.94 5000022.3214
17.592840000000002 1.54 -0.94 5000022.3214
17.592840000000002 1.38 -0.94 5000022.3214
28.29636 -0.38 -0.94 5000040.1606
28.29636 -0.4 -0.94 5000040.1606
28.29636 -0.42 -0.94 5000040.1606
11.29218 -0.76 -0.94 5000011.8203
11.29218 -0.78 -0.94 5000011.8203
8.089788 -1.58 -0.94 5000006.48298
9.941628000000001 3.8 -0.96 5000009.56938
9.442464 3.72 -0.96 5000008.73744
9.941628000000001 3.54 -0.96 5000009.56938
9.941628000000001 3.38 -0.96 5000009.56938
17.592840000000002 1.74 -0.96 5000022.3214
11.29218 -0.76 -0.96 5000011.8203
11.29218 -0.78 -0.96 5000011.8203
9.941628000000001 3.8 -0.98 5000009.56938
9.941628000000001 3.54 -0.98 5000009.56938
9.941628000000001 3.38 -0.98 5000009.56938
17.592840000000002 1.64 -0.98 5000022.3214
17.592840000000002 1.62 -0.98 5000022.3214
13.4736 -0.68 -0.98 5000015.456
13.4736 -0.78 -0.98 5000015.456
9.941628000000001 3.8 -1.0 5000009.56938
9.941628000000001 3.38 -1.0 5000009.56938
9.941628000000001 3.36 -1.0 5000009.56938
17.592840000000002 1.62 -1.0 5000022.3214
17.592840000000002 1.6 -1.0 5000022.3214
17.592840000000002 0.34 -1.0 5000022.3214
9.941628000000001 -0.9 -1.0 5000009.56938
9.941628000000001 -0.92 -1.0 5000009.56938
9.941628000000001 3.8 -1.02 5000009.56938
9.941628000000001 3.38 -1.02 5000009.56938
9.941628000000001 3.36 -1.02 5000009.56938
13.4736 -0.8 -1.02 5000015.456
11.29218 -0.9 -1.02 5000011.8203
11.29218 -0.92 -1.02 5000011.8203
17.592840000000002 5.68 -1.04 5000022.3214
9.941628000000001 3.8 -1.04 5000009.56938
9.941628000000001 3.38 -1.04 5000009.56938
9.941628000000001 3.36 -1.04 5000009.56938
13.4736 -0.8 -1.04 5000015.456
11.29218 -0.92 -1.04 5000011.8203
9.941628000000001 3.8 -1.06 5000009.56938
17.592840000000002 2.8 -1.06 5000022.3214
13.4736 -0.8 -1.06 5000015.456
11.29218 -0.92 -1.06 5000011.8203
9.442464 3.64 -1.08 5000008.73744
9.941628000000001 3.5 -1.08 5000009.56938
11.29218 -0.92 -1.08 5000011.8203
17.592840000000002 4.96 -1.1 5000022.3214
9.442464 3.5 -1.1 5000008.73744
9.442464 3.48 -1.1 5000008.73744
13.4736 -0.8 -1.1 5000015.456
15.15888 -1.1 -1.1 5000018.2648
9.442464 3.6 -1.12 5000008.73744
9.442464 3.48 -1.12 5000008.73744
10.54584 3.42 -1.12 5000010.5764
9.941628000000001 3.36 -1.12 5000009.56938
11.29218 -0.92 -1.12 5000011.8203
15.15888 -1.1 -1.12 5000018.2648
9.442464 3.6 -1.14 5000008.73744
9.442464 3.48 -1.14 5000008.73744
9.941628000000001 3.4 -1.14 5000009.56938
9.941628000000001 3.36 -1.14 5000009.56938
9.941628000000001 3.34 -1.14 5000009.56938
11.29218 -0.92 -1.14 5000011.8203
9.941628000000001 3.84 -1.16 5000009.56938
9.941628000000001 3.36 -1.16 5000009.56938
9.941628000000001 3.34 -1.16 5000009.56938
13.4736 5.46 -1.18 5000015.456
9.941628000000001 3.84 -1.18 5000009.56938
9.941628000000001 3.82 -1.18 5000009.56938
9.941628000000001 3.36 -1.18 5000009.56938
9.941628000000001 3.34 -1.18 5000009.56938
11.29218 -0.94 -1.18 5000011.8203
13.4736 5.46 -1.2 5000015.456
9.941628000000001 3.84 -1.2 5000009.56938
9.941628000000001 3.36 -1.2 5000009.56938
9.941628000000001 3.34 -1.2 5000009.56938
13.4736 5.48 -1.22 5000015.456
13.4736 5.46 -1.22 5000015.456
9.442464 3.84 -1.22 5000008.73744
9.442464 3.82 -1.22 5000008.73744
9.941628000000001 3.36 -1.22 5000009.56938
9.941628000000001 3.34 -1.22 5000009.56938
13.4736 5.48 -1.24 5000015.456
13.4736 5.46 -1.24 5000015.456
13.4736 4.56 -1.24 5000015.456
13.4736 4.54 -1.24 5000015.456
9.442464 3.84 -1.24 5000008.73744
9.442464 3.82 -1.24 5000008.73744
9.941628000000001 3.38 -1.24 5000009.56938
9.941628000000001 3.36 -1.24 5000009.56938
13.4736 5.46 -1.26 5000015.456
13.4736 5.44 -1.26 5000015.456
9.442464 3.84 -1.26 5000008.73744
9.442464 3.82 -1.26 5000008.73744
9.941628000000001 3.38 -1.26 5000009.56938
9.941628000000001 3.36 -1.26 5000009.56938
13.4736 5.46 -1.28 5000015.456
13.4736 5.44 -1.28 5000015.456
9.442464 3.84 -1.28 5000008.73744
9.941628000000001 3.38 -1.28 5000009.56938
9.941628000000001 3.36 -1.28 5000009.56938
12.23748 5.52 -1.3 5000013.3958
13.4736 5.5 -1.3 5000015.456
9.941628000000001 3.84 -1.3 5000009.56938
9.941628000000001 3.36 -1.3 5000009.56938
11.29218 1.2 -1.3 5000011.8203
12.23748 -0.74 -1.3 5000013.3958
11.29218 -0.8 -1.3 5000011.8203
12.23748 5.54 -1.32 5000013.3958
9.941628000000001 3.84 -1.32 5000009.56938
9.941628000000001 3.36 -1.32 5000009.56938
9.941628000000001 3.34 -1.32 5000009.56938
9.941628000000001 3.0 -1.32 5000009.56938
11.29218 1.78 -1.32 5000011.8203
11.29218 1.2 -1.32 5000011.8203
9.941628000000001 3.84 -1.34 5000009.56938
9.941628000000001 3.34 -1.34 5000009.56938
9.941628000000001 3.32 -1.34 5000009.56938
9.941628000000001 3.02 -1.34 5000009.56938
9.941628000000001 3.0 -1.34 5000009.56938
11.29218 1.78 -1.34 5000011.8203
11.29218 0.36 -1.34 5000011.8203
9.941628000000001 3.84 -1.36 5000009.56938
9.941628000000001 3.34 -1.36 5000009.56938
9.941628000000001 3.32 -1.36 5000009.56938
9.941628000000001 3.02 -1.36 5000009.56938
9.941628000000001 3.0 -1.36 5000009.56938
11.29218 1.74 -1.36 5000011.8203
9.442464 3.76 -1.38 5000008.73744
9.941628000000001 3.32 -1.38 5000009.56938
9.941628000000001 3.02 -1.38 5000009.56938
10.54584 1.46 -1.38 5000010.5764
9.442464 3.76 -1.4 5000008.73744
9.442464 3.74 -1.4 5000008.73744
9.941628000000001 3.3 -1.4 5000009.56938
9.941628000000001 3.02 -1.4 5000009.56938
12.23748 -1.9 -1.4 5000013.3958
9.941628000000001 3.04 -1.42 5000009.56938
9.941628000000001 2.92 -1.42 5000009.56938
12.23748 -1.94 -1.42 5000013.3958
10.54584 0.52 -1.44 5000010.5764
9.941628000000001 2.76 -1.46 5000009.56938
9.941628000000001 1.78 -1.46 5000009.56938
9.941628000000001 1.76 -1.46 5000009.56938
10.54584 1.3 -1.46 5000010.5764
10.54584 0.54 -1.46 5000010.5764
10.54584 0.52 -1.46 5000010.5764
10.54584 -0.32 -1.46 5000010.5764
9.442464 4.16 -1.48 5000008.73744
9.941628000000001 2.96 -1.48 5000009.56938
9.941628000000001 2.78 -1.48 5000009.56938
9.941628000000001 2.56 -1.48 5000009.56938
28.29636 -1.3 -1.48 5000040.1606
11.29218 -1.76 -1.48 5000011.8203
9.442464 4.16 -1.5 5000008.73744
9.941628000000001 2.78 -1.5 5000009.56938
9.941628000000001 2.68 -1.5 5000009.56938
9.941628000000001 2.66 -1.5 5000009.56938
9.941628000000001 2.56 -1.5 5000009.56938
10.54584 0.14 -1.5 5000010.5764
10.54584 0.12 -1.5 5000010.5764
10.54584 -0.16 -1.5 5000010.5764
28.29636 -1.32 -1.5 5000040.1606
11.29218 -1.62 -1.5 5000011.8203
9.442464 3.62 -1.52 5000008.73744
9.442464 3.56 -1.52 5000008.73744
9.941628000000001 2.86 -1.52 5000009.56938
9.941628000000001 2.66 -1.52 5000009.56938
9.941628000000001 2.64 -1.52 5000009.56938
9.941628000000001 1.46 -1.52 5000009.56938
9.941628000000001 1.44 -1.52 5000009.56938
9.941628000000001 1.42 -1.52 5000009.56938
9.941628000000001 1.4 -1.52 5000009.56938
9.941628000000001 1.32 -1.52 5000009.56938
10.54584 0.12 -1.52 5000010.5764
10.54584 -0.16 -1.52 5000010.5764
28.29636 -1.32 -1.52 5000040.1606
11.29218 -1.62 -1.52 5000011.8203
9.941628000000001 5.26 -1.54 5000009.56938
9.442464 3.62 -1.54 5000008.73744
9.442464 3.54 -1.54 5000008.73744
9.941628000000001 2.64 -1.54 5000009.56938
9.941628000000001 2.62 -1.54 5000009.56938
9.941628000000001 1.46 -1.54 5000009.56938
9.941628000000001 1.44 -1.54 5000009.56938
9.941628000000001 1.42 -1.54 5000009.56938
9.941628000000001 1.36 -1.54 5000009.56938
9.941628000000001 1.32 -1.54 5000009.56938
28.29636 -1.32 -1.54 5000040.1606
11.29218 -2.08 -1.54 5000011.8203
9.442464 4.14 -1.56 5000008.73744
9.941628000000001 4.1 -1.56 5000009.56938
9.442464 3.6 -1.56 5000008.73744
9.442464 3.54 -1.56 5000008.73744
9.442464 3.12 -1.56 5000008.73744
9.941628000000001 2.12 -1.56 5000009.56938
9.941628000000001 2.1 -1.56 5000009.56938
9.941628000000001 2.06 -1.56 5000009.56938
10.54584 2.0 -1.56 5000010.5764
10.54584 1.98 -1.56 5000010.5764
9.941628000000001 1.9 -1.56 5000009.56938
9.941628000000001 1.44 -1.56 5000009.56938
9.941628000000001 1.42 -1.56 5000009.56938
9.941628000000001 1.32 -1.56 5000009.56938
10.54584 -0.68 -1.56 5000010.5764
11.29218 -1.78 -1.56 5000011.8203
9.442464 5.12 -1.58 5000008.73744
9.442464 5.1 -1.58 5000008.73744
9.941628000000001 5.04 -1.58 5000009.56938
9.442464 4.18 -1.58 5000008.73744
9.442464 4.16 -1.58 5000008.73744
9.442464 3.58 -1.58 5000008.73744
9.941628000000001 2.12 -1.58 5000009.56938
9.941628000000001 2.1 -1.58 5000009.56938
13.4736 -1.16 -1.58 5000015.456
11.29218 -1.78 -1.58 5000011.8203
9.442464 5.14 -1.6 5000008.73744
9.442464 5.12 -1.6 5000008.73744
9.442464 4.5 -1.6 5000008.73744
9.941628000000001 2.5 -1.6 5000009.56938
9.941628000000001 2.48 -1.6 5000009.56938
10.54584 -1.34 -1.6 5000010.5764
10.54584 -1.36 -1.6 5000010.5764
11.29218 -1.78 -1.6 5000011.8203
9.941628000000001 5.54 -1.62 5000009.56938
9.442464 3.48 -1.62 5000008.73744
9.442464 3.24 -1.62 5000008.73744
9.941628000000001 2.46 -1.62 5000009.56938
9.941628000000001 1.82 -1.62 5000009.56938
9.941628000000001 1.18 -1.62 5000009.56938
9.941628000000001 1.12 -1.62 5000009.56938
10.54584 -1.34 -1.62 5000010.5764
9.941628000000001 5.9 -1.64 5000009.56938
9.941628000000001 5.84 -1.64 5000009.56938
9.023147999999999 3.58 -1.64 5000008.03858
9.023147999999999 3.56 -1.64 5000008.03858
9.023147999999999 3.54 -1.64 5000008.03858
9.023147999999999 3.52 -1.64 5000008.03858
9.442464 3.48 -1.64 5000008.73744
9.442464 3.3 -1.64 5000008.73744
9.442464 3.24 -1.64 5000008.73744
9.442464 2.98 -1.64 5000008.73744
9.442464 2.96 -1.64 5000008.73744
9.941628000000001 2.0 -1.64 5000009.56938
9.941628000000001 1.2 -1.64 5000009.56938
9.941628000000001 1.18 -1.64 5000009.56938
9.941628000000001 1.12 -1.64 5000009.56938
9.941628000000001 0.86 -1.64 5000009.56938
9.941628000000001 0.74 -1.64 5000009.56938
13.4736 -1.1 -1.64 5000015.456
9.941628000000001 5.94 -1.66 5000009.56938
9.023147999999999 4.4 -1.66 5000008.03858
9.023147999999999 4.36 -1.66 5000008.03858
9.023147999999999 3.56 -1.66 5000008.03858
9.023147999999999 3.54 -1.66 5000008.03858
9.442464 2.98 -1.66 5000008.73744
9.442464 2.96 -1.66 5000008.73744
9.941628000000001 1.22 -1.66 5000009.56938
9.941628000000001 1.2 -1.66 5000009.56938
9.941628000000001 1.14 -1.66 5000009.56938
9.941628000000001 0.9 -1.66 5000009.56938
9.941628000000001 0.88 -1.66 5000009.56938
9.941628000000001 0.74 -1.66 5000009.56938
13.4736 -1.1 -1.66 5000015.456
9.023147999999999 4.42 -1.68 5000008.03858
9.023147999999999 4.4 -1.68 5000008.03858
9.442464 4.32 -1.68 5000008.73744
9.442464 2.96 -1.68 5000008.73744
11.29218 2.14 -1.68 5000011.8203
9.941628000000001 1.2 -1.68 5000009.56938
9.941628000000001 0.9 -1.68 5000009.56938
9.941628000000001 0.88 -1.68 5000009.56938
9.941628000000001 0.42 -1.68 5000009.56938
9.941628000000001 0.02 -1.68 5000009.56938
9.442464 5.58 -1.7 5000008.73744
9.023147999999999 4.42 -1.7 5000008.03858
9.023147999999999 4.4 -1.7 5000008.03858
9.023147999999999 4.04 -1.7 5000008.03858
9.442464 3.32 -1.7 5000008.73744
9.442464 2.22 -1.7 5000008.73744
9.442464 2.04 -1.7 5000008.73744
9.442464 2.02 -1.7 5000008.73744
9.442464 1.96 -1.7 5000008.73744
9.941628000000001 0.42 -1.7 5000009.56938
9.941628000000001 0.38 -1.7 5000009.56938
9.941628000000001 0.02 -1.7 5000009.56938
12.23748 -0.84 -1.7 5000013.3958
12.23748 -0.86 -1.7 5000013.3958
10.54584 -1.0 -1.7 5000010.5764
10.54584 -1.3 -1.7 5000010.5764
9.442464 5.58 -1.72 5000008.73744
9.442464 5.5 -1.72 5000008.73744
9.023147999999999 4.42 -1.72 5000008.03858
9.023147999999999 4.4 -1.72 5000008.03858
9.023147999999999 4.38 -1.72 5000008.03858
9.023147999999999 4.26 -1.72 5000008.03858
9.442464 2.96 -1.72 5000008.73744
9.941628000000001 2.86 -1.72 5000009.56938
9.941628000000001 2.84 -1.72 5000009.56938
9.941628000000001 2.8 -1.72 5000009.56938
9.442464 2.22 -1.72 5000008.73744
9.442464 2.16 -1.72 5000008.73744
9.442464 2.04 -1.72 5000008.73744
9.442464 2.02 -1.72 5000008.73744
9.941628000000001 0.38 -1.72 5000009.56938
9.941628000000001 -0.08 -1.72 5000009.56938
10.54584 -1.0 -1.72 5000010.5764
10.54584 -1.04 -1.72 5000010.5764
9.442464 5.58 -1.74 5000008.73744
9.442464 5.5 -1.74 5000008.73744
9.023147999999999 4.36 -1.74 5000008.03858
9.023147999999999 4.34 -1.74 5000008.03858
9.023147999999999 3.98 -1.74 5000008.03858
9.442464 2.96 -1.74 5000008.73744
9.442464 2.24 -1.74 5000008.73744
9.442464 2.22 -1.74 5000008.73744
9.442464 2.16 -1.74 5000008.73744
8.665944 2.1 -1.74 5000007.44324
10.54584 -0.98 -1.74 5000010.5764
10.54584 -1.04 -1.74 5000010.5764
9.023147999999999 4.76 -1.76 5000008.03858
9.023147999999999 4.34 -1.76 5000008.03858
9.023147999999999 4.32 -1.76 5000008.03858
9.442464 3.36 -1.76 5000008.73744
9.442464 2.5 -1.76 5000008.73744
9.442464 2.22 -1.76 5000008.73744
9.023147999999999 4.88 -1.78 5000008.03858
9.442464 2.52 -1.78 5000008.73744
9.442464 1.9 -1.78 5000008.73744
9.442464 0.38 -1.78 5000008.73744
10.54584 -1.38 -1.78 5000010.5764
9.023147999999999 4.86 -1.8 5000008.03858
9.023147999999999 4.28 -1.8 5000008.03858
9.023147999999999 3.68 -1.8 5000008.03858
9.442464 2.76 -1.8 5000008.73744
9.442464 2.08 -1.8 5000008.73744
9.023147999999999 5.16 -1.82 5000008.03858
9.023147999999999 5.08 -1.82 5000008.03858
9.023147999999999 2.3 -1.82 5000008.03858
9.442464 1.02 -1.82 5000008.73744
9.442464 0.96 -1.82 5000008.73744
9.023147999999999 5.32 -1.84 5000008.03858
9.023147999999999 5.14 -1.84 5000008.03858
9.442464 1.02 -1.84 5000008.73744
9.023147999999999 5.12 -1.86 5000008.03858
9.023147999999999 2.94 -1.86 5000008.03858
9.023147999999999 2.1 -1.86 5000008.03858
9.442464 1.02 -1.86 5000008.73744
9.023147999999999 5.22 -1.88 5000008.03858
9.023147999999999 5.1 -1.88 5000008.03858
8.665944 4.26 -1.88 5000007.44324
9.023147999999999 4.24 -1.88 5000008.03858
9.023147999999999 4.22 -1.88 5000008.03858
9.023147999999999 4.2 -1.88 5000008.03858
9.023147999999999 4.16 -1.88 5000008.03858
9.023147999999999 3.78 -1.88 5000008.03858
9.023147999999999 2.94 -1.88 5000008.03858
9.023147999999999 2.84 -1.88 5000008.03858
9.023147999999999 2.3 -1.88 5000008.03858
9.023147999999999 2.08 -1.88 5000008.03858
15.15888 -0.78 -1.88 5000018.2648
8.665944 4.26 -1.9 5000007.44324
8.665944 4.24 -1.9 5000007.44324
9.023147999999999 4.16 -1.9 5000008.03858
9.023147999999999 3.96 -1.9 5000008.03858
9.023147999999999 2.84 -1.9 5000008.03858
9.023147999999999 2.82 -1.9 5000008.03858
9.023147999999999 2.08 -1.9 5000008.03858
9.023147999999999 1.7 -1.9 5000008.03858
9.023147999999999 1.66 -1.9 5000008.03858
9.023147999999999 1.32 -1.9 5000008.03858
9.442464 -0.46 -1.9 5000008.73744
8.665944 4.26 -1.92 5000007.44324
8.665944 4.24 -1.92 5000007.44324
9.023147999999999 4.16 -1.92 5000008.03858
8.665944 3.14 -1.92 5000007.44324
9.442464 1.72 -1.92 5000008.73744
9.023147999999999 1.66 -1.92 5000008.03858
9.023147999999999 1.32 -1.92 5000008.03858
9.023147999999999 1.3 -1.92 5000008.03858
9.442464 -0.46 -1.92 5000008.73744
9.941628000000001 -1.08 -1.92 5000009.56938
8.665944 4.26 -1.94 5000007.44324
8.665944 4.24 -1.94 5000007.44324
8.665944 4.18 -1.94 5000007.44324
8.665944 4.16 -1.94 5000007.44324
9.023147999999999 2.54 -1.94 5000008.03858
9.941628000000001 -0.74 -1.94 5000009.56938
8.665944 5.72 -1.96 5000007.44324
8.665944 4.26 -1.96 5000007.44324
8.665944 4.24 -1.96 5000007.44324
17.592840000000002 3.6 -1.96 5000022.3214
8.665944 3.12 -1.96 5000007.44324
8.665944 3.1 -1.96 5000007.44324
9.023147999999999 2.54 -1.96 5000008.03858
9.023147999999999 1.62 -1.96 5000008.03858
9.023147999999999 0.5 -1.96 5000008.03858
9.941628000000001 -0.7 -1.96 5000009.56938
9.941628000000001 -0.74 -1.96 5000009.56938
9.941628000000001 -0.76 -1.96 5000009.56938
8.665944 5.74 -1.98 5000007.44324
8.665944 5.72 -1.98 5000007.44324
8.665944 4.04 -1.98 5000007.44324
8.665944 4.02 -1.98 5000007.44324
8.665944 3.9 -1.98 5000007.44324
8.665944 3.74 -1.98 5000007.44324
8.665944 3.12 -1.98 5000007.44324
8.665944 3.1 -1.98 5000007.44324
9.023147999999999 1.62 -1.98 5000008.03858
9.023147999999999 0.5 -1.98 5000008.03858
10.54584 -0.68 -1.98 5000010.5764
9.941628000000001 -0.7 -1.98 5000009.56938
9.941628000000001 -0.76 -1.98 5000009.56938
9.941628000000001 -0.78 -1.98 5000009.56938
8.665944 4.04 -2.0 5000007.44324
8.665944 4.02 -2.0 5000007.44324
8.358006 3.96 -2.0 5000006.93001
8.665944 3.74 -2.0 5000007.44324
9.023147999999999 2.46 -2.0 5000008.03858
8.665944 2.24 -2.0 5000007.44324
9.442464 -0.14 -2.0 5000008.73744
8.665944 5.22 -2.02 5000007.44324
8.665944 3.4 -2.02 5000007.44324
8.665944 3.04 -2.02 5000007.44324
9.023147999999999 2.46 -2.02 5000008.03858
8.665944 2.26 -2.02 5000007.44324
8.665944 2.24 -2.02 5000007.44324
8.665944 2.22 -2.02 5000007.44324
8.665944 2.2 -2.02 5000007.44324
8.665944 1.9 -2.02 5000007.44324
9.442464 -0.14 -2.02 5000008.73744
9.442464 -0.16 -2.02 5000008.73744
8.665944 4.86 -2.04 5000007.44324
8.665944 4.84 -2.04 5000007.44324
8.665944 3.38 -2.04 5000007.44324
8.665944 3.28 -2.04 5000007.44324
8.665944 3.22 -2.04 5000007.44324
8.665944 3.2 -2.04 5000007.44324
9.023147999999999 2.42 -2.04 5000008.03858
8.665944 2.26 -2.04 5000007.44324
8.665944 2.24 -2.04 5000007.44324
8.665944 1.92 -2.04 5000007.44324
8.665944 1.84 -2.04 5000007.44324
8.665944 1.82 -2.04 5000007.44324
8.665944 4.44 -2.06 5000007.44324
9.023147999999999 4.38 -2.06 5000008.03858
8.665944 4.32 -2.06 5000007.44324
8.665944 3.28 -2.06 5000007.44324
8.665944 3.26 -2.06 5000007.44324
8.665944 3.2 -2.06 5000007.44324
8.665944 2.54 -2.06 5000007.44324
8.665944 2.5 -2.06 5000007.44324
8.665944 1.94 -2.06 5000007.44324
8.665944 1.92 -2.06 5000007.44324
8.665944 1.84 -2.06 5000007.44324
8.665944 1.82 -2.06 5000007.44324
9.023147999999999 5.3 -2.08 5000008.03858
9.023147999999999 5.28 -2.08 5000008.03858
8.358006 5.22 -2.08 5000006.93001
8.358006 5.16 -2.08 5000006.93001
8.665944 4.46 -2.08 5000007.44324
8.665944 4.44 -2.08 5000007.44324
8.665944 4.32 -2.08 5000007.44324
8.665944 4.3 -2.08 5000007.44324
8.358006 3.74 -2.08 5000006.93001
8.665944 3.26 -2.08 5000007.44324
8.665944 2.9 -2.08 5000007.44324
8.665944 2.5 -2.08 5000007.44324
8.665944 1.94 -2.08 5000007.44324
8.665944 1.92 -2.08 5000007.44324
8.665944 1.9 -2.08 5000007.44324
8.665944 1.26 -2.08 5000007.44324
8.358006 5.36 -2.1 5000006.93001
8.358006 5.34 -2.1 5000006.93001
8.358006 5.12 -2.1 5000006.93001
9.023147999999999 4.56 -2.1 5000008.03858
9.442464 4.52 -2.1 5000008.73744
8.665944 4.46 -2.1 5000007.44324
8.665944 4.44 -2.1 5000007.44324
8.665944 4.42 -2.1 5000007.44324
8.665944 4.32 -2.1 5000007.44324
8.665944 4.3 -2.1 5000007.44324
8.358006 3.76 -2.1 5000006.93001
8.358006 3.74 -2.1 5000006.93001
8.665944 2.48 -2.1 5000007.44324
8.358006 5.38 -2.12 5000006.93001
8.358006 5.36 -2.12 5000006.93001
8.358006 5.34 -2.12 5000006.93001
8.358006 5.12 -2.12 5000006.93001
8.358006 4.6 -2.12 5000006.93001
8.665944 4.46 -2.12 5000007.44324
8.665944 4.42 -2.12 5000007.44324
8.358006 3.8 -2.12 5000006.93001
8.358006 3.76 -2.12 5000006.93001
8.665944 1.86 -2.12 5000007.44324
8.358006 5.38 -2.14 5000006.93001
8.089788 5.28 -2.14 5000006.48298
8.089788 5.24 -2.14 5000006.48298
8.358006 4.74 -2.14 5000006.93001
8.358006 4.7 -2.14 5000006.93001
8.358006 4.66 -2.14 5000006.93001
8.358006 4.6 -2.14 5000006.93001
8.358006 3.76 -2.14 5000006.93001
8.358006 5.38 -2.16 5000006.93001
8.358006 4.74 -2.16 5000006.93001
8.358006 4.68 -2.16 5000006.93001
8.358006 4.58 -2.16 5000006.93001
8.665944 4.22 -2.16 5000007.44324
8.358006 4.16 -2.16 5000006.93001
8.358006 4.14 -2.16 5000006.93001
8.358006 4.1 -2.16 5000006.93001
8.358006 4.08 -2.16 5000006.93001
9.023147999999999 2.38 -2.16 5000008.03858
9.023147999999999 2.36 -2.16 5000008.03858
8.665944 2.32 -2.16 5000007.44324
8.665944 2.3 -2.16 5000007.44324
8.665944 1.64 -2.16 5000007.44324
9.023147999999999 0.24 -2.16 5000008.03858
9.023147999999999 0.22 -2.16 5000008.03858
8.358006 4.74 -2.18 5000006.93001
8.358006 4.72 -2.18 5000006.93001
8.665944 4.24 -2.18 5000007.44324
8.358006 4.16 -2.18 5000006.93001
8.358006 4.14 -2.18 5000006.93001
8.665944 2.28 -2.18 5000007.44324
9.023147999999999 1.8 -2.18 5000008.03858
8.358006 1.72 -2.18 5000006.93001
8.665944 1.64 -2.18 5000007.44324
9.023147999999999 0.22 -2.18 5000008.03858
9.023147999999999 0.2 -2.18 5000008.03858
9.023147999999999 0.18 -2.18 5000008.03858
9.023147999999999 -0.22 -2.18 5000008.03858
8.358006 4.74 -2.2 5000006.93001
8.358006 4.72 -2.2 5000006.93001
8.358006 4.46 -2.2 5000006.93001
8.358006 4.34 -2.2 5000006.93001
8.358006 4.16 -2.2 5000006.93001
8.358006 3.62 -2.2 5000006.93001
8.358006 3.6 -2.2 5000006.93001
8.358006 3.52 -2.2 5000006.93001
8.665944 1.62 -2.2 5000007.44324
8.665944 1.42 -2.2 5000007.44324
8.358006 4.72 -2.22 5000006.93001
8.358006 4.48 -2.22 5000006.93001
8.358006 4.34 -2.22 5000006.93001
8.358006 3.66 -2.22 5000006.93001
8.358006 3.64 -2.22 5000006.93001
8.358006 3.62 -2.22 5000006.93001
8.358006 3.6 -2.22 5000006.93001
8.358006 5.24 -2.24 5000006.93001
8.358006 5.2 -2.24 5000006.93001
8.089788 5.14 -2.24 5000006.48298
8.358006 4.7 -2.24 5000006.93001
8.358006 4.48 -2.24 5000006.93001
8.358006 4.46 -2.24 5000006.93001
8.358006 4.34 -2.24 5000006.93001
8.358006 3.68 -2.24 5000006.93001
9.023147999999999 2.16 -2.24 5000008.03858
8.358006 2.06 -2.24 5000006.93001
8.358006 5.94 -2.26 5000006.93001
8.089788 5.26 -2.26 5000006.48298
8.089788 5.24 -2.26 5000006.48298
8.089788 5.12 -2.26 5000006.48298
8.089788 5.1 -2.26 5000006.48298
8.358006 4.44 -2.26 5000006.93001
8.358006 4.42 -2.26 5000006.93001
8.358006 2.08 -2.26 5000006.93001
9.023147999999999 0.22 -2.26 5000008.03858
8.358006 5.94 -2.28 5000006.93001
8.358006 5.6 -2.28 5000006.93001
9.023147999999999 5.52 -2.28 5000008.03858
8.089788 5.26 -2.28 5000006.48298
8.089788 5.24 -2.28 5000006.48298
8.089788 5.1 -2.28 5000006.48298
8.358006 2.08 -2.28 5000006.93001
8.358006 2.0 -2.28 5000006.93001
8.358006 5.6 -2.3 5000006.93001
8.358006 5.48 -2.3 5000006.93001
8.089788 5.26 -2.3 5000006.48298
8.665944 0.64 -2.3 5000007.44324
8.665944 0.62 -2.3 5000007.44324
8.089788 5.26 -2.32 5000006.48298
8.089788 5.24 -2.32 5000006.48298
8.089788 5.22 -2.32 5000006.48298
8.089788 5.04 -2.32 5000006.48298
8.358006 3.7 -2.32 5000006.93001
8.358006 3.68 -2.32 5000006.93001
8.089788 3.62 -2.32 5000006.48298
8.089788 3.6 -2.32 5000006.48298
8.089788 3.58 -2.32 5000006.48298
8.089788 3.4 -2.32 5000006.48298
8.089788 2.56 -2.32 5000006.48298
8.358006 1.2 -2.32 5000006.93001
8.665944 0.64 -2.32 5000007.44324
8.665944 0.62 -2.32 5000007.44324
8.089788 5.5 -2.34 5000006.48298
8.089788 5.48 -2.34 5000006.48298
8.089788 5.24 -2.34 5000006.48298
8.089788 5.22 -2.34 5000006.48298
8.089788 5.08 -2.34 5000006.48298
8.089788 5.04 -2.34 5000006.48298
8.089788 5.02 -2.34 5000006.48298
8.089788 5.0 -2.34 5000006.48298
8.089788 4.42 -2.34 5000006.48298
8.089788 3.76 -2.34 5000006.48298
8.358006 3.74 -2.34 5000006.93001
8.358006 3.7 -2.34 5000006.93001
8.089788 3.64 -2.34 5000006.48298
8.089788 3.62 -2.34 5000006.48298
8.089788 3.58 -2.34 5000006.48298
8.089788 3.4 -2.34 5000006.48298
8.665944 2.66 -2.34 5000007.44324
8.665944 2.64 -2.34 5000007.44324
8.665944 2.62 -2.34 5000007.44324
8.089788 2.56 -2.34 5000006.48298
8.089788 2.54 -2.34 5000006.48298
8.089788 2.52 -2.34 5000006.48298
8.358006 2.48 -2.34 5000006.93001
8.358006 1.62 -2.34 5000006.93001
8.089788 5.5 -2.36 5000006.48298
8.089788 5.48 -2.36 5000006.48298
8.089788 5.12 -2.36 5000006.48298
8.089788 5.1 -2.36 5000006.48298
8.089788 5.08 -2.36 5000006.48298
8.089788 5.0 -2.36 5000006.48298
8.089788 4.86 -2.36 5000006.48298
8.089788 4.48 -2.36 5000006.48298
8.089788 4.46 -2.36 5000006.48298
8.089788 4.44 -2.36 5000006.48298
8.358006 4.38 -2.36 5000006.93001
8.089788 3.66 -2.36 5000006.48298
8.089788 3.64 -2.36 5000006.48298
8.089788 3.62 -2.36 5000006.48298
8.089788 2.7 -2.36 5000006.48298
8.089788 2.56 -2.36 5000006.48298
8.089788 2.54 -2.36 5000006.48298
8.358006 1.7 -2.36 5000006.93001
8.358006 1.62 -2.36 5000006.93001
9.023147999999999 0.08 -2.36 5000008.03858
8.089788 5.48 -2.38 5000006.48298
8.089788 5.14 -2.38 5000006.48298
8.089788 5.08 -2.38 5000006.48298
8.089788 4.86 -2.38 5000006.48298
8.089788 4.84 -2.38 5000006.48298
8.089788 4.48 -2.38 5000006.48298
8.089788 4.46 -2.38 5000006.48298
8.089788 4.44 -2.38 5000006.48298
8.665944 2.78 -2.38 5000007.44324
8.089788 2.72 -2.38 5000006.48298
8.089788 2.7 -2.38 5000006.48298
8.358006 2.66 -2.38 5000006.93001
8.358006 1.42 -2.38 5000006.93001
8.089788 5.82 -2.4 5000006.48298
8.089788 5.8 -2.4 5000006.48298
8.089788 5.48 -2.4 5000006.48298
8.089788 5.16 -2.4 5000006.48298
8.089788 5.14 -2.4 5000006.48298
8.089788 5.0 -2.4 5000006.48298
8.089788 4.88 -2.4 5000006.48298
8.089788 4.04 -2.4 5000006.48298
8.089788 4.02 -2.4 5000006.48298
8.089788 4.0 -2.4 5000006.48298
8.358006 3.98 -2.4 5000006.93001
8.089788 3.94 -2.4 5000006.48298
9.023147999999999 3.88 -2.4 5000008.03858
9.023147999999999 3.84 -2.4 5000008.03858
8.089788 3.72 -2.4 5000006.48298
8.089788 2.72 -2.4 5000006.48298
8.358006 2.66 -2.4 5000006.93001
8.358006 1.54 -2.4 5000006.93001
8.089788 5.46 -2.42 5000006.48298
8.089788 5.16 -2.42 5000006.48298
8.089788 5.0 -2.42 5000006.48298
8.089788 4.98 -2.42 5000006.48298
8.089788 4.06 -2.42 5000006.48298
8.089788 4.04 -2.42 5000006.48298
8.358006 3.98 -2.42 5000006.93001
8.089788 3.96 -2.42 5000006.48298
8.089788 3.78 -2.42 5000006.48298
8.089788 3.72 -2.42 5000006.48298
8.089788 3.34 -2.42 5000006.48298
8.089788 3.26 -2.42 5000006.48298
8.089788 2.72 -2.42 5000006.48298
8.665944 0.54 -2.42 5000007.44324
8.089788 5.86 -2.44 5000006.48298
8.089788 5.84 -2.44 5000006.48298
8.089788 5.46 -2.44 5000006.48298
8.089788 5.0 -2.44 5000006.48298
8.089788 4.98 -2.44 5000006.48298
8.089788 4.48 -2.44 5000006.48298
8.089788 4.42 -2.44 5000006.48298
8.089788 4.4 -2.44 5000006.48298
8.089788 4.26 -2.44 5000006.48298
8.089788 3.78 -2.44 5000006.48298
8.089788 3.36 -2.44 5000006.48298
8.089788 3.34 -2.44 5000006.48298
8.089788 2.72 -2.44 5000006.48298
8.089788 2.24 -2.44 5000006.48298
8.665944 0.54 -2.44 5000007.44324
8.089788 5.84 -2.46 5000006.48298
8.089788 5.82 -2.46 5000006.48298
7.8540779999999994 4.42 -2.46 5000006.09013
8.089788 3.78 -2.46 5000006.48298
8.089788 2.9 -2.46 5000006.48298
7.645308 2.78 -2.46 5000005.74218
8.089788 2.58 -2.46 5000006.48298
8.089788 5.8 -2.48 5000006.48298
8.089788 5.78 -2.48 5000006.48298
7.8540779999999994 4.42 -2.48 5000006.09013
7.8540779999999994 4.4 -2.48 5000006.09013
7.645308 4.34 -2.48 5000005.74218
8.089788 4.28 -2.48 5000006.48298
7.8540779999999994 4.22 -2.48 5000006.09013
9.023147999999999 3.9 -2.48 5000008.03858
9.023147999999999 3.88 -2.48 5000008.03858
9.023147999999999 3.86 -2.48 5000008.03858
8.089788 3.78 -2.48 5000006.48298
8.089788 3.76 -2.48 5000006.48298
8.089788 3.7 -2.48 5000006.48298
8.089788 3.64 -2.48 5000006.48298
8.089788 3.0 -2.48 5000006.48298
8.089788 2.2 -2.48 5000006.48298
8.089788 1.9 -2.48 5000006.48298
8.358006 1.24 -2.48 5000006.93001
8.358006 1.22 -2.48 5000006.93001
8.358006 1.04 -2.48 5000006.93001
7.8540779999999994 4.44 -2.5 5000006.09013
7.8540779999999994 4.42 -2.5 5000006.09013
7.8540779999999994 4.28 -2.5 5000006.09013
8.089788 4.26 -2.5 5000006.48298
8.089788 3.76 -2.5 5000006.48298
8.089788 3.74 -2.5 5000006.48298
8.089788 3.64 -2.5 5000006.48298
8.089788 3.62 -2.5 5000006.48298
8.089788 3.06 -2.5 5000006.48298
8.089788 3.04 -2.5 5000006.48298
8.089788 2.26 -2.5 5000006.48298
8.089788 1.9 -2.5 5000006.48298
8.089788 1.76 -2.5 5000006.48298
8.665944 0.54 -2.5 5000007.44324
8.358006 5.22 -2.52 5000006.93001
8.358006 5.2 -2.52 5000006.93001
7.8540779999999994 5.14 -2.52 5000006.09013
7.8540779999999994 5.12 -2.52 5000006.09013
7.8540779999999994 5.08 -2.52 5000006.09013
7.8540779999999994 5.06 -2.52 5000006.09013
7.8540779999999994 5.04 -2.52 5000006.09013
8.089788 5.02 -2.52 5000006.48298
8.089788 4.74 -2.52 5000006.48298
7.8540779999999994 4.28 -2.52 5000006.09013
8.089788 4.26 -2.52 5000006.48298
7.8540779999999994 4.18 -2.52 5000006.09013
8.089788 3.78 -2.52 5000006.48298
8.089788 3.74 -2.52 5000006.48298
8.089788 3.62 -2.52 5000006.48298
8.089788 3.06 -2.52 5000006.48298
8.089788 3.04 -2.52 5000006.48298
8.089788 3.02 -2.52 5000006.48298
8.358006 1.14 -2.52 5000006.93001
8.358006 1.12 -2.52 5000006.93001
8.665944 0.54 -2.52 5000007.44324
7.8540779999999994 5.28 -2.54 5000006.09013
7.8540779999999994 5.26 -2.54 5000006.09013
8.358006 5.22 -2.54 5000006.93001
8.358006 5.2 -2.54 5000006.93001
7.8540779999999994 5.14 -2.54 5000006.09013
7.8540779999999994 5.12 -2.54 5000006.09013
7.8540779999999994 5.08 -2.54 5000006.09013
8.089788 4.74 -2.54 5000006.48298
7.8540779999999994 4.68 -2.54 5000006.09013
7.8540779999999994 4.18 -2.54 5000006.09013
8.089788 4.12 -2.54 5000006.48298
7.8540779999999994 4.1 -2.54 5000006.09013
7.8540779999999994 3.96 -2.54 5000006.09013
7.8540779999999994 3.8 -2.54 5000006.09013
8.089788 3.78 -2.54 5000006.48298
8.089788 3.7 -2.54 5000006.48298
8.358006 1.12 -2.54 5000006.93001
8.089788 1.1 -2.54 5000006.48298
7.8540779999999994 5.3 -2.56 5000006.09013
7.8540779999999994 5.28 -2.56 5000006.09013
7.8540779999999994 5.26 -2.56 5000006.09013
7.8540779999999994 5.14 -2.56 5000006.09013
7.8540779999999994 5.12 -2.56 5000006.09013
7.8540779999999994 4.7 -2.56 5000006.09013
7.8540779999999994 4.08 -2.56 5000006.09013
7.8540779999999994 4.06 -2.56 5000006.09013
7.8540779999999994 4.04 -2.56 5000006.09013
7.2919860000000005 3.86 -2.56 5000005.15331
7.8540779999999994 3.8 -2.56 5000006.09013
7.8540779999999994 3.7 -2.56 5000006.09013
9.023147999999999 3.54 -2.56 5000008.03858
9.023147999999999 3.52 -2.56 5000008.03858
7.8540779999999994 3.3 -2.56 5000006.09013
7.8540779999999994 3.28 -2.56 5000006.09013
8.089788 1.44 -2.56 5000006.48298
8.089788 1.1 -2.56 5000006.48298
8.089788 1.08 -2.56 5000006.48298
8.665944 5.4 -2.58 5000007.44324
7.8540779999999994 5.32 -2.58 5000006.09013
7.8540779999999994 5.3 -2.58 5000006.09013
7.8540779999999994 5.14 -2.58 5000006.09013
7.8540779999999994 4.7 -2.58 5000006.09013
7.8540779999999994 4.36 -2.58 5000006.09013
7.8540779999999994 4.3 -2.58 5000006.09013
7.8540779999999994 4.08 -2.58 5000006.09013
7.8540779999999994 4.06 -2.58 5000006.09013
7.8540779999999994 4.04 -2.58 5000006.09013
7.8540779999999994 3.34 -2.58 5000006.09013
7.8540779999999994 3.32 -2.58 5000006.09013
7.8540779999999994 3.26 -2.58 5000006.09013
7.2919860000000005 3.14 -2.58 5000005.15331
8.089788 1.1 -2.58 5000006.48298
8.089788 1.08 -2.58 5000006.48298
8.089788 1.06 -2.58 5000006.48298
7.8540779999999994 5.34 -2.6 5000006.09013
7.8540779999999994 5.32 -2.6 5000006.09013
7.8540779999999994 5.16 -2.6 5000006.09013
7.8540779999999994 5.14 -2.6 5000006.09013
7.8540779999999994 5.04 -2.6 5000006.09013
7.8540779999999994 5.02 -2.6 5000006.09013
7.8540779999999994 5.0 -2.6 5000006.09013
7.8540779999999994 4.98 -2.6 5000006.09013
7.8540779999999994 4.36 -2.6 5000006.09013
7.8540779999999994 4.34 -2.6 5000006.09013
7.2919860000000005 4.16 -2.6 5000005.15331
7.8540779999999994 3.64 -2.6 5000006.09013
7.8540779999999994 3.6 -2.6 5000006.09013
7.8540779999999994 3.34 -2.6 5000006.09013
7.8540779999999994 3.32 -2.6 5000006.09013
7.8540779999999994 2.62 -2.6 5000006.09013
8.358006 1.64 -2.6 5000006.93001
8.089788 1.1 -2.6 5000006.48298
8.089788 1.06 -2.6 5000006.48298
7.8540779999999994 5.32 -2.62 5000006.09013
7.8540779999999994 5.26 -2.62 5000006.09013
7.8540779999999994 5.24 -2.62 5000006.09013
7.8540779999999994 5.16 -2.62 5000006.09013
7.8540779999999994 5.04 -2.62 5000006.09013
7.8540779999999994 5.02 -2.62 5000006.09013
7.8540779999999994 4.98 -2.62 5000006.09013
7.8540779999999994 4.54 -2.62 5000006.09013
7.8540779999999994 3.58 -2.62 5000006.09013
7.8540779999999994 3.56 -2.62 5000006.09013
7.8540779999999994 3.54 -2.62 5000006.09013
7.8540779999999994 3.3 -2.62 5000006.09013
7.8540779999999994 2.9 -2.62 5000006.09013
8.089788 2.2 -2.62 5000006.48298
7.8540779999999994 2.14 -2.62 5000006.09013
8.089788 1.58 -2.62 5000006.48298
8.089788 1.1 -2.62 5000006.48298
8.089788 1.08 -2.62 5000006.48298
8.089788 1.04 -2.62 5000006.48298
7.8540779999999994 5.92 -2.64 5000006.09013
7.8540779999999994 5.54 -2.64 5000006.09013
7.8540779999999994 5.52 -2.64 5000006.09013
7.8540779999999994 5.26 -2.64 5000006.09013
7.8540779999999994 5.24 -2.64 5000006.09013
7.8540779999999994 5.22 -2.64 5000006.09013
7.8540779999999994 5.04 -2.64 5000006.09013
7.8540779999999994 5.02 -2.64 5000006.09013
7.8540779999999994 3.72 -2.64 5000006.09013
7.8540779999999994 3.7 -2.64 5000006.09013
7.8540779999999994 3.68 -2.64 5000006.09013
7.8540779999999994 3.56 -2.64 5000006.09013
7.8540779999999994 3.54 -2.64 5000006.09013
7.8540779999999994 2.14 -2.64 5000006.09013
8.089788 1.58 -2.64 5000006.48298
8.089788 1.56 -2.64 5000006.48298
7.8540779999999994 4.24 -2.66 5000006.09013
7.8540779999999994 3.7 -2.66 5000006.09013
7.8540779999999994 3.68 -2.66 5000006.09013
7.8540779999999994 3.62 -2.66 5000006.09013
7.8540779999999994 3.6 -2.66 5000006.09013
7.141176 3.46 -2.66 5000004.90196
7.8540779999999994 3.28 -2.66 5000006.09013
7.8540779999999994 2.92 -2.66 5000006.09013
8.089788 1.56 -2.66 5000006.48298
8.089788 1.08 -2.66 5000006.48298
7.2919860000000005 5.16 -2.68 5000005.15331
7.8540779999999994 4.28 -2.68 5000006.09013
7.8540779999999994 2.94 -2.68 5000006.09013
7.8540779999999994 2.92 -2.68 5000006.09013
7.8540779999999994 2.4 -2.68 5000006.09013
7.8540779999999994 2.02 -2.68 5000006.09013
7.8540779999999994 1.7 -2.68 5000006.09013
8.089788 1.5 -2.68 5000006.48298
7.645308 4.14 -2.7 5000005.74218
7.645308 4.1 -2.7 5000005.74218
7.645308 4.06 -2.7 5000005.74218
7.8540779999999994 3.26 -2.7 5000006.09013
8.089788 2.46 -2.7 5000006.48298
7.8540779999999994 2.42 -2.7 5000006.09013
7.8540779999999994 2.4 -2.7 5000006.09013
7.8540779999999994 1.72 -2.7 5000006.09013
7.8540779999999994 5.08 -2.72 5000006.09013
7.8540779999999994 4.52 -2.72 5000006.09013
7.645308 4.2 -2.72 5000005.74218
7.645308 4.16 -2.72 5000005.74218
7.645308 4.14 -2.72 5000005.74218
7.645308 4.12 -2.72 5000005.74218
7.645308 4.1 -2.72 5000005.74218
7.645308 4.08 -2.72 5000005.74218
7.8540779999999994 1.74 -2.72 5000006.09013
8.089788 1.08 -2.72 5000006.48298
7.8540779999999994 5.32 -2.74 5000006.09013
7.8540779999999994 5.08 -2.74 5000006.09013
7.645308 4.16 -2.74 5000005.74218
7.645308 4.14 -2.74 5000005.74218
7.645308 3.98 -2.74 5000005.74218
8.358006 1.0 -2.74 5000006.93001
7.8540779999999994 5.32 -2.76 5000006.09013
7.8540779999999994 5.12 -2.76 5000006.09013
7.8540779999999994 5.1 -2.76 5000006.09013
8.358006 0.98 -2.76 5000006.93001
7.645308 4.94 -2.78 5000005.74218
7.645308 4.44 -2.78 5000005.74218
7.645308 3.9 -2.78 5000005.74218
7.645308 3.18 -2.78 5000005.74218
7.645308 3.16 -2.78 5000005.74218
7.8540779999999994 5.92 -2.8 5000006.09013
7.8540779999999994 5.9 -2.8 5000006.09013
7.645308 4.94 -2.8 5000005.74218
7.645308 4.92 -2.8 5000005.74218
7.645308 4.76 -2.8 5000005.74218
7.645308 4.46 -2.8 5000005.74218
7.645308 4.44 -2.8 5000005.74218
7.645308 4.0 -2.8 5000005.74218
7.645308 3.98 -2.8 5000005.74218
7.645308 3.88 -2.8 5000005.74218
7.645308 3.14 -2.8 5000005.74218
7.645308 3.12 -2.8 5000005.74218
7.645308 2.68 -2.8 5000005.74218
7.8540779999999994 1.72 -2.8 5000006.09013
7.8540779999999994 1.7 -2.8 5000006.09013
7.8540779999999994 5.68 -2.82 5000006.09013
7.8540779999999994 5.66 -2.82 5000006.09013
7.8540779999999994 5.64 -2.82 5000006.09013
7.645308 4.78 -2.82 5000005.74218
7.645308 4.72 -2.82 5000005.74218
7.645308 4.34 -2.82 5000005.74218
7.645308 4.0 -2.82 5000005.74218
7.645308 3.98 -2.82 5000005.74218
7.645308 3.54 -2.82 5000005.74218
7.645308 2.68 -2.82 5000005.74218
7.8540779999999994 1.72 -2.82 5000006.09013
7.8540779999999994 1.7 -2.82 5000006.09013
7.8540779999999994 1.68 -2.82 5000006.09013
7.8540779999999994 5.68 -2.84 5000006.09013
7.8540779999999994 5.66 -2.84 5000006.09013
7.8540779999999994 5.64 -2.84 5000006.09013
7.645308 5.5 -2.84 5000005.74218
7.645308 4.72 -2.84 5000005.74218
7.645308 4.0 -2.84 5000005.74218
7.645308 3.98 -2.84 5000005.74218
7.645308 3.9 -2.84 5000005.74218
7.645308 3.58 -2.84 5000005.74218
7.8540779999999994 1.68 -2.84 5000006.09013
8.089788 1.18 -2.84 5000006.48298
8.358006 1.14 -2.84 5000006.93001
7.645308 5.52 -2.86 5000005.74218
7.645308 5.5 -2.86 5000005.74218
7.645308 5.42 -2.86 5000005.74218
7.645308 5.4 -2.86 5000005.74218
7.8540779999999994 5.38 -2.86 5000006.09013
7.8540779999999994 5.36 -2.86 5000006.09013
7.8540779999999994 5.34 -2.86 5000006.09013
7.645308 4.72 -2.86 5000005.74218
7.645308 4.7 -2.86 5000005.74218
7.645308 4.66 -2.86 5000005.74218
7.645308 3.98 -2.86 5000005.74218
7.8540779999999994 2.1 -2.86 5000006.09013
8.358006 1.2 -2.86 5000006.93001
7.8540779999999994 5.38 -2.88 5000006.09013
7.645308 5.22 -2.88 5000005.74218
7.645308 5.2 -2.88 5000005.74218
7.645308 5.18 -2.88 5000005.74218
7.645308 5.16 -2.88 5000005.74218
7.8540779999999994 5.14 -2.88 5000006.09013
7.8540779999999994 5.12 -2.88 5000006.09013
7.8540779999999994 5.08 -2.88 5000006.09013
7.645308 5.06 -2.88 5000005.74218
7.645308 4.76 -2.88 5000005.74218
7.645308 4.7 -2.88 5000005.74218
7.645308 3.16 -2.88 5000005.74218
7.8540779999999994 2.06 -2.88 5000006.09013
7.645308 5.06 -2.9 5000005.74218
7.645308 5.04 -2.9 5000005.74218
7.645308 5.02 -2.9 5000005.74218
7.645308 5.0 -2.9 5000005.74218
7.645308 4.98 -2.9 5000005.74218
7.645308 4.84 -2.9 5000005.74218
7.645308 4.82 -2.9 5000005.74218
7.645308 4.8 -2.9 5000005.74218
7.645308 4.76 -2.9 5000005.74218
7.645308 4.24 -2.9 5000005.74218
7.645308 3.6 -2.9 5000005.74218
7.645308 2.28 -2.9 5000005.74218
7.8540779999999994 1.64 -2.9 5000006.09013
7.645308 4.84 -2.92 5000005.74218
7.645308 4.82 -2.92 5000005.74218
7.645308 4.8 -2.92 5000005.74218
7.645308 4.78 -2.92 5000005.74218
7.645308 4.7 -2.92 5000005.74218
7.645308 4.68 -2.92 5000005.74218
7.645308 4.66 -2.92 5000005.74218
7.645308 4.64 -2.92 5000005.74218
7.645308 4.2 -2.92 5000005.74218
7.645308 4.58 -2.94 5000005.74218
7.645308 4.56 -2.94 5000005.74218
7.645308 4.54 -2.94 5000005.74218
7.645308 4.14 -2.94 5000005.74218
7.645308 4.12 -2.94 5000005.74218
7.645308 4.1 -2.94 5000005.74218
7.645308 4.88 -2.96 5000005.74218
7.645308 4.54 -2.96 5000005.74218
7.645308 4.52 -2.96 5000005.74218
7.645308 4.5 -2.96 5000005.74218
7.645308 4.48 -2.96 5000005.74218
7.645308 4.4 -2.96 5000005.74218
7.645308 4.1 -2.96 5000005.74218
7.645308 4.06 -2.96 5000005.74218
7.459097999999999 2.9 -2.96 5000005.43183
7.8540779999999994 5.6 -2.98 5000006.09013
7.8540779999999994 5.58 -2.98 5000006.09013
7.645308 4.88 -2.98 5000005.74218
7.645308 4.4 -2.98 5000005.74218
7.645308 4.38 -2.98 5000005.74218
7.645308 4.36 -2.98 5000005.74218
7.645308 4.34 -2.98 5000005.74218
7.645308 4.32 -2.98 5000005.74218
7.645308 4.12 -2.98 5000005.74218
7.645308 4.1 -2.98 5000005.74218
7.8540779999999994 3.6 -2.98 5000006.09013
7.459097999999999 2.88 -2.98 5000005.43183
7.8540779999999994 5.58 -3.0 5000006.09013
7.459097999999999 4.12 -3.0 5000005.43183
7.459097999999999 4.08 -3.0 5000005.43183
7.645308 4.06 -3.0 5000005.74218
7.645308 4.04 -3.0 5000005.74218
7.8540779999999994 3.98 -3.0 5000006.09013
7.645308 3.96 -3.0 5000005.74218
7.459097999999999 3.92 -3.0 5000005.43183
7.459097999999999 3.9 -3.0 5000005.43183
7.8540779999999994 3.62 -3.0 5000006.09013
7.459097999999999 3.52 -3.0 5000005.43183
7.645308 3.44 -3.0 5000005.74218
7.459097999999999 2.9 -3.0 5000005.43183
7.459097999999999 2.88 -3.0 5000005.43183
7.459097999999999 2.86 -3.0 5000005.43183
7.8540779999999994 5.26 -3.02 5000006.09013
7.645308 4.88 -3.02 5000005.74218
7.645308 4.04 -3.02 5000005.74218
7.459097999999999 3.92 -3.02 5000005.43183
7.459097999999999 3.9 -3.02 5000005.43183
7.459097999999999 3.88 -3.02 5000005.43183
7.645308 3.44 -3.02 5000005.74218
7.645308 3.32 -3.02 5000005.74218
7.459097999999999 3.3 -3.02 5000005.43183
7.459097999999999 2.88 -3.02 5000005.43183
7.8540779999999994 5.12 -3.04 5000006.09013
7.459097999999999 3.92 -3.04 5000005.43183
7.459097999999999 3.9 -3.04 5000005.43183
7.459097999999999 3.88 -3.04 5000005.43183
7.645308 3.82 -3.04 5000005.74218
7.645308 3.8 -3.04 5000005.74218
7.645308 3.74 -3.04 5000005.74218
7.645308 3.26 -3.04 5000005.74218
7.459097999999999 3.14 -3.04 5000005.43183
7.645308 5.2 -3.06 5000005.74218
7.645308 4.9 -3.06 5000005.74218
7.645308 3.78 -3.06 5000005.74218
7.459097999999999 3.68 -3.06 5000005.43183
7.645308 3.62 -3.06 5000005.74218
7.645308 3.6 -3.06 5000005.74218
7.645308 3.58 -3.06 5000005.74218
7.459097999999999 3.54 -3.06 5000005.43183
7.645308 5.2 -3.08 5000005.74218
7.645308 5.18 -3.08 5000005.74218
7.645308 4.9 -3.08 5000005.74218
7.645308 4.8 -3.08 5000005.74218
7.645308 4.78 -3.08 5000005.74218
7.645308 3.56 -3.08 5000005.74218
7.459097999999999 3.54 -3.08 5000005.43183
7.459097999999999 3.52 -3.08 5000005.43183
7.459097999999999 3.5 -3.08 5000005.43183
7.459097999999999 3.48 -3.08 5000005.43183
7.645308 3.46 -3.08 5000005.74218
7.459097999999999 3.44 -3.08 5000005.43183
7.645308 3.4 -3.08 5000005.74218
7.459097999999999 3.38 -3.08 5000005.43183
7.459097999999999 3.36 -3.08 5000005.43183
7.8540779999999994 1.54 -3.08 5000006.09013
7.645308 1.52 -3.08 5000005.74218
7.459097999999999 5.5 -3.1 5000005.43183
7.645308 5.2 -3.1 5000005.74218
7.645308 4.78 -3.1 5000005.74218
7.645308 4.62 -3.1 5000005.74218
7.645308 3.4 -3.1 5000005.74218
7.459097999999999 3.38 -3.1 5000005.43183
7.459097999999999 3.32 -3.1 5000005.43183
7.459097999999999 3.3 -3.1 5000005.43183
7.459097999999999 3.28 -3.1 5000005.43183
7.645308 3.26 -3.1 5000005.74218
7.645308 3.24 -3.1 5000005.74218
7.645308 3.22 -3.1 5000005.74218
7.645308 3.2 -3.1 5000005.74218
7.645308 3.18 -3.1 5000005.74218
7.459097999999999 3.16 -3.1 5000005.43183
7.645308 1.58 -3.1 5000005.74218
7.645308 1.54 -3.1 5000005.74218
7.459097999999999 5.52 -3.12 5000005.43183
7.459097999999999 5.5 -3.12 5000005.43183
7.645308 4.52 -3.12 5000005.74218
7.645308 4.5 -3.12 5000005.74218
7.645308 4.48 -3.12 5000005.74218
7.645308 4.46 -3.12 5000005.74218
7.645308 3.18 -3.12 5000005.74218
7.459097999999999 3.16 -3.12 5000005.43183
7.459097999999999 3.14 -3.12 5000005.43183
7.459097999999999 3.12 -3.12 5000005.43183
7.459097999999999 3.1 -3.12 5000005.43183
7.645308 3.08 -3.12 5000005.74218
7.645308 3.06 -3.12 5000005.74218
7.645308 3.04 -3.12 5000005.74218
7.645308 3.02 -3.12 5000005.74218
7.645308 2.98 -3.12 5000005.74218
7.459097999999999 2.96 -3.12 5000005.43183
7.459097999999999 2.94 -3.12 5000005.43183
7.645308 1.56 -3.12 5000005.74218
7.645308 1.54 -3.12 5000005.74218
7.459097999999999 5.54 -3.14 5000005.43183
7.645308 4.3 -3.14 5000005.74218
7.645308 4.28 -3.14 5000005.74218
7.645308 4.24 -3.14 5000005.74218
7.645308 3.0 -3.14 5000005.74218
7.645308 2.98 -3.14 5000005.74218
7.459097999999999 2.96 -3.14 5000005.43183
7.459097999999999 2.94 -3.14 5000005.43183
7.459097999999999 2.92 -3.14 5000005.43183
7.459097999999999 2.9 -3.14 5000005.43183
7.459097999999999 2.88 -3.14 5000005.43183
7.459097999999999 2.86 -3.14 5000005.43183
7.645308 2.84 -3.14 5000005.74218
7.645308 2.82 -3.14 5000005.74218
7.645308 2.7 -3.14 5000005.74218
7.645308 1.56 -3.14 5000005.74218
7.459097999999999 4.56 -3.16 5000005.43183
7.645308 4.54 -3.16 5000005.74218
7.645308 4.1 -3.16 5000005.74218
7.459097999999999 2.9 -3.16 5000005.43183
7.459097999999999 2.88 -3.16 5000005.43183
7.459097999999999 2.8 -3.16 5000005.43183
7.459097999999999 2.78 -3.16 5000005.43183
7.459097999999999 2.76 -3.16 5000005.43183
7.645308 2.74 -3.16 5000005.74218
