VERSION .7
FIELDS x y z rgb
SIZE 4 4 4 4
TYPE F F F F
COUNT 1 1 1 1
WIDTH 1476
HEIGHT 1
VIEWPOINT 0 0 0 1 0 0 0
POINTS 1476
DATA ascii
11.29218 -0.4 3.0 5000011.8203
11.29218 -0.5 3.0 5000011.8203
21.41664 -1.22 3.0 5000028.6944
28.29636 -4.8 3.0 5000040.1606
21.41664 -4.86 3.0 5000028.6944
44.33376 -6.02 3.0 5000066.8896
44.33376 -6.04 3.0 5000066.8896
44.33376 -6.06 3.0 5000066.8896
21.41664 5.68 2.98 5000028.6944
21.41664 5.62 2.98 5000028.6944
21.41664 5.6 2.98 5000028.6944
21.41664 5.3 2.98 5000028.6944
21.41664 5.28 2.98 5000028.6944
9.442464 4.66 2.98 5000008.73744
9.442464 4.36 2.98 5000008.73744
9.023147999999999 4.32 2.98 5000008.03858
9.442464 4.0 2.98 5000008.73744
9.941628000000001 3.74 2.98 5000009.56938
9.941628000000001 3.72 2.98 5000009.56938
9.941628000000001 3.7 2.98 5000009.56938
124.19999999999999 2.36 2.98 5000200.0
28.29636 2.26 2.98 5000040.1606
28.29636 1.98 2.98 5000040.1606
28.29636 1.54 2.98 5000040.1606
21.41664 0.72 2.98 5000028.6944
11.29218 -0.4 2.98 5000011.8203
11.29218 -0.5 2.98 5000011.8203
21.41664 -1.16 2.98 5000028.6944
21.41664 -1.2 2.98 5000028.6944
21.41664 -1.22 2.98 5000028.6944
28.29636 -4.8 2.98 5000040.1606
21.41664 -4.86 2.98 5000028.6944
44.33376 -6.0 2.98 5000066.8896
44.33376 -6.02 2.98 5000066.8896
28.29636 -6.06 2.98 5000040.1606
21.41664 5.68 2.96 5000028.6944
21.41664 5.62 2.96 5000028.6944
21.41664 5.6 2.96 5000028.6944
21.41664 5.28 2.96 5000028.6944
9.442464 4.66 2.96 5000008.73744
9.442464 4.64 2.96 5000008.73744
9.442464 4.38 2.96 5000008.73744
9.442464 4.36 2.96 5000008.73744
9.442464 4.34 2.96 5000008.73744
9.442464 4.0 2.96 5000008.73744
9.941628000000001 3.76 2.96 5000009.56938
9.941628000000001 3.74 2.96 5000009.56938
9.941628000000001 3.72 2.96 5000009.56938
21.41664 3.1 2.96 5000028.6944
28.29636 2.62 2.96 5000040.1606
28.29636 2.24 2.96 5000040.1606
21.41664 2.16 2.96 5000028.6944
21.41664 2.14 2.96 5000028.6944
28.29636 1.54 2.96 5000040.1606
124.19999999999999 0.88 2.96 5000200.0
21.41664 0.72 2.96 5000028.6944
11.29218 -0.4 2.96 5000011.8203
11.29218 -0.5 2.96 5000011.8203
28.29636 -1.14 2.96 5000040.1606
21.41664 -1.2 2.96 5000028.6944
28.29636 -4.8 2.96 5000040.1606
21.41664 -4.86 2.96 5000028.6944
44.33376 -6.0 2.96 5000066.8896
28.29636 -6.04 2.96 5000040.1606
28.29636 -6.06 2.96 5000040.1606
21.41664 5.68 2.94 5000028.6944
21.41664 5.62 2.94 5000028.6944
21.41664 5.6 2.94 5000028.6944
21.41664 5.16 2.94 5000028.6944
21.41664 5.06 2.94 5000028.6944
9.442464 4.64 2.94 5000008.73744
9.442464 4.38 2.94 5000008.73744
9.442464 4.34 2.94 5000008.73744
9.941628000000001 3.76 2.94 5000009.56938
9.941628000000001 3.74 2.94 5000009.56938
21.41664 3.32 2.94 5000028.6944
28.29636 2.62 2.94 5000040.1606
44.33376 2.28 2.94 5000066.8896
44.33376 2.26 2.94 5000066.8896
44.33376 2.24 2.94 5000066.8896
21.41664 2.14 2.94 5000028.6944
28.29636 1.94 2.94 5000040.1606
28.29636 1.54 2.94 5000040.1606
28.29636 1.5 2.94 5000040.1606
21.41664 0.72 2.94 5000028.6944
11.29218 -0.4 2.94 5000011.8203
11.29218 -0.5 2.94 5000011.8203
28.29636 -1.14 2.94 5000040.1606
21.41664 -1.2 2.94 5000028.6944
28.29636 -4.8 2.94 5000040.1606
21.41664 -4.86 2.94 5000028.6944
44.33376 -5.98 2.94 5000066.8896
28.29636 -6.06 2.94 5000040.1606
13.4736 5.84 2.92 5000015.456
21.41664 5.68 2.92 5000028.6944
21.41664 5.62 2.92 5000028.6944
21.41664 5.6 2.92 5000028.6944
21.41664 5.24 2.92 5000028.6944
21.41664 5.06 2.92 5000028.6944
9.442464 4.38 2.92 5000008.73744
9.941628000000001 3.74 2.92 5000009.56938
21.41664 3.36 2.92 5000028.6944
21.41664 3.32 2.92 5000028.6944
21.41664 3.14 2.92 5000028.6944
28.29636 2.66 2.92 5000040.1606
44.33376 2.28 2.92 5000066.8896
44.33376 2.26 2.92 5000066.8896
17.592840000000002 2.12 2.92 5000022.3214
28.29636 1.94 2.92 5000040.1606
28.29636 1.54 2.92 5000040.1606
28.29636 1.52 2.92 5000040.1606
28.29636 1.5 2.92 5000040.1606
21.41664 0.74 2.92 5000028.6944
21.41664 0.72 2.92 5000028.6944
11.29218 -0.4 2.92 5000011.8203
11.29218 -0.5 2.92 5000011.8203
28.29636 -1.14 2.92 5000040.1606
28.29636 -4.8 2.92 5000040.1606
21.41664 -4.86 2.92 5000028.6944
44.33376 -5.98 2.92 5000066.8896
28.29636 -6.08 2.92 5000040.1606
21.41664 5.68 2.9 5000028.6944
21.41664 5.62 2.9 5000028.6944
21.41664 5.6 2.9 5000028.6944
21.41664 5.06 2.9 5000028.6944
21.41664 4.74 2.9 5000028.6944
21.41664 4.72 2.9 5000028.6944
9.442464 4.4 2.9 5000008.73744
9.442464 4.38 2.9 5000008.73744
9.442464 4.3 2.9 5000008.73744
9.442464 4.1 2.9 5000008.73744
21.41664 3.36 2.9 5000028.6944
21.41664 3.14 2.9 5000028.6944
21.41664 3.12 2.9 5000028.6944
28.29636 2.66 2.9 5000040.1606
44.33376 2.28 2.9 5000066.8896
28.29636 1.54 2.9 5000040.1606
28.29636 1.52 2.9 5000040.1606
28.29636 1.5 2.9 5000040.1606
21.41664 0.74 2.9 5000028.6944
21.41664 0.72 2.9 5000028.6944
11.29218 -0.4 2.9 5000011.8203
11.29218 -0.5 2.9 5000011.8203
28.29636 -1.14 2.9 5000040.1606
28.29636 -4.8 2.9 5000040.1606
21.41664 -4.86 2.9 5000028.6944
124.19999999999999 -5.92 2.9 5000200.0
28.29636 -6.22 2.9 5000040.1606
21.41664 5.68 2.88 5000028.6944
21.41664 5.62 2.88 5000028.6944
21.41664 5.6 2.88 5000028.6944
21.41664 5.18 2.88 5000028.6944
21.41664 5.06 2.88 5000028.6944
21.41664 4.76 2.88 5000028.6944
9.442464 4.56 2.88 5000008.73744
9.442464 4.4 2.88 5000008.73744
9.442464 4.38 2.88 5000008.73744
9.442464 4.3 2.88 5000008.73744
9.442464 4.1 2.88 5000008.73744
9.442464 3.78 2.88 5000008.73744
21.41664 2.86 2.88 5000028.6944
21.41664 2.8 2.88 5000028.6944
124.19999999999999 2.38 2.88 5000200.0
124.19999999999999 2.36 2.88 5000200.0
44.33376 2.3 2.88 5000066.8896
21.41664 2.2 2.88 5000028.6944
17.592840000000002 2.12 2.88 5000022.3214
28.29636 1.52 2.88 5000040.1606
28.29636 1.5 2.88 5000040.1606
21.41664 0.74 2.88 5000028.6944
21.41664 0.72 2.88 5000028.6944
11.29218 -0.4 2.88 5000011.8203
11.29218 -0.5 2.88 5000011.8203
28.29636 -4.8 2.88 5000040.1606
21.41664 -4.86 2.88 5000028.6944
28.29636 -6.22 2.88 5000040.1606
28.29636 -6.24 2.88 5000040.1606
21.41664 -6.3 2.88 5000028.6944
21.41664 5.68 2.86 5000028.6944
21.41664 5.62 2.86 5000028.6944
21.41664 5.6 2.86 5000028.6944
21.41664 5.06 2.86 5000028.6944
9.442464 4.56 2.86 5000008.73744
9.442464 4.54 2.86 5000008.73744
9.442464 4.4 2.86 5000008.73744
9.442464 4.3 2.86 5000008.73744
9.442464 3.78 2.86 5000008.73744
21.41664 3.06 2.86 5000028.6944
21.41664 2.88 2.86 5000028.6944
21.41664 2.8 2.86 5000028.6944
44.33376 2.3 2.86 5000066.8896
44.33376 2.28 2.86 5000066.8896
21.41664 2.2 2.86 5000028.6944
21.41664 2.18 2.86 5000028.6944
28.29636 2.12 2.86 5000040.1606
28.29636 1.52 2.86 5000040.1606
28.29636 1.5 2.86 5000040.1606
21.41664 0.74 2.86 5000028.6944
21.41664 0.72 2.86 5000028.6944
11.29218 -0.4 2.86 5000011.8203
11.29218 -0.5 2.86 5000011.8203
21.41664 -1.22 2.86 5000028.6944
28.29636 -4.8 2.86 5000040.1606
21.41664 -4.86 2.86 5000028.6944
28.29636 -6.22 2.86 5000040.1606
28.29636 -6.24 2.86 5000040.1606
21.41664 5.68 2.84 5000028.6944
21.41664 5.62 2.84 5000028.6944
21.41664 5.6 2.84 5000028.6944
9.442464 4.54 2.84 5000008.73744
9.442464 4.3 2.84 5000008.73744
9.442464 3.8 2.84 5000008.73744
9.442464 3.78 2.84 5000008.73744
21.41664 3.54 2.84 5000028.6944
21.41664 3.52 2.84 5000028.6944
21.41664 2.22 2.84 5000028.6944
21.41664 2.18 2.84 5000028.6944
17.592840000000002 2.08 2.84 5000022.3214
28.29636 2.04 2.84 5000040.1606
28.29636 1.86 2.84 5000040.1606
28.29636 1.52 2.84 5000040.1606
21.41664 0.74 2.84 5000028.6944
21.41664 0.72 2.84 5000028.6944
11.29218 -0.4 2.84 5000011.8203
11.29218 -0.5 2.84 5000011.8203
21.41664 -1.22 2.84 5000028.6944
28.29636 -4.8 2.84 5000040.1606
21.41664 -4.86 2.84 5000028.6944
44.33376 -6.16 2.84 5000066.8896
28.29636 -6.22 2.84 5000040.1606
28.29636 -6.24 2.84 5000040.1606
21.41664 5.68 2.82 5000028.6944
21.41664 5.62 2.82 5000028.6944
21.41664 5.6 2.82 5000028.6944
9.442464 4.5 2.82 5000008.73744
9.941628000000001 3.8 2.82 5000009.56938
21.41664 3.6 2.82 5000028.6944
21.41664 3.0 2.82 5000028.6944
44.33376 2.26 2.82 5000066.8896
21.41664 2.18 2.82 5000028.6944
21.41664 2.08 2.82 5000028.6944
15.15888 2.02 2.82 5000018.2648
28.29636 1.52 2.82 5000040.1606
28.29636 1.5 2.82 5000040.1606
21.41664 0.74 2.82 5000028.6944
21.41664 0.72 2.82 5000028.6944
11.29218 -0.4 2.82 5000011.8203
11.29218 -0.5 2.82 5000011.8203
28.29636 -1.16 2.82 5000040.1606
21.41664 -1.22 2.82 5000028.6944
28.29636 -4.8 2.82 5000040.1606
21.41664 -4.86 2.82 5000028.6944
44.33376 -6.16 2.82 5000066.8896
28.29636 -6.22 2.82 5000040.1606
28.29636 -6.24 2.82 5000040.1606
21.41664 5.68 2.8 5000028.6944
21.41664 5.66 2.8 5000028.6944
21.41664 5.62 2.8 5000028.6944
21.41664 5.6 2.8 5000028.6944
17.592840000000002 4.6 2.8 5000022.3214
9.941628000000001 3.8 2.8 5000009.56938
44.33376 2.26 2.8 5000066.8896
28.29636 1.84 2.8 5000040.1606
28.29636 1.52 2.8 5000040.1606
21.41664 0.74 2.8 5000028.6944
21.41664 0.72 2.8 5000028.6944
11.29218 -0.4 2.8 5000011.8203
11.29218 -0.5 2.8 5000011.8203
28.29636 -1.16 2.8 5000040.1606
21.41664 -1.22 2.8 5000028.6944
21.41664 -3.14 2.8 5000028.6944
28.29636 -4.8 2.8 5000040.1606
21.41664 -4.86 2.8 5000028.6944
44.33376 -6.16 2.8 5000066.8896
28.29636 -6.24 2.8 5000040.1606
21.41664 5.62 2.78 5000028.6944
21.41664 5.6 2.78 5000028.6944
21.41664 5.06 2.78 5000028.6944
21.41664 5.0 2.78 5000028.6944
9.442464 4.5 2.78 5000008.73744
9.442464 3.98 2.78 5000008.73744
9.941628000000001 3.82 2.78 5000009.56938
9.941628000000001 3.8 2.78 5000009.56938
21.41664 2.14 2.78 5000028.6944
21.41664 2.12 2.78 5000028.6944
17.592840000000002 2.06 2.78 5000022.3214
15.15888 2.0 2.78 5000018.2648
28.29636 1.52 2.78 5000040.1606
21.41664 0.74 2.78 5000028.6944
21.41664 0.72 2.78 5000028.6944
11.29218 -0.4 2.78 5000011.8203
11.29218 -0.5 2.78 5000011.8203
21.41664 -1.22 2.78 5000028.6944
21.41664 -3.14 2.78 5000028.6944
28.29636 -4.8 2.78 5000040.1606
21.41664 -4.86 2.78 5000028.6944
44.33376 -6.16 2.78 5000066.8896
28.29636 -6.24 2.78 5000040.1606
21.41664 5.62 2.76 5000028.6944
21.41664 5.6 2.76 5000028.6944
21.41664 5.06 2.76 5000028.6944
21.41664 5.0 2.76 5000028.6944
9.442464 4.5 2.76 5000008.73744
9.442464 4.44 2.76 5000008.73744
9.442464 4.02 2.76 5000008.73744
21.41664 2.96 2.76 5000028.6944
28.29636 2.18 2.76 5000040.1606
21.41664 2.14 2.76 5000028.6944
21.41664 2.12 2.76 5000028.6944
17.592840000000002 2.04 2.76 5000022.3214
28.29636 1.52 2.76 5000040.1606
21.41664 0.74 2.76 5000028.6944
21.41664 0.72 2.76 5000028.6944
11.29218 -0.4 2.76 5000011.8203
11.29218 -0.5 2.76 5000011.8203
21.41664 -1.22 2.76 5000028.6944
21.41664 -3.14 2.76 5000028.6944
21.41664 -3.4 2.76 5000028.6944
28.29636 -4.8 2.76 5000040.1606
21.41664 -4.86 2.76 5000028.6944
44.33376 -6.16 2.76 5000066.8896
28.29636 -6.24 2.76 5000040.1606
21.41664 5.62 2.74 5000028.6944
21.41664 5.6 2.74 5000028.6944
21.41664 5.0 2.74 5000028.6944
9.442464 4.5 2.74 5000008.73744
9.442464 4.48 2.74 5000008.73744
9.442464 4.02 2.74 5000008.73744
9.442464 4.0 2.74 5000008.73744
21.41664 3.74 2.74 5000028.6944
28.29636 3.56 2.74 5000040.1606
21.41664 3.22 2.74 5000028.6944
21.41664 3.04 2.74 5000028.6944
28.29636 2.8 2.74 5000040.1606
28.29636 2.76 2.74 5000040.1606
44.33376 2.2 2.74 5000066.8896
44.33376 2.18 2.74 5000066.8896
21.41664 2.14 2.74 5000028.6944
21.41664 2.12 2.74 5000028.6944
44.33376 1.94 2.74 5000066.8896
28.29636 1.52 2.74 5000040.1606
21.41664 0.74 2.74 5000028.6944
21.41664 0.72 2.74 5000028.6944
11.29218 -0.4 2.74 5000011.8203
11.29218 -0.5 2.74 5000011.8203
21.41664 -1.22 2.74 5000028.6944
21.41664 -3.4 2.74 5000028.6944
21.41664 -4.86 2.74 5000028.6944
44.33376 -6.16 2.74 5000066.8896
28.29636 -6.24 2.74 5000040.1606
21.41664 5.62 2.72 5000028.6944
21.41664 5.6 2.72 5000028.6944
9.442464 4.5 2.72 5000008.73744
9.442464 4.48 2.72 5000008.73744
9.442464 4.38 2.72 5000008.73744
9.442464 4.0 2.72 5000008.73744
9.442464 3.86 2.72 5000008.73744
9.442464 3.84 2.72 5000008.73744
21.41664 3.74 2.72 5000028.6944
21.41664 3.3 2.72 5000028.6944
21.41664 3.22 2.72 5000028.6944
21.41664 2.98 2.72 5000028.6944
28.29636 2.8 2.72 5000040.1606
28.29636 2.76 2.72 5000040.1606
21.41664 2.48 2.72 5000028.6944
15.15888 2.34 2.72 5000018.2648
44.33376 2.22 2.72 5000066.8896
44.33376 2.2 2.72 5000066.8896
44.33376 2.18 2.72 5000066.8896
21.41664 2.12 2.72 5000028.6944
21.41664 2.02 2.72 5000028.6944
28.29636 1.72 2.72 5000040.1606
28.29636 1.52 2.72 5000040.1606
21.41664 0.74 2.72 5000028.6944
21.41664 0.72 2.72 5000028.6944
11.29218 -0.4 2.72 5000011.8203
11.29218 -0.5 2.72 5000011.8203
21.41664 -1.22 2.72 5000028.6944
21.41664 -3.36 2.72 5000028.6944
21.41664 -3.4 2.72 5000028.6944
21.41664 -4.86 2.72 5000028.6944
28.29636 -6.24 2.72 5000040.1606
21.41664 5.68 2.7 5000028.6944
21.41664 5.62 2.7 5000028.6944
21.41664 5.6 2.7 5000028.6944
9.442464 4.48 2.7 5000008.73744
9.442464 4.38 2.7 5000008.73744
9.442464 3.88 2.7 5000008.73744
9.442464 3.86 2.7 5000008.73744
21.41664 3.76 2.7 5000028.6944
21.41664 3.62 2.7 5000028.6944
21.41664 3.5 2.7 5000028.6944
21.41664 3.44 2.7 5000028.6944
21.41664 3.3 2.7 5000028.6944
21.41664 3.28 2.7 5000028.6944
21.41664 3.0 2.7 5000028.6944
28.29636 2.54 2.7 5000040.1606
28.29636 2.52 2.7 5000040.1606
21.41664 2.44 2.7 5000028.6944
15.15888 2.32 2.7 5000018.2648
44.33376 2.22 2.7 5000066.8896
44.33376 2.2 2.7 5000066.8896
28.29636 1.72 2.7 5000040.1606
28.29636 1.52 2.7 5000040.1606
17.592840000000002 1.42 2.7 5000022.3214
21.41664 0.74 2.7 5000028.6944
21.41664 0.72 2.7 5000028.6944
11.29218 -0.4 2.7 5000011.8203
11.29218 -0.5 2.7 5000011.8203
21.41664 -1.22 2.7 5000028.6944
13.4736 -2.92 2.7 5000015.456
21.41664 -3.36 2.7 5000028.6944
21.41664 -3.4 2.7 5000028.6944
21.41664 -4.86 2.7 5000028.6944
28.29636 -6.24 2.7 5000040.1606
21.41664 -6.3 2.7 5000028.6944
21.41664 5.68 2.68 5000028.6944
21.41664 5.62 2.68 5000028.6944
21.41664 5.6 2.68 5000028.6944
9.442464 4.48 2.68 5000008.73744
9.442464 4.38 2.68 5000008.73744
9.442464 4.02 2.68 5000008.73744
9.442464 3.9 2.68 5000008.73744
21.41664 3.48 2.68 5000028.6944
21.41664 3.42 2.68 5000028.6944
21.41664 3.38 2.68 5000028.6944
21.41664 2.42 2.68 5000028.6944
15.15888 2.3 2.68 5000018.2648
44.33376 2.08 2.68 5000066.8896
28.29636 1.52 2.68 5000040.1606
21.41664 0.74 2.68 5000028.6944
21.41664 0.72 2.68 5000028.6944
11.29218 -0.4 2.68 5000011.8203
11.29218 -0.5 2.68 5000011.8203
21.41664 -1.22 2.68 5000028.6944
21.41664 -2.66 2.68 5000028.6944
21.41664 -2.92 2.68 5000028.6944
21.41664 -4.86 2.68 5000028.6944
28.29636 -6.24 2.68 5000040.1606
21.41664 -6.3 2.68 5000028.6944
21.41664 5.68 2.66 5000028.6944
21.41664 5.62 2.66 5000028.6944
21.41664 5.6 2.66 5000028.6944
9.442464 4.5 2.66 5000008.73744
9.442464 4.48 2.66 5000008.73744
9.442464 4.02 2.66 5000008.73744
9.442464 3.9 2.66 5000008.73744
21.41664 3.48 2.66 5000028.6944
21.41664 3.42 2.66 5000028.6944
21.41664 3.24 2.66 5000028.6944
21.41664 3.12 2.66 5000028.6944
21.41664 2.8 2.66 5000028.6944
21.41664 2.44 2.66 5000028.6944
44.33376 2.24 2.66 5000066.8896
44.33376 2.12 2.66 5000066.8896
44.33376 2.1 2.66 5000066.8896
28.29636 1.52 2.66 5000040.1606
21.41664 0.74 2.66 5000028.6944
21.41664 0.72 2.66 5000028.6944
11.29218 -0.4 2.66 5000011.8203
11.29218 -0.5 2.66 5000011.8203
21.41664 -1.22 2.66 5000028.6944
21.41664 -2.66 2.66 5000028.6944
21.41664 -2.94 2.66 5000028.6944
21.41664 -3.14 2.66 5000028.6944
21.41664 -4.86 2.66 5000028.6944
44.33376 -6.16 2.66 5000066.8896
28.29636 -6.24 2.66 5000040.1606
21.41664 5.68 2.64 5000028.6944
21.41664 5.62 2.64 5000028.6944
21.41664 5.6 2.64 5000028.6944
9.442464 4.5 2.64 5000008.73744
9.442464 4.48 2.64 5000008.73744
9.442464 4.02 2.64 5000008.73744
9.442464 3.9 2.64 5000008.73744
21.41664 3.52 2.64 5000028.6944
21.41664 3.32 2.64 5000028.6944
21.41664 3.24 2.64 5000028.6944
21.41664 3.12 2.64 5000028.6944
21.41664 2.82 2.64 5000028.6944
21.41664 2.8 2.64 5000028.6944
21.41664 2.76 2.64 5000028.6944
28.29636 2.68 2.64 5000040.1606
28.29636 2.44 2.64 5000040.1606
28.29636 2.4 2.64 5000040.1606
44.33376 2.12 2.64 5000066.8896
44.33376 2.1 2.64 5000066.8896
28.29636 2.04 2.64 5000040.1606
28.29636 1.86 2.64 5000040.1606
28.29636 1.52 2.64 5000040.1606
21.41664 0.74 2.64 5000028.6944
21.41664 0.72 2.64 5000028.6944
11.29218 -0.4 2.64 5000011.8203
11.29218 -0.5 2.64 5000011.8203
21.41664 -1.22 2.64 5000028.6944
21.41664 -2.66 2.64 5000028.6944
21.41664 -2.92 2.64 5000028.6944
21.41664 -2.94 2.64 5000028.6944
21.41664 -3.14 2.64 5000028.6944
21.41664 -3.4 2.64 5000028.6944
21.41664 -4.86 2.64 5000028.6944
44.33376 -6.16 2.64 5000066.8896
28.29636 -6.24 2.64 5000040.1606
21.41664 5.68 2.62 5000028.6944
21.41664 5.62 2.62 5000028.6944
21.41664 5.6 2.62 5000028.6944
9.442464 4.48 2.62 5000008.73744
9.442464 3.92 2.62 5000008.73744
21.41664 3.52 2.62 5000028.6944
21.41664 3.16 2.62 5000028.6944
21.41664 3.1 2.62 5000028.6944
21.41664 2.82 2.62 5000028.6944
28.29636 2.44 2.62 5000040.1606
28.29636 2.4 2.62 5000040.1606
44.33376 2.12 2.62 5000066.8896
44.33376 2.1 2.62 5000066.8896
28.29636 2.04 2.62 5000040.1606
28.29636 1.46 2.62 5000040.1606
28.29636 1.44 2.62 5000040.1606
21.41664 0.74 2.62 5000028.6944
21.41664 0.72 2.62 5000028.6944
11.29218 -0.4 2.62 5000011.8203
11.29218 -0.5 2.62 5000011.8203
21.41664 -1.22 2.62 5000028.6944
28.29636 -2.58 2.62 5000040.1606
21.41664 -2.66 2.62 5000028.6944
21.41664 -2.68 2.62 5000028.6944
21.41664 -2.92 2.62 5000028.6944
21.41664 -3.36 2.62 5000028.6944
21.41664 -3.4 2.62 5000028.6944
21.41664 -4.86 2.62 5000028.6944
44.33376 -6.16 2.62 5000066.8896
28.29636 -6.24 2.62 5000040.1606
21.41664 5.68 2.6 5000028.6944
21.41664 5.62 2.6 5000028.6944
21.41664 5.6 2.6 5000028.6944
9.442464 4.48 2.6 5000008.73744
17.592840000000002 4.18 2.6 5000022.3214
17.592840000000002 4.16 2.6 5000022.3214
17.592840000000002 4.14 2.6 5000022.3214
9.442464 4.02 2.6 5000008.73744
9.442464 3.94 2.6 5000008.73744
9.442464 3.92 2.6 5000008.73744
21.41664 3.12 2.6 5000028.6944
21.41664 3.1 2.6 5000028.6944
21.41664 3.06 2.6 5000028.6944
28.29636 2.72 2.6 5000040.1606
28.29636 2.42 2.6 5000040.1606
28.29636 2.04 2.6 5000040.1606
28.29636 2.02 2.6 5000040.1606
21.41664 1.92 2.6 5000028.6944
28.29636 1.46 2.6 5000040.1606
21.41664 0.74 2.6 5000028.6944
11.29218 -0.4 2.6 5000011.8203
11.29218 -0.5 2.6 5000011.8203
21.41664 -1.22 2.6 5000028.6944
21.41664 -2.66 2.6 5000028.6944
21.41664 -2.68 2.6 5000028.6944
28.29636 -2.84 2.6 5000040.1606
28.29636 -2.86 2.6 5000040.1606
21.41664 -2.92 2.6 5000028.6944
21.41664 -3.36 2.6 5000028.6944
21.41664 -3.4 2.6 5000028.6944
21.41664 -4.82 2.6 5000028.6944
21.41664 -4.86 2.6 5000028.6944
28.29636 -6.24 2.6 5000040.1606
21.41664 -6.3 2.6 5000028.6944
21.41664 5.68 2.58 5000028.6944
21.41664 5.62 2.58 5000028.6944
21.41664 5.6 2.58 5000028.6944
9.442464 4.48 2.58 5000008.73744
9.442464 4.08 2.58 5000008.73744
9.442464 3.96 2.58 5000008.73744
9.442464 3.94 2.58 5000008.73744
21.41664 3.86 2.58 5000028.6944
21.41664 3.46 2.58 5000028.6944
21.41664 3.38 2.58 5000028.6944
28.29636 3.26 2.58 5000040.1606
21.41664 3.12 2.58 5000028.6944
21.41664 3.1 2.58 5000028.6944
44.33376 2.76 2.58 5000066.8896
28.29636 2.68 2.58 5000040.1606
44.33376 2.08 2.58 5000066.8896
21.41664 1.96 2.58 5000028.6944
21.41664 1.92 2.58 5000028.6944
28.29636 1.42 2.58 5000040.1606
15.15888 0.86 2.58 5000018.2648
21.41664 0.74 2.58 5000028.6944
11.29218 -0.4 2.58 5000011.8203
11.29218 -0.5 2.58 5000011.8203
21.41664 -1.22 2.58 5000028.6944
21.41664 -2.66 2.58 5000028.6944
28.29636 -2.84 2.58 5000040.1606
28.29636 -2.86 2.58 5000040.1606
21.41664 -2.92 2.58 5000028.6944
21.41664 -3.4 2.58 5000028.6944
21.41664 -4.82 2.58 5000028.6944
21.41664 -4.86 2.58 5000028.6944
28.29636 -6.24 2.58 5000040.1606
21.41664 5.68 2.56 5000028.6944
21.41664 5.62 2.56 5000028.6944
21.41664 5.6 2.56 5000028.6944
9.442464 4.46 2.56 5000008.73744
9.442464 4.08 2.56 5000008.73744
9.442464 4.06 2.56 5000008.73744
9.442464 3.96 2.56 5000008.73744
21.41664 3.46 2.56 5000028.6944
21.41664 2.98 2.56 5000028.6944
21.41664 2.0 2.56 5000028.6944
21.41664 1.98 2.56 5000028.6944
21.41664 1.9 2.56 5000028.6944
21.41664 1.88 2.56 5000028.6944
28.29636 1.42 2.56 5000040.1606
28.29636 1.0 2.56 5000040.1606
21.41664 0.92 2.56 5000028.6944
15.15888 0.86 2.56 5000018.2648
21.41664 0.74 2.56 5000028.6944
11.29218 -0.4 2.56 5000011.8203
11.29218 -0.5 2.56 5000011.8203
21.41664 -1.22 2.56 5000028.6944
21.41664 -2.66 2.56 5000028.6944
28.29636 -2.84 2.56 5000040.1606
28.29636 -2.86 2.56 5000040.1606
21.41664 -2.94 2.56 5000028.6944
28.29636 -4.82 2.56 5000040.1606
28.29636 -4.86 2.56 5000040.1606
21.41664 -5.94 2.56 5000028.6944
44.33376 -6.16 2.56 5000066.8896
28.29636 -6.24 2.56 5000040.1606
21.41664 5.68 2.54 5000028.6944
21.41664 5.62 2.54 5000028.6944
21.41664 5.6 2.54 5000028.6944
9.442464 4.02 2.54 5000008.73744
9.442464 3.98 2.54 5000008.73744
9.442464 3.96 2.54 5000008.73744
21.41664 3.86 2.54 5000028.6944
21.41664 3.54 2.54 5000028.6944
28.29636 3.32 2.54 5000040.1606
28.29636 3.3 2.54 5000040.1606
21.41664 2.98 2.54 5000028.6944
28.29636 2.68 2.54 5000040.1606
21.41664 2.0 2.54 5000028.6944
12.23748 1.74 2.54 5000013.3958
28.29636 1.42 2.54 5000040.1606
28.29636 1.0 2.54 5000040.1606
15.15888 0.86 2.54 5000018.2648
21.41664 0.74 2.54 5000028.6944
11.29218 -0.4 2.54 5000011.8203
11.29218 -0.5 2.54 5000011.8203
21.41664 -1.22 2.54 5000028.6944
124.19999999999999 -2.64 2.54 5000200.0
28.29636 -2.86 2.54 5000040.1606
21.41664 -2.94 2.54 5000028.6944
28.29636 -4.82 2.54 5000040.1606
28.29636 -4.86 2.54 5000040.1606
21.41664 -4.88 2.54 5000028.6944
28.29636 -6.24 2.54 5000040.1606
21.41664 5.68 2.52 5000028.6944
21.41664 5.62 2.52 5000028.6944
21.41664 5.6 2.52 5000028.6944
9.442464 4.48 2.52 5000008.73744
9.442464 3.98 2.52 5000008.73744
9.442464 3.96 2.52 5000008.73744
21.41664 3.86 2.52 5000028.6944
21.41664 3.54 2.52 5000028.6944
28.29636 3.32 2.52 5000040.1606
28.29636 3.3 2.52 5000040.1606
44.33376 2.08 2.52 5000066.8896
28.29636 2.02 2.52 5000040.1606
28.29636 1.72 2.52 5000040.1606
28.29636 1.68 2.52 5000040.1606
28.29636 1.42 2.52 5000040.1606
28.29636 1.0 2.52 5000040.1606
15.15888 0.86 2.52 5000018.2648
21.41664 0.74 2.52 5000028.6944
21.41664 0.72 2.52 5000028.6944
11.29218 -0.4 2.52 5000011.8203
11.29218 -0.5 2.52 5000011.8203
21.41664 -1.22 2.52 5000028.6944
124.19999999999999 -2.64 2.52 5000200.0
28.29636 -2.86 2.52 5000040.1606
21.41664 -2.94 2.52 5000028.6944
21.41664 -3.42 2.52 5000028.6944
28.29636 -4.82 2.52 5000040.1606
28.29636 -6.24 2.52 5000040.1606
21.41664 5.68 2.5 5000028.6944
21.41664 5.62 2.5 5000028.6944
21.41664 5.6 2.5 5000028.6944
9.442464 4.48 2.5 5000008.73744
9.442464 4.44 2.5 5000008.73744
9.442464 4.0 2.5 5000008.73744
9.442464 3.98 2.5 5000008.73744
21.41664 3.86 2.5 5000028.6944
21.41664 2.5 2.5 5000028.6944
21.41664 2.48 2.5 5000028.6944
44.33376 2.08 2.5 5000066.8896
44.33376 2.06 2.5 5000066.8896
28.29636 2.02 2.5 5000040.1606
124.19999999999999 1.82 2.5 5000200.0
28.29636 1.68 2.5 5000040.1606
28.29636 1.44 2.5 5000040.1606
28.29636 1.42 2.5 5000040.1606
28.29636 1.0 2.5 5000040.1606
15.15888 0.86 2.5 5000018.2648
21.41664 0.78 2.5 5000028.6944
21.41664 0.74 2.5 5000028.6944
21.41664 0.72 2.5 5000028.6944
11.29218 -0.4 2.5 5000011.8203
11.29218 -0.5 2.5 5000011.8203
21.41664 -1.22 2.5 5000028.6944
124.19999999999999 -2.62 2.5 5000200.0
28.29636 -2.82 2.5 5000040.1606
28.29636 -2.86 2.5 5000040.1606
21.41664 -2.94 2.5 5000028.6944
21.41664 -3.42 2.5 5000028.6944
28.29636 -4.82 2.5 5000040.1606
28.29636 -6.24 2.5 5000040.1606
21.41664 5.68 2.48 5000028.6944
21.41664 5.66 2.48 5000028.6944
21.41664 5.62 2.48 5000028.6944
21.41664 5.6 2.48 5000028.6944
10.54584 4.62 2.48 5000010.5764
9.442464 4.48 2.48 5000008.73744
9.442464 4.46 2.48 5000008.73744
9.442464 4.0 2.48 5000008.73744
9.442464 3.98 2.48 5000008.73744
21.41664 3.86 2.48 5000028.6944
21.41664 3.2 2.48 5000028.6944
21.41664 3.18 2.48 5000028.6944
21.41664 3.16 2.48 5000028.6944
21.41664 3.1 2.48 5000028.6944
44.33376 2.1 2.48 5000066.8896
44.33376 2.08 2.48 5000066.8896
44.33376 2.06 2.48 5000066.8896
124.19999999999999 1.8 2.48 5000200.0
28.29636 1.68 2.48 5000040.1606
44.33376 1.44 2.48 5000066.8896
44.33376 1.42 2.48 5000066.8896
28.29636 1.0 2.48 5000040.1606
44.33376 0.82 2.48 5000066.8896
21.41664 0.74 2.48 5000028.6944
11.29218 -0.4 2.48 5000011.8203
11.29218 -0.5 2.48 5000011.8203
11.29218 -0.52 2.48 5000011.8203
21.41664 -1.22 2.48 5000028.6944
124.19999999999999 -2.62 2.48 5000200.0
44.33376 -2.82 2.48 5000066.8896
21.41664 -2.94 2.48 5000028.6944
21.41664 -3.42 2.48 5000028.6944
28.29636 -4.82 2.48 5000040.1606
28.29636 -6.24 2.48 5000040.1606
21.41664 5.68 2.46 5000028.6944
21.41664 5.6 2.46 5000028.6944
21.41664 5.3 2.46 5000028.6944
9.442464 4.48 2.46 5000008.73744
9.442464 4.18 2.46 5000008.73744
9.442464 4.0 2.46 5000008.73744
21.41664 3.86 2.46 5000028.6944
21.41664 3.54 2.46 5000028.6944
21.41664 3.22 2.46 5000028.6944
21.41664 3.2 2.46 5000028.6944
44.33376 2.14 2.46 5000066.8896
44.33376 2.12 2.46 5000066.8896
44.33376 2.1 2.46 5000066.8896
21.41664 1.5 2.46 5000028.6944
44.33376 1.44 2.46 5000066.8896
44.33376 1.42 2.46 5000066.8896
28.29636 1.0 2.46 5000040.1606
44.33376 0.82 2.46 5000066.8896
21.41664 0.74 2.46 5000028.6944
21.41664 0.72 2.46 5000028.6944
11.29218 -0.4 2.46 5000011.8203
11.29218 -0.5 2.46 5000011.8203
21.41664 -1.22 2.46 5000028.6944
21.41664 -3.42 2.46 5000028.6944
28.29636 -6.24 2.46 5000040.1606
21.41664 5.66 2.44 5000028.6944
21.41664 5.6 2.44 5000028.6944
21.41664 5.3 2.44 5000028.6944
21.41664 5.28 2.44 5000028.6944
9.442464 4.48 2.44 5000008.73744
9.442464 4.26 2.44 5000008.73744
9.442464 4.2 2.44 5000008.73744
9.442464 4.18 2.44 5000008.73744
9.442464 4.0 2.44 5000008.73744
21.41664 3.88 2.44 5000028.6944
21.41664 3.22 2.44 5000028.6944
17.592840000000002 3.14 2.44 5000022.3214
21.41664 2.64 2.44 5000028.6944
44.33376 2.2 2.44 5000066.8896
44.33376 2.14 2.44 5000066.8896
44.33376 2.12 2.44 5000066.8896
44.33376 2.1 2.44 5000066.8896
15.15888 1.94 2.44 5000018.2648
44.33376 1.64 2.44 5000066.8896
44.33376 1.62 2.44 5000066.8896
44.33376 1.58 2.44 5000066.8896
28.29636 1.56 2.44 5000040.1606
21.41664 1.5 2.44 5000028.6944
44.33376 1.44 2.44 5000066.8896
28.29636 1.0 2.44 5000040.1606
44.33376 0.82 2.44 5000066.8896
21.41664 0.74 2.44 5000028.6944
11.29218 -0.4 2.44 5000011.8203
11.29218 -0.5 2.44 5000011.8203
11.29218 -0.52 2.44 5000011.8203
21.41664 -1.22 2.44 5000028.6944
21.41664 -3.42 2.44 5000028.6944
28.29636 -6.24 2.44 5000040.1606
21.41664 5.66 2.42 5000028.6944
21.41664 5.6 2.42 5000028.6944
21.41664 5.28 2.42 5000028.6944
21.41664 5.24 2.42 5000028.6944
21.41664 5.22 2.42 5000028.6944
17.592840000000002 4.6 2.42 5000022.3214
9.442464 4.48 2.42 5000008.73744
9.442464 4.2 2.42 5000008.73744
9.442464 4.18 2.42 5000008.73744
9.442464 4.02 2.42 5000008.73744
21.41664 3.9 2.42 5000028.6944
21.41664 3.88 2.42 5000028.6944
21.41664 2.64 2.42 5000028.6944
21.41664 2.6 2.42 5000028.6944
17.592840000000002 2.58 2.42 5000022.3214
44.33376 2.32 2.42 5000066.8896
28.29636 2.16 2.42 5000040.1606
44.33376 1.44 2.42 5000066.8896
28.29636 1.0 2.42 5000040.1606
44.33376 0.82 2.42 5000066.8896
21.41664 0.74 2.42 5000028.6944
21.41664 0.72 2.42 5000028.6944
11.29218 -0.4 2.42 5000011.8203
11.29218 -0.5 2.42 5000011.8203
11.29218 -0.52 2.42 5000011.8203
21.41664 -1.22 2.42 5000028.6944
21.41664 -3.42 2.42 5000028.6944
28.29636 -6.24 2.42 5000040.1606
21.41664 5.66 2.4 5000028.6944
21.41664 5.62 2.4 5000028.6944
21.41664 5.6 2.4 5000028.6944
21.41664 5.28 2.4 5000028.6944
21.41664 5.2 2.4 5000028.6944
21.41664 5.18 2.4 5000028.6944
17.592840000000002 4.6 2.4 5000022.3214
9.442464 4.48 2.4 5000008.73744
9.442464 4.24 2.4 5000008.73744
9.442464 4.02 2.4 5000008.73744
21.41664 3.34 2.4 5000028.6944
21.41664 3.28 2.4 5000028.6944
21.41664 3.26 2.4 5000028.6944
21.41664 2.94 2.4 5000028.6944
21.41664 2.72 2.4 5000028.6944
21.41664 2.64 2.4 5000028.6944
44.33376 2.28 2.4 5000066.8896
124.19999999999999 2.24 2.4 5000200.0
44.33376 2.16 2.4 5000066.8896
44.33376 2.14 2.4 5000066.8896
44.33376 1.58 2.4 5000066.8896
44.33376 1.46 2.4 5000066.8896
28.29636 1.0 2.4 5000040.1606
44.33376 0.82 2.4 5000066.8896
21.41664 0.74 2.4 5000028.6944
21.41664 0.72 2.4 5000028.6944
11.29218 -0.4 2.4 5000011.8203
11.29218 -0.5 2.4 5000011.8203
11.29218 -0.52 2.4 5000011.8203
21.41664 -1.22 2.4 5000028.6944
21.41664 -3.42 2.4 5000028.6944
28.29636 -5.02 2.4 5000040.1606
44.33376 -6.14 2.4 5000066.8896
28.29636 -6.24 2.4 5000040.1606
21.41664 5.66 2.38 5000028.6944
21.41664 5.62 2.38 5000028.6944
21.41664 5.6 2.38 5000028.6944
21.41664 5.28 2.38 5000028.6944
21.41664 5.18 2.38 5000028.6944
21.41664 5.16 2.38 5000028.6944
17.592840000000002 4.6 2.38 5000022.3214
9.442464 4.48 2.38 5000008.73744
28.29636 3.54 2.38 5000040.1606
21.41664 3.38 2.38 5000028.6944
21.41664 3.28 2.38 5000028.6944
21.41664 3.02 2.38 5000028.6944
21.41664 2.98 2.38 5000028.6944
21.41664 2.9 2.38 5000028.6944
21.41664 2.72 2.38 5000028.6944
21.41664 2.7 2.38 5000028.6944
21.41664 2.64 2.38 5000028.6944
21.41664 2.34 2.38 5000028.6944
44.33376 2.22 2.38 5000066.8896
44.33376 2.16 2.38 5000066.8896
21.41664 1.88 2.38 5000028.6944
124.19999999999999 1.64 2.38 5000200.0
44.33376 1.56 2.38 5000066.8896
44.33376 1.48 2.38 5000066.8896
44.33376 1.46 2.38 5000066.8896
28.29636 1.0 2.38 5000040.1606
44.33376 0.82 2.38 5000066.8896
21.41664 0.74 2.38 5000028.6944
21.41664 0.72 2.38 5000028.6944
11.29218 -0.4 2.38 5000011.8203
11.29218 -0.5 2.38 5000011.8203
11.29218 -0.52 2.38 5000011.8203
28.29636 -1.14 2.38 5000040.1606
21.41664 -1.2 2.38 5000028.6944
21.41664 -3.42 2.38 5000028.6944
44.33376 -6.14 2.38 5000066.8896
44.33376 -6.18 2.38 5000066.8896
28.29636 -6.24 2.38 5000040.1606
21.41664 5.66 2.36 5000028.6944
21.41664 5.62 2.36 5000028.6944
21.41664 5.6 2.36 5000028.6944
21.41664 5.28 2.36 5000028.6944
21.41664 5.16 2.36 5000028.6944
21.41664 5.14 2.36 5000028.6944
17.592840000000002 4.6 2.36 5000022.3214
9.442464 4.48 2.36 5000008.73744
21.41664 3.76 2.36 5000028.6944
21.41664 3.74 2.36 5000028.6944
21.41664 3.62 2.36 5000028.6944
28.29636 3.5 2.36 5000040.1606
21.41664 3.42 2.36 5000028.6944
21.41664 3.02 2.36 5000028.6944
21.41664 2.86 2.36 5000028.6944
21.41664 2.84 2.36 5000028.6944
44.33376 2.24 2.36 5000066.8896
44.33376 2.2 2.36 5000066.8896
44.33376 1.7 2.36 5000066.8896
124.19999999999999 1.62 2.36 5000200.0
44.33376 1.48 2.36 5000066.8896
28.29636 1.0 2.36 5000040.1606
44.33376 0.82 2.36 5000066.8896
21.41664 0.74 2.36 5000028.6944
21.41664 0.72 2.36 5000028.6944
11.29218 -0.4 2.36 5000011.8203
11.29218 -0.5 2.36 5000011.8203
11.29218 -0.52 2.36 5000011.8203
28.29636 -1.14 2.36 5000040.1606
21.41664 -3.42 2.36 5000028.6944
124.19999999999999 -6.06 2.36 5000200.0
28.29636 -6.24 2.36 5000040.1606
21.41664 5.66 2.34 5000028.6944
21.41664 5.62 2.34 5000028.6944
21.41664 5.6 2.34 5000028.6944
21.41664 5.28 2.34 5000028.6944
21.41664 5.12 2.34 5000028.6944
21.41664 5.1 2.34 5000028.6944
17.592840000000002 4.6 2.34 5000022.3214
21.41664 3.76 2.34 5000028.6944
21.41664 3.04 2.34 5000028.6944
21.41664 2.84 2.34 5000028.6944
21.41664 2.8 2.34 5000028.6944
44.33376 2.5 2.34 5000066.8896
44.33376 2.44 2.34 5000066.8896
44.33376 2.38 2.34 5000066.8896
44.33376 2.26 2.34 5000066.8896
44.33376 2.22 2.34 5000066.8896
44.33376 2.2 2.34 5000066.8896
28.29636 2.14 2.34 5000040.1606
28.29636 1.0 2.34 5000040.1606
44.33376 0.82 2.34 5000066.8896
21.41664 0.74 2.34 5000028.6944
21.41664 0.72 2.34 5000028.6944
11.29218 -0.4 2.34 5000011.8203
11.29218 -0.5 2.34 5000011.8203
11.29218 -0.52 2.34 5000011.8203
21.41664 -3.42 2.34 5000028.6944
28.29636 -5.04 2.34 5000040.1606
28.29636 -6.24 2.34 5000040.1606
21.41664 5.66 2.32 5000028.6944
21.41664 5.62 2.32 5000028.6944
21.41664 5.6 2.32 5000028.6944
21.41664 5.28 2.32 5000028.6944
21.41664 5.1 2.32 5000028.6944
21.41664 5.08 2.32 5000028.6944
17.592840000000002 4.6 2.32 5000022.3214
21.41664 3.64 2.32 5000028.6944
21.41664 2.8 2.32 5000028.6944
44.33376 2.54 2.32 5000066.8896
44.33376 2.5 2.32 5000066.8896
28.29636 2.42 2.32 5000040.1606
28.29636 2.3 2.32 5000040.1606
44.33376 2.22 2.32 5000066.8896
44.33376 2.2 2.32 5000066.8896
44.33376 2.18 2.32 5000066.8896
28.29636 2.14 2.32 5000040.1606
28.29636 1.0 2.32 5000040.1606
21.41664 0.72 2.32 5000028.6944
21.41664 0.7 2.32 5000028.6944
11.29218 -0.4 2.32 5000011.8203
11.29218 -0.5 2.32 5000011.8203
11.29218 -0.52 2.32 5000011.8203
28.29636 -5.98 2.32 5000040.1606
44.33376 -6.14 2.32 5000066.8896
28.29636 -6.24 2.32 5000040.1606
21.41664 5.66 2.3 5000028.6944
21.41664 5.62 2.3 5000028.6944
21.41664 5.6 2.3 5000028.6944
21.41664 5.3 2.3 5000028.6944
21.41664 5.28 2.3 5000028.6944
21.41664 5.08 2.3 5000028.6944
21.41664 5.06 2.3 5000028.6944
17.592840000000002 4.6 2.3 5000022.3214
9.023147999999999 4.44 2.3 5000008.03858
44.33376 4.12 2.3 5000066.8896
21.41664 3.74 2.3 5000028.6944
21.41664 3.64 2.3 5000028.6944
21.41664 3.62 2.3 5000028.6944
21.41664 3.12 2.3 5000028.6944
28.29636 2.14 2.3 5000040.1606
44.33376 1.72 2.3 5000066.8896
21.41664 1.6 2.3 5000028.6944
21.41664 0.72 2.3 5000028.6944
21.41664 0.7 2.3 5000028.6944
11.29218 -0.4 2.3 5000011.8203
11.29218 -0.5 2.3 5000011.8203
11.29218 -0.52 2.3 5000011.8203
44.33376 -6.14 2.3 5000066.8896
28.29636 -6.24 2.3 5000040.1606
21.41664 5.66 2.28 5000028.6944
21.41664 5.62 2.28 5000028.6944
21.41664 5.6 2.28 5000028.6944
21.41664 5.28 2.28 5000028.6944
21.41664 5.06 2.28 5000028.6944
21.41664 5.04 2.28 5000028.6944
28.29636 3.92 2.28 5000040.1606
21.41664 3.44 2.28 5000028.6944
21.41664 3.42 2.28 5000028.6944
21.41664 3.12 2.28 5000028.6944
21.41664 3.1 2.28 5000028.6944
21.41664 2.96 2.28 5000028.6944
21.41664 2.78 2.28 5000028.6944
21.41664 2.04 2.28 5000028.6944
44.33376 1.86 2.28 5000066.8896
124.19999999999999 1.78 2.28 5000200.0
44.33376 1.72 2.28 5000066.8896
21.41664 1.6 2.28 5000028.6944
21.41664 0.7 2.28 5000028.6944
11.29218 -0.4 2.28 5000011.8203
11.29218 -0.5 2.28 5000011.8203
11.29218 -0.52 2.28 5000011.8203
28.29636 -4.88 2.28 5000040.1606
124.19999999999999 -6.06 2.28 5000200.0
44.33376 -6.14 2.28 5000066.8896
28.29636 -6.24 2.28 5000040.1606
21.41664 5.66 2.26 5000028.6944
21.41664 5.62 2.26 5000028.6944
21.41664 5.6 2.26 5000028.6944
21.41664 5.3 2.26 5000028.6944
21.41664 5.28 2.26 5000028.6944
21.41664 5.06 2.26 5000028.6944
21.41664 5.04 2.26 5000028.6944
44.33376 4.1 2.26 5000066.8896
28.29636 3.98 2.26 5000040.1606
28.29636 3.96 2.26 5000040.1606
21.41664 3.76 2.26 5000028.6944
21.41664 3.42 2.26 5000028.6944
21.41664 2.96 2.26 5000028.6944
21.41664 2.78 2.26 5000028.6944
21.41664 2.56 2.26 5000028.6944
28.29636 2.5 2.26 5000040.1606
124.19999999999999 2.22 2.26 5000200.0
44.33376 1.88 2.26 5000066.8896
44.33376 1.72 2.26 5000066.8896
21.41664 0.7 2.26 5000028.6944
11.29218 -0.4 2.26 5000011.8203
11.29218 -0.5 2.26 5000011.8203
11.29218 -0.52 2.26 5000011.8203
28.29636 -4.86 2.26 5000040.1606
28.29636 -4.88 2.26 5000040.1606
124.19999999999999 -6.06 2.26 5000200.0
28.29636 -6.24 2.26 5000040.1606
21.41664 5.66 2.24 5000028.6944
21.41664 5.62 2.24 5000028.6944
21.41664 5.6 2.24 5000028.6944
21.41664 5.3 2.24 5000028.6944
21.41664 5.28 2.24 5000028.6944
21.41664 5.06 2.24 5000028.6944
44.33376 4.1 2.24 5000066.8896
28.29636 3.18 2.24 5000040.1606
21.41664 2.8 2.24 5000028.6944
21.41664 2.76 2.24 5000028.6944
21.41664 2.58 2.24 5000028.6944
21.41664 2.54 2.24 5000028.6944
124.19999999999999 2.2 2.24 5000200.0
44.33376 2.12 2.24 5000066.8896
44.33376 1.9 2.24 5000066.8896
21.41664 0.7 2.24 5000028.6944
11.29218 -0.4 2.24 5000011.8203
11.29218 -0.5 2.24 5000011.8203
11.29218 -0.52 2.24 5000011.8203
28.29636 -4.88 2.24 5000040.1606
28.29636 -5.16 2.24 5000040.1606
124.19999999999999 -6.06 2.24 5000200.0
44.33376 -6.14 2.24 5000066.8896
28.29636 -6.24 2.24 5000040.1606
21.41664 5.66 2.22 5000028.6944
21.41664 5.6 2.22 5000028.6944
21.41664 5.3 2.22 5000028.6944
21.41664 5.28 2.22 5000028.6944
21.41664 5.06 2.22 5000028.6944
9.442464 4.48 2.22 5000008.73744
28.29636 3.18 2.22 5000040.1606
21.41664 2.76 2.22 5000028.6944
21.41664 2.7 2.22 5000028.6944
21.41664 2.6 2.22 5000028.6944
21.41664 2.58 2.22 5000028.6944
44.33376 2.36 2.22 5000066.8896
44.33376 2.34 2.22 5000066.8896
44.33376 1.58 2.22 5000066.8896
21.41664 0.7 2.22 5000028.6944
11.29218 -0.4 2.22 5000011.8203
11.29218 -0.5 2.22 5000011.8203
11.29218 -0.52 2.22 5000011.8203
28.29636 -4.88 2.22 5000040.1606
28.29636 -5.94 2.22 5000040.1606
124.19999999999999 -6.06 2.22 5000200.0
28.29636 -6.24 2.22 5000040.1606
21.41664 5.66 2.2 5000028.6944
21.41664 5.6 2.2 5000028.6944
21.41664 5.3 2.2 5000028.6944
21.41664 5.28 2.2 5000028.6944
21.41664 5.06 2.2 5000028.6944
9.442464 4.48 2.2 5000008.73744
17.592840000000002 4.26 2.2 5000022.3214
44.33376 3.46 2.2 5000066.8896
28.29636 3.18 2.2 5000040.1606
44.33376 3.0 2.2 5000066.8896
21.41664 2.76 2.2 5000028.6944
21.41664 2.6 2.2 5000028.6944
44.33376 2.14 2.2 5000066.8896
44.33376 1.58 2.2 5000066.8896
21.41664 0.7 2.2 5000028.6944
11.29218 -0.4 2.2 5000011.8203
11.29218 -0.5 2.2 5000011.8203
11.29218 -0.52 2.2 5000011.8203
7.004394 -1.28 2.2 5000004.67399
28.29636 -4.86 2.2 5000040.1606
28.29636 -4.88 2.2 5000040.1606
28.29636 -5.94 2.2 5000040.1606
28.29636 -6.0 2.2 5000040.1606
124.19999999999999 -6.06 2.2 5000200.0
44.33376 -6.14 2.2 5000066.8896
28.29636 -6.24 2.2 5000040.1606
21.41664 5.66 2.18 5000028.6944
21.41664 5.6 2.18 5000028.6944
21.41664 5.3 2.18 5000028.6944
21.41664 5.28 2.18 5000028.6944
21.41664 5.06 2.18 5000028.6944
9.442464 4.48 2.18 5000008.73744
21.41664 4.04 2.18 5000028.6944
17.592840000000002 3.74 2.18 5000022.3214
21.41664 2.66 2.18 5000028.6944
21.41664 2.6 2.18 5000028.6944
21.41664 2.46 2.18 5000028.6944
44.33376 2.4 2.18 5000066.8896
44.33376 1.88 2.18 5000066.8896
21.41664 1.5 2.18 5000028.6944
21.41664 0.7 2.18 5000028.6944
11.29218 -0.4 2.18 5000011.8203
11.29218 -0.5 2.18 5000011.8203
11.29218 -0.52 2.18 5000011.8203
7.004394 -1.28 2.18 5000004.67399
28.29636 -5.94 2.18 5000040.1606
124.19999999999999 -6.06 2.18 5000200.0
44.33376 -6.14 2.18 5000066.8896
28.29636 -6.2 2.18 5000040.1606
28.29636 -6.24 2.18 5000040.1606
21.41664 5.66 2.16 5000028.6944
21.41664 5.6 2.16 5000028.6944
21.41664 5.3 2.16 5000028.6944
21.41664 5.28 2.16 5000028.6944
21.41664 5.06 2.16 5000028.6944
9.442464 4.48 2.16 5000008.73744
28.29636 4.38 2.16 5000040.1606
21.41664 4.32 2.16 5000028.6944
28.29636 3.16 2.16 5000040.1606
21.41664 2.62 2.16 5000028.6944
21.41664 0.7 2.16 5000028.6944
11.29218 -0.4 2.16 5000011.8203
11.29218 -0.5 2.16 5000011.8203
11.29218 -0.52 2.16 5000011.8203
28.29636 -5.94 2.16 5000040.1606
28.29636 -5.96 2.16 5000040.1606
124.19999999999999 -6.06 2.16 5000200.0
44.33376 -6.14 2.16 5000066.8896
28.29636 -6.24 2.16 5000040.1606
21.41664 5.66 2.14 5000028.6944
21.41664 5.62 2.14 5000028.6944
21.41664 5.6 2.14 5000028.6944
21.41664 5.3 2.14 5000028.6944
21.41664 5.28 2.14 5000028.6944
21.41664 5.06 2.14 5000028.6944
9.442464 4.48 2.14 5000008.73744
28.29636 4.38 2.14 5000040.1606
21.41664 2.8 2.14 5000028.6944
21.41664 2.62 2.14 5000028.6944
44.33376 2.52 2.14 5000066.8896
124.19999999999999 2.0 2.14 5000200.0
21.41664 0.7 2.14 5000028.6944
11.29218 -0.4 2.14 5000011.8203
11.29218 -0.5 2.14 5000011.8203
11.29218 -0.52 2.14 5000011.8203
21.41664 -5.78 2.14 5000028.6944
28.29636 -5.96 2.14 5000040.1606
44.33376 -6.14 2.14 5000066.8896
28.29636 -6.24 2.14 5000040.1606
28.29636 -6.26 2.14 5000040.1606
21.41664 5.66 2.12 5000028.6944
21.41664 5.62 2.12 5000028.6944
21.41664 5.6 2.12 5000028.6944
21.41664 5.3 2.12 5000028.6944
21.41664 5.28 2.12 5000028.6944
21.41664 5.06 2.12 5000028.6944
9.442464 4.48 2.12 5000008.73744
28.29636 4.38 2.12 5000040.1606
9.442464 4.12 2.12 5000008.73744
17.592840000000002 3.72 2.12 5000022.3214
21.41664 2.82 2.12 5000028.6944
21.41664 2.8 2.12 5000028.6944
44.33376 2.16 2.12 5000066.8896
21.41664 2.06 2.12 5000028.6944
44.33376 1.68 2.12 5000066.8896
21.41664 0.7 2.12 5000028.6944
11.29218 -0.4 2.12 5000011.8203
11.29218 -0.52 2.12 5000011.8203
17.592840000000002 -5.0 2.12 5000022.3214
28.29636 -5.96 2.12 5000040.1606
124.19999999999999 -6.04 2.12 5000200.0
44.33376 -6.14 2.12 5000066.8896
28.29636 -6.24 2.12 5000040.1606
21.41664 5.66 2.1 5000028.6944
21.41664 5.6 2.1 5000028.6944
21.41664 5.3 2.1 5000028.6944
21.41664 5.28 2.1 5000028.6944
21.41664 5.08 2.1 5000028.6944
21.41664 5.06 2.1 5000028.6944
9.442464 4.48 2.1 5000008.73744
28.29636 4.38 2.1 5000040.1606
9.442464 4.12 2.1 5000008.73744
17.592840000000002 3.72 2.1 5000022.3214
21.41664 3.24 2.1 5000028.6944
21.41664 3.02 2.1 5000028.6944
124.19999999999999 2.74 2.1 5000200.0
21.41664 2.64 2.1 5000028.6944
44.33376 2.16 2.1 5000066.8896
44.33376 1.78 2.1 5000066.8896
44.33376 1.66 2.1 5000066.8896
44.33376 1.64 2.1 5000066.8896
21.41664 1.52 2.1 5000028.6944
17.592840000000002 1.46 2.1 5000022.3214
21.41664 0.7 2.1 5000028.6944
11.29218 -0.4 2.1 5000011.8203
11.29218 -0.52 2.1 5000011.8203
124.19999999999999 -6.04 2.1 5000200.0
21.41664 5.66 2.08 5000028.6944
21.41664 5.62 2.08 5000028.6944
21.41664 5.6 2.08 5000028.6944
21.41664 5.3 2.08 5000028.6944
21.41664 5.28 2.08 5000028.6944
21.41664 5.08 2.08 5000028.6944
21.41664 5.06 2.08 5000028.6944
9.442464 4.48 2.08 5000008.73744
9.442464 4.12 2.08 5000008.73744
21.41664 3.3 2.08 5000028.6944
21.41664 3.28 2.08 5000028.6944
21.41664 3.24 2.08 5000028.6944
17.592840000000002 3.2 2.08 5000022.3214
21.41664 2.64 2.08 5000028.6944
44.33376 2.18 2.08 5000066.8896
44.33376 2.16 2.08 5000066.8896
44.33376 1.78 2.08 5000066.8896
44.33376 1.64 2.08 5000066.8896
44.33376 1.62 2.08 5000066.8896
21.41664 1.52 2.08 5000028.6944
17.592840000000002 1.46 2.08 5000022.3214
21.41664 0.7 2.08 5000028.6944
11.29218 -0.4 2.08 5000011.8203
11.29218 -0.5 2.08 5000011.8203
11.29218 -0.52 2.08 5000011.8203
28.29636 -4.94 2.08 5000040.1606
124.19999999999999 -6.04 2.08 5000200.0
44.33376 -6.14 2.08 5000066.8896
28.29636 -6.26 2.08 5000040.1606
21.41664 5.66 2.06 5000028.6944
21.41664 5.62 2.06 5000028.6944
21.41664 5.6 2.06 5000028.6944
21.41664 5.3 2.06 5000028.6944
21.41664 5.28 2.06 5000028.6944
21.41664 5.08 2.06 5000028.6944
21.41664 5.06 2.06 5000028.6944
9.442464 4.48 2.06 5000008.73744
9.442464 4.1 2.06 5000008.73744
21.41664 3.3 2.06 5000028.6944
17.592840000000002 2.52 2.06 5000022.3214
44.33376 2.18 2.06 5000066.8896
44.33376 2.16 2.06 5000066.8896
21.41664 2.1 2.06 5000028.6944
44.33376 1.78 2.06 5000066.8896
21.41664 1.52 2.06 5000028.6944
17.592840000000002 1.46 2.06 5000022.3214
21.41664 0.72 2.06 5000028.6944
21.41664 0.7 2.06 5000028.6944
11.29218 -0.4 2.06 5000011.8203
11.29218 -0.5 2.06 5000011.8203
11.29218 -0.52 2.06 5000011.8203
7.2919860000000005 -1.22 2.06 5000005.15331
28.29636 -4.92 2.06 5000040.1606
124.19999999999999 -6.04 2.06 5000200.0
44.33376 -6.14 2.06 5000066.8896
21.41664 5.66 2.04 5000028.6944
21.41664 5.62 2.04 5000028.6944
21.41664 5.6 2.04 5000028.6944
21.41664 5.3 2.04 5000028.6944
21.41664 5.28 2.04 5000028.6944
21.41664 5.06 2.04 5000028.6944
9.442464 4.48 2.04 5000008.73744
9.442464 4.1 2.04 5000008.73744
21.41664 3.38 2.04 5000028.6944
21.41664 3.3 2.04 5000028.6944
44.33376 2.68 2.04 5000066.8896
21.41664 2.58 2.04 5000028.6944
17.592840000000002 2.52 2.04 5000022.3214
44.33376 2.18 2.04 5000066.8896
44.33376 1.8 2.04 5000066.8896
21.41664 1.52 2.04 5000028.6944
15.15888 1.4 2.04 5000018.2648
21.41664 1.34 2.04 5000028.6944
21.41664 1.32 2.04 5000028.6944
21.41664 1.3 2.04 5000028.6944
21.41664 0.94 2.04 5000028.6944
21.41664 0.72 2.04 5000028.6944
21.41664 0.7 2.04 5000028.6944
11.29218 -0.38 2.04 5000011.8203
11.29218 -0.4 2.04 5000011.8203
11.29218 -0.5 2.04 5000011.8203
11.29218 -0.52 2.04 5000011.8203
124.19999999999999 -6.04 2.04 5000200.0
44.33376 -6.14 2.04 5000066.8896
21.41664 5.66 2.02 5000028.6944
21.41664 5.62 2.02 5000028.6944
21.41664 5.6 2.02 5000028.6944
21.41664 5.3 2.02 5000028.6944
21.41664 5.28 2.02 5000028.6944
21.41664 5.08 2.02 5000028.6944
21.41664 5.06 2.02 5000028.6944
9.442464 4.48 2.02 5000008.73744
9.442464 4.12 2.02 5000008.73744
21.41664 3.38 2.02 5000028.6944
21.41664 3.16 2.02 5000028.6944
21.41664 3.1 2.02 5000028.6944
28.29636 2.44 2.02 5000040.1606
44.33376 2.2 2.02 5000066.8896
21.41664 1.34 2.02 5000028.6944
21.41664 0.94 2.02 5000028.6944
21.41664 0.72 2.02 5000028.6944
21.41664 0.7 2.02 5000028.6944
11.29218 -0.38 2.02 5000011.8203
11.29218 -0.4 2.02 5000011.8203
11.29218 -0.5 2.02 5000011.8203
11.29218 -0.52 2.02 5000011.8203
44.33376 -4.82 2.02 5000066.8896
124.19999999999999 -6.04 2.02 5000200.0
44.33376 -6.14 2.02 5000066.8896
28.29636 -6.26 2.02 5000040.1606
21.41664 5.66 2.0 5000028.6944
21.41664 5.62 2.0 5000028.6944
21.41664 5.6 2.0 5000028.6944
21.41664 5.3 2.0 5000028.6944
21.41664 5.28 2.0 5000028.6944
21.41664 5.08 2.0 5000028.6944
21.41664 5.06 2.0 5000028.6944
9.442464 4.48 2.0 5000008.73744
9.442464 4.46 2.0 5000008.73744
9.442464 4.44 2.0 5000008.73744
28.29636 2.44 2.0 5000040.1606
21.41664 1.34 2.0 5000028.6944
21.41664 0.9 2.0 5000028.6944
21.41664 0.72 2.0 5000028.6944
21.41664 0.7 2.0 5000028.6944
11.29218 -0.36 2.0 5000011.8203
11.29218 -0.4 2.0 5000011.8203
11.29218 -0.5 2.0 5000011.8203
11.29218 -0.52 2.0 5000011.8203
44.33376 -4.8 2.0 5000066.8896
28.29636 -4.88 2.0 5000040.1606
28.29636 -5.28 2.0 5000040.1606
44.33376 -5.94 2.0 5000066.8896
44.33376 -5.96 2.0 5000066.8896
124.19999999999999 -6.04 2.0 5000200.0
44.33376 -6.12 2.0 5000066.8896
44.33376 -6.14 2.0 5000066.8896
28.29636 -6.26 2.0 5000040.1606
28.29636 -6.28 2.0 5000040.1606
21.41664 5.66 1.98 5000028.6944
21.41664 5.62 1.98 5000028.6944
21.41664 5.6 1.98 5000028.6944
21.41664 5.3 1.98 5000028.6944
21.41664 5.28 1.98 5000028.6944
21.41664 5.08 1.98 5000028.6944
21.41664 5.06 1.98 5000028.6944
9.442464 4.48 1.98 5000008.73744
44.33376 2.62 1.98 5000066.8896
44.33376 2.22 1.98 5000066.8896
28.29636 1.52 1.98 5000040.1606
21.41664 1.34 1.98 5000028.6944
21.41664 0.72 1.98 5000028.6944
21.41664 0.7 1.98 5000028.6944
11.29218 -0.36 1.98 5000011.8203
11.29218 -0.38 1.98 5000011.8203
11.29218 -0.52 1.98 5000011.8203
28.29636 -4.86 1.98 5000040.1606
28.29636 -5.28 1.98 5000040.1606
21.41664 -5.62 1.98 5000028.6944
21.41664 -5.78 1.98 5000028.6944
124.19999999999999 -6.04 1.98 5000200.0
44.33376 -6.14 1.98 5000066.8896
44.33376 -6.16 1.98 5000066.8896
28.29636 -6.26 1.98 5000040.1606
21.41664 5.66 1.96 5000028.6944
21.41664 5.62 1.96 5000028.6944
21.41664 5.6 1.96 5000028.6944
21.41664 5.3 1.96 5000028.6944
21.41664 5.28 1.96 5000028.6944
21.41664 5.06 1.96 5000028.6944
28.29636 4.38 1.96 5000040.1606
9.023147999999999 4.26 1.96 5000008.03858
28.29636 1.54 1.96 5000040.1606
21.41664 0.7 1.96 5000028.6944
11.29218 -0.34 1.96 5000011.8203
11.29218 -0.38 1.96 5000011.8203
11.29218 -0.52 1.96 5000011.8203
11.29218 -0.54 1.96 5000011.8203
21.41664 -1.24 1.96 5000028.6944
28.29636 -5.56 1.96 5000040.1606
21.41664 -5.62 1.96 5000028.6944
124.19999999999999 -6.04 1.96 5000200.0
44.33376 -6.14 1.96 5000066.8896
44.33376 -6.16 1.96 5000066.8896
28.29636 -6.26 1.96 5000040.1606
21.41664 5.66 1.94 5000028.6944
21.41664 5.62 1.94 5000028.6944
21.41664 5.6 1.94 5000028.6944
21.41664 5.3 1.94 5000028.6944
21.41664 5.06 1.94 5000028.6944
28.29636 4.38 1.94 5000040.1606
28.29636 2.64 1.94 5000040.1606
44.33376 2.1 1.94 5000066.8896
28.29636 1.54 1.94 5000040.1606
21.41664 0.72 1.94 5000028.6944
21.41664 0.7 1.94 5000028.6944
11.29218 -0.32 1.94 5000011.8203
11.29218 -0.34 1.94 5000011.8203
11.29218 -0.42 1.94 5000011.8203
11.29218 -0.54 1.94 5000011.8203
11.29218 -0.58 1.94 5000011.8203
28.29636 -1.16 1.94 5000040.1606
21.41664 -1.22 1.94 5000028.6944
21.41664 -1.24 1.94 5000028.6944
28.29636 -4.84 1.94 5000040.1606
21.41664 -5.84 1.94 5000028.6944
124.19999999999999 -6.04 1.94 5000200.0
44.33376 -6.16 1.94 5000066.8896
28.29636 -6.26 1.94 5000040.1606
21.41664 5.66 1.92 5000028.6944
21.41664 5.62 1.92 5000028.6944
21.41664 5.6 1.92 5000028.6944
21.41664 5.3 1.92 5000028.6944
21.41664 5.28 1.92 5000028.6944
21.41664 5.06 1.92 5000028.6944
9.442464 4.5 1.92 5000008.73744
28.29636 4.38 1.92 5000040.1606
21.41664 4.16 1.92 5000028.6944
21.41664 3.06 1.92 5000028.6944
21.41664 2.68 1.92 5000028.6944
21.41664 2.66 1.92 5000028.6944
