VERSION .7
FIELDS x y z rgb
SIZE 4 4 4 4
TYPE F F F F
COUNT 1 1 1 1
WIDTH 1430
HEIGHT 1
VIEWPOINT 0 0 0 1 0 0 0
POINTS 1430
DATA ascii
10.54584 2.04 3.72 5000010.5764
11.29218 2.0 3.72 5000011.8203
28.29636 1.94 3.72 5000040.1606
28.29636 1.92 3.72 5000040.1606
21.41664 1.12 3.72 5000028.6944
21.41664 1.1 3.72 5000028.6944
12.23748 0.0 3.72 5000013.3958
12.23748 -0.02 3.72 5000013.3958
10.54584 -0.12 3.72 5000010.5764
21.41664 -0.88 3.72 5000028.6944
21.41664 -2.34 3.72 5000028.6944
21.41664 -2.36 3.72 5000028.6944
21.41664 -2.58 3.72 5000028.6944
13.4736 -2.62 3.72 5000015.456
28.29636 -4.52 3.72 5000040.1606
28.29636 -4.56 3.72 5000040.1606
9.023147999999999 5.7 3.7 5000008.03858
9.023147999999999 5.6 3.7 5000008.03858
9.023147999999999 5.58 3.7 5000008.03858
9.023147999999999 5.52 3.7 5000008.03858
44.33376 5.3 3.7 5000066.8896
21.41664 5.16 3.7 5000028.6944
9.023147999999999 5.06 3.7 5000008.03858
8.665944 4.94 3.7 5000007.44324
8.665944 4.66 3.7 5000007.44324
8.665944 4.64 3.7 5000007.44324
8.358006 4.56 3.7 5000006.93001
8.665944 4.46 3.7 5000007.44324
9.442464 4.32 3.7 5000008.73744
9.442464 4.3 3.7 5000008.73744
28.29636 4.1 3.7 5000040.1606
28.29636 3.66 3.7 5000040.1606
10.54584 3.2 3.7 5000010.5764
10.54584 3.18 3.7 5000010.5764
44.33376 3.06 3.7 5000066.8896
21.41664 2.92 3.7 5000028.6944
11.29218 2.04 3.7 5000011.8203
11.29218 2.0 3.7 5000011.8203
28.29636 1.94 3.7 5000040.1606
28.29636 1.92 3.7 5000040.1606
21.41664 1.12 3.7 5000028.6944
21.41664 1.1 3.7 5000028.6944
12.23748 0.0 3.7 5000013.3958
12.23748 -0.02 3.7 5000013.3958
10.54584 -0.12 3.7 5000010.5764
21.41664 -0.88 3.7 5000028.6944
21.41664 -2.34 3.7 5000028.6944
21.41664 -2.36 3.7 5000028.6944
21.41664 -2.62 3.7 5000028.6944
21.41664 -3.1 3.7 5000028.6944
28.29636 -4.52 3.7 5000040.1606
28.29636 -4.56 3.7 5000040.1606
9.442464 5.92 3.68 5000008.73744
9.023147999999999 5.7 3.68 5000008.03858
9.023147999999999 5.62 3.68 5000008.03858
9.023147999999999 5.54 3.68 5000008.03858
9.023147999999999 5.52 3.68 5000008.03858
9.023147999999999 5.38 3.68 5000008.03858
9.023147999999999 5.06 3.68 5000008.03858
8.665944 4.96 3.68 5000007.44324
8.665944 4.94 3.68 5000007.44324
10.54584 4.86 3.68 5000010.5764
8.665944 4.68 3.68 5000007.44324
8.665944 4.66 3.68 5000007.44324
8.665944 4.64 3.68 5000007.44324
8.665944 4.6 3.68 5000007.44324
8.665944 4.48 3.68 5000007.44324
9.442464 4.34 3.68 5000008.73744
9.442464 4.32 3.68 5000008.73744
9.442464 4.3 3.68 5000008.73744
21.41664 3.42 3.68 5000028.6944
10.54584 3.2 3.68 5000010.5764
21.41664 2.92 3.68 5000028.6944
21.41664 2.9 3.68 5000028.6944
17.592840000000002 2.84 3.68 5000022.3214
9.941628000000001 2.44 3.68 5000009.56938
11.29218 2.04 3.68 5000011.8203
11.29218 2.02 3.68 5000011.8203
15.15888 1.68 3.68 5000018.2648
21.41664 1.38 3.68 5000028.6944
21.41664 1.12 3.68 5000028.6944
21.41664 1.1 3.68 5000028.6944
12.23748 0.0 3.68 5000013.3958
12.23748 -0.02 3.68 5000013.3958
10.54584 -0.08 3.68 5000010.5764
10.54584 -0.12 3.68 5000010.5764
21.41664 -0.88 3.68 5000028.6944
21.41664 -2.34 3.68 5000028.6944
21.41664 -2.36 3.68 5000028.6944
21.41664 -2.62 3.68 5000028.6944
21.41664 -3.1 3.68 5000028.6944
28.29636 -4.52 3.68 5000040.1606
28.29636 -4.56 3.68 5000040.1606
9.442464 5.94 3.66 5000008.73744
9.442464 5.6 3.66 5000008.73744
9.023147999999999 5.54 3.66 5000008.03858
9.023147999999999 5.38 3.66 5000008.03858
28.29636 5.22 3.66 5000040.1606
9.023147999999999 5.06 3.66 5000008.03858
8.665944 4.96 3.66 5000007.44324
10.54584 4.86 3.66 5000010.5764
8.665944 4.7 3.66 5000007.44324
8.665944 4.68 3.66 5000007.44324
8.665944 4.66 3.66 5000007.44324
9.442464 4.36 3.66 5000008.73744
9.442464 4.34 3.66 5000008.73744
9.442464 4.32 3.66 5000008.73744
28.29636 3.68 3.66 5000040.1606
21.41664 3.42 3.66 5000028.6944
21.41664 3.4 3.66 5000028.6944
10.54584 3.2 3.66 5000010.5764
21.41664 2.9 3.66 5000028.6944
17.592840000000002 2.82 3.66 5000022.3214
13.4736 2.58 3.66 5000015.456
11.29218 2.04 3.66 5000011.8203
28.29636 1.82 3.66 5000040.1606
21.41664 1.38 3.66 5000028.6944
21.41664 1.12 3.66 5000028.6944
21.41664 1.1 3.66 5000028.6944
12.23748 0.0 3.66 5000013.3958
12.23748 -0.02 3.66 5000013.3958
10.54584 -0.08 3.66 5000010.5764
10.54584 -0.12 3.66 5000010.5764
21.41664 -0.88 3.66 5000028.6944
21.41664 -2.36 3.66 5000028.6944
28.29636 -2.56 3.66 5000040.1606
21.41664 -2.58 3.66 5000028.6944
21.41664 -2.62 3.66 5000028.6944
21.41664 -3.1 3.66 5000028.6944
28.29636 -4.52 3.66 5000040.1606
28.29636 -4.56 3.66 5000040.1606
13.4736 5.86 3.64 5000015.456
8.665944 4.96 3.64 5000007.44324
10.54584 4.86 3.64 5000010.5764
8.665944 4.72 3.64 5000007.44324
8.665944 4.7 3.64 5000007.44324
8.665944 4.68 3.64 5000007.44324
9.442464 4.38 3.64 5000008.73744
9.442464 4.36 3.64 5000008.73744
9.442464 4.34 3.64 5000008.73744
13.4736 2.56 3.64 5000015.456
13.4736 2.54 3.64 5000015.456
11.29218 2.38 3.64 5000011.8203
28.29636 1.86 3.64 5000040.1606
15.15888 1.64 3.64 5000018.2648
21.41664 1.38 3.64 5000028.6944
21.41664 1.12 3.64 5000028.6944
21.41664 1.1 3.64 5000028.6944
12.23748 -0.02 3.64 5000013.3958
10.54584 -0.12 3.64 5000010.5764
21.41664 -0.88 3.64 5000028.6944
21.41664 -2.34 3.64 5000028.6944
21.41664 -2.36 3.64 5000028.6944
28.29636 -2.54 3.64 5000040.1606
28.29636 -2.56 3.64 5000040.1606
21.41664 -2.62 3.64 5000028.6944
21.41664 -2.64 3.64 5000028.6944
21.41664 -3.1 3.64 5000028.6944
28.29636 -4.52 3.64 5000040.1606
28.29636 -4.56 3.64 5000040.1606
9.023147999999999 5.46 3.62 5000008.03858
28.29636 5.2 3.62 5000040.1606
28.29636 5.18 3.62 5000040.1606
8.665944 4.98 3.62 5000007.44324
8.665944 4.74 3.62 5000007.44324
8.665944 4.72 3.62 5000007.44324
8.665944 4.7 3.62 5000007.44324
9.442464 4.58 3.62 5000008.73744
9.442464 4.4 3.62 5000008.73744
9.442464 4.38 3.62 5000008.73744
9.442464 4.36 3.62 5000008.73744
28.29636 4.16 3.62 5000040.1606
21.41664 3.78 3.62 5000028.6944
28.29636 3.66 3.62 5000040.1606
21.41664 3.38 3.62 5000028.6944
21.41664 3.36 3.62 5000028.6944
11.29218 2.42 3.62 5000011.8203
10.54584 2.24 3.62 5000010.5764
28.29636 1.86 3.62 5000040.1606
28.29636 1.84 3.62 5000040.1606
21.41664 1.38 3.62 5000028.6944
21.41664 1.12 3.62 5000028.6944
21.41664 1.1 3.62 5000028.6944
12.23748 -0.02 3.62 5000013.3958
10.54584 -0.08 3.62 5000010.5764
10.54584 -0.12 3.62 5000010.5764
21.41664 -0.88 3.62 5000028.6944
21.41664 -2.34 3.62 5000028.6944
21.41664 -2.36 3.62 5000028.6944
28.29636 -2.54 3.62 5000040.1606
28.29636 -2.56 3.62 5000040.1606
21.41664 -2.58 3.62 5000028.6944
21.41664 -2.62 3.62 5000028.6944
21.41664 -2.64 3.62 5000028.6944
21.41664 -3.1 3.62 5000028.6944
28.29636 -4.52 3.62 5000040.1606
28.29636 -4.56 3.62 5000040.1606
8.665944 5.78 3.6 5000007.44324
8.665944 5.76 3.6 5000007.44324
28.29636 5.2 3.6 5000040.1606
28.29636 5.18 3.6 5000040.1606
9.023147999999999 5.04 3.6 5000008.03858
8.665944 4.98 3.6 5000007.44324
8.665944 4.76 3.6 5000007.44324
8.665944 4.74 3.6 5000007.44324
8.665944 4.72 3.6 5000007.44324
9.442464 4.6 3.6 5000008.73744
9.442464 4.4 3.6 5000008.73744
9.442464 4.38 3.6 5000008.73744
28.29636 4.16 3.6 5000040.1606
28.29636 4.14 3.6 5000040.1606
21.41664 3.78 3.6 5000028.6944
21.41664 3.76 3.6 5000028.6944
28.29636 3.66 3.6 5000040.1606
124.19999999999999 3.54 3.6 5000200.0
17.592840000000002 2.66 3.6 5000022.3214
17.592840000000002 2.64 3.6 5000022.3214
11.29218 2.28 3.6 5000011.8203
11.29218 2.24 3.6 5000011.8203
11.29218 2.1 3.6 5000011.8203
28.29636 1.86 3.6 5000040.1606
28.29636 1.84 3.6 5000040.1606
21.41664 1.38 3.6 5000028.6944
13.4736 1.18 3.6 5000015.456
21.41664 1.12 3.6 5000028.6944
21.41664 1.1 3.6 5000028.6944
12.23748 -0.02 3.6 5000013.3958
10.54584 -0.12 3.6 5000010.5764
21.41664 -0.88 3.6 5000028.6944
21.41664 -2.34 3.6 5000028.6944
28.29636 -2.54 3.6 5000040.1606
28.29636 -2.56 3.6 5000040.1606
28.29636 -2.58 3.6 5000040.1606
21.41664 -2.62 3.6 5000028.6944
21.41664 -2.64 3.6 5000028.6944
28.29636 -4.52 3.6 5000040.1606
28.29636 -4.56 3.6 5000040.1606
9.023147999999999 5.78 3.58 5000008.03858
9.023147999999999 5.76 3.58 5000008.03858
9.023147999999999 5.74 3.58 5000008.03858
9.023147999999999 5.56 3.58 5000008.03858
9.023147999999999 5.04 3.58 5000008.03858
8.665944 4.98 3.58 5000007.44324
8.665944 4.76 3.58 5000007.44324
8.665944 4.74 3.58 5000007.44324
8.665944 4.72 3.58 5000007.44324
9.442464 4.42 3.58 5000008.73744
28.29636 3.66 3.58 5000040.1606
124.19999999999999 3.52 3.58 5000200.0
44.33376 2.94 3.58 5000066.8896
10.54584 2.76 3.58 5000010.5764
17.592840000000002 2.64 3.58 5000022.3214
11.29218 2.16 3.58 5000011.8203
11.29218 2.14 3.58 5000011.8203
28.29636 1.86 3.58 5000040.1606
28.29636 1.84 3.58 5000040.1606
21.41664 1.74 3.58 5000028.6944
21.41664 1.7 3.58 5000028.6944
21.41664 1.6 3.58 5000028.6944
21.41664 1.58 3.58 5000028.6944
21.41664 1.38 3.58 5000028.6944
21.41664 1.12 3.58 5000028.6944
21.41664 1.1 3.58 5000028.6944
12.23748 -0.02 3.58 5000013.3958
10.54584 -0.12 3.58 5000010.5764
21.41664 -0.88 3.58 5000028.6944
28.29636 -2.54 3.58 5000040.1606
28.29636 -2.56 3.58 5000040.1606
21.41664 -2.62 3.58 5000028.6944
28.29636 -4.52 3.58 5000040.1606
28.29636 -4.56 3.58 5000040.1606
28.29636 -6.56 3.58 5000040.1606
21.41664 5.88 3.56 5000028.6944
9.023147999999999 5.76 3.56 5000008.03858
9.023147999999999 5.74 3.56 5000008.03858
8.665944 4.78 3.56 5000007.44324
8.665944 4.76 3.56 5000007.44324
8.665944 4.74 3.56 5000007.44324
9.442464 4.62 3.56 5000008.73744
9.442464 4.36 3.56 5000008.73744
9.442464 4.34 3.56 5000008.73744
21.41664 3.96 3.56 5000028.6944
21.41664 3.94 3.56 5000028.6944
17.592840000000002 2.68 3.56 5000022.3214
21.41664 2.58 3.56 5000028.6944
11.29218 2.24 3.56 5000011.8203
28.29636 1.86 3.56 5000040.1606
28.29636 1.84 3.56 5000040.1606
21.41664 1.7 3.56 5000028.6944
21.41664 1.6 3.56 5000028.6944
21.41664 1.58 3.56 5000028.6944
21.41664 1.38 3.56 5000028.6944
21.41664 1.36 3.56 5000028.6944
21.41664 1.12 3.56 5000028.6944
21.41664 1.1 3.56 5000028.6944
12.23748 -0.02 3.56 5000013.3958
10.54584 -0.12 3.56 5000010.5764
21.41664 -0.88 3.56 5000028.6944
124.19999999999999 -2.34 3.56 5000200.0
28.29636 -2.5 3.56 5000040.1606
28.29636 -2.56 3.56 5000040.1606
21.41664 -2.62 3.56 5000028.6944
21.41664 -2.64 3.56 5000028.6944
28.29636 -4.52 3.56 5000040.1606
28.29636 -4.56 3.56 5000040.1606
21.41664 5.88 3.54 5000028.6944
9.023147999999999 5.76 3.54 5000008.03858
9.023147999999999 5.74 3.54 5000008.03858
8.665944 5.48 3.54 5000007.44324
8.665944 5.46 3.54 5000007.44324
8.665944 4.76 3.54 5000007.44324
8.665944 4.74 3.54 5000007.44324
9.442464 4.62 3.54 5000008.73744
9.442464 4.38 3.54 5000008.73744
9.442464 4.36 3.54 5000008.73744
28.29636 4.14 3.54 5000040.1606
21.41664 2.58 3.54 5000028.6944
28.29636 1.86 3.54 5000040.1606
28.29636 1.84 3.54 5000040.1606
21.41664 1.66 3.54 5000028.6944
21.41664 1.6 3.54 5000028.6944
21.41664 1.58 3.54 5000028.6944
21.41664 1.38 3.54 5000028.6944
21.41664 1.36 3.54 5000028.6944
21.41664 1.12 3.54 5000028.6944
21.41664 1.1 3.54 5000028.6944
12.23748 -0.02 3.54 5000013.3958
10.54584 -0.12 3.54 5000010.5764
21.41664 -0.86 3.54 5000028.6944
124.19999999999999 -2.34 3.54 5000200.0
28.29636 -2.56 3.54 5000040.1606
28.29636 -4.52 3.54 5000040.1606
28.29636 -4.56 3.54 5000040.1606
28.29636 -6.5 3.54 5000040.1606
21.41664 5.88 3.52 5000028.6944
9.023147999999999 5.72 3.52 5000008.03858
44.33376 5.12 3.52 5000066.8896
8.665944 4.78 3.52 5000007.44324
8.665944 4.76 3.52 5000007.44324
9.442464 4.64 3.52 5000008.73744
9.442464 4.46 3.52 5000008.73744
9.442464 4.42 3.52 5000008.73744
9.442464 4.4 3.52 5000008.73744
9.442464 4.38 3.52 5000008.73744
28.29636 3.76 3.52 5000040.1606
10.54584 3.2 3.52 5000010.5764
21.41664 2.92 3.52 5000028.6944
21.41664 2.9 3.52 5000028.6944
21.41664 2.6 3.52 5000028.6944
15.15888 2.5 3.52 5000018.2648
11.29218 2.28 3.52 5000011.8203
28.29636 1.88 3.52 5000040.1606
28.29636 1.86 3.52 5000040.1606
21.41664 1.6 3.52 5000028.6944
21.41664 1.38 3.52 5000028.6944
21.41664 1.36 3.52 5000028.6944
21.41664 1.12 3.52 5000028.6944
21.41664 1.1 3.52 5000028.6944
12.23748 -0.02 3.52 5000013.3958
10.54584 -0.12 3.52 5000010.5764
21.41664 -0.86 3.52 5000028.6944
124.19999999999999 -2.32 3.52 5000200.0
28.29636 -4.52 3.52 5000040.1606
21.41664 -4.56 3.52 5000028.6944
28.29636 -6.5 3.52 5000040.1606
21.41664 5.88 3.5 5000028.6944
9.023147999999999 4.78 3.5 5000008.03858
9.442464 4.66 3.5 5000008.73744
9.442464 4.48 3.5 5000008.73744
9.442464 4.46 3.5 5000008.73744
9.442464 4.42 3.5 5000008.73744
9.442464 4.4 3.5 5000008.73744
28.29636 4.18 3.5 5000040.1606
28.29636 3.76 3.5 5000040.1606
28.29636 3.6 3.5 5000040.1606
11.29218 2.08 3.5 5000011.8203
28.29636 1.88 3.5 5000040.1606
28.29636 1.86 3.5 5000040.1606
124.19999999999999 1.54 3.5 5000200.0
21.41664 1.12 3.5 5000028.6944
21.41664 1.1 3.5 5000028.6944
12.23748 -0.02 3.5 5000013.3958
10.54584 -0.12 3.5 5000010.5764
28.29636 -4.52 3.5 5000040.1606
21.41664 -4.56 3.5 5000028.6944
28.29636 -6.44 3.5 5000040.1606
21.41664 5.88 3.48 5000028.6944
9.442464 5.66 3.48 5000008.73744
9.023147999999999 5.38 3.48 5000008.03858
9.023147999999999 5.34 3.48 5000008.03858
17.592840000000002 5.18 3.48 5000022.3214
9.023147999999999 4.8 3.48 5000008.03858
9.023147999999999 4.78 3.48 5000008.03858
9.442464 4.66 3.48 5000008.73744
9.442464 4.5 3.48 5000008.73744
9.442464 4.42 3.48 5000008.73744
21.41664 3.04 3.48 5000028.6944
21.41664 2.94 3.48 5000028.6944
11.29218 2.08 3.48 5000011.8203
21.41664 1.92 3.48 5000028.6944
124.19999999999999 1.52 3.48 5000200.0
124.19999999999999 1.3 3.48 5000200.0
21.41664 1.12 3.48 5000028.6944
21.41664 1.1 3.48 5000028.6944
12.23748 -0.02 3.48 5000013.3958
10.54584 -0.12 3.48 5000010.5764
28.29636 -4.52 3.48 5000040.1606
21.41664 -4.56 3.48 5000028.6944
21.41664 -4.58 3.48 5000028.6944
28.29636 -6.42 3.48 5000040.1606
21.41664 5.88 3.46 5000028.6944
9.023147999999999 5.5 3.46 5000008.03858
9.023147999999999 5.38 3.46 5000008.03858
9.023147999999999 5.1 3.46 5000008.03858
9.023147999999999 4.8 3.46 5000008.03858
9.442464 4.68 3.46 5000008.73744
9.442464 4.42 3.46 5000008.73744
21.41664 3.06 3.46 5000028.6944
21.41664 3.04 3.46 5000028.6944
21.41664 2.74 3.46 5000028.6944
44.33376 2.64 3.46 5000066.8896
21.41664 2.56 3.46 5000028.6944
21.41664 2.54 3.46 5000028.6944
17.592840000000002 2.48 3.46 5000022.3214
28.29636 2.42 3.46 5000040.1606
28.29636 2.38 3.46 5000040.1606
21.41664 1.92 3.46 5000028.6944
124.19999999999999 1.3 3.46 5000200.0
21.41664 1.12 3.46 5000028.6944
21.41664 1.1 3.46 5000028.6944
12.23748 -0.02 3.46 5000013.3958
10.54584 -0.12 3.46 5000010.5764
28.29636 -4.52 3.46 5000040.1606
21.41664 -4.56 3.46 5000028.6944
28.29636 -6.4 3.46 5000040.1606
28.29636 -6.42 3.46 5000040.1606
21.41664 5.88 3.44 5000028.6944
9.023147999999999 5.38 3.44 5000008.03858
9.023147999999999 5.14 3.44 5000008.03858
9.023147999999999 4.82 3.44 5000008.03858
9.023147999999999 4.8 3.44 5000008.03858
9.442464 4.68 3.44 5000008.73744
21.41664 3.32 3.44 5000028.6944
21.41664 3.02 3.44 5000028.6944
21.41664 2.56 3.44 5000028.6944
21.41664 2.54 3.44 5000028.6944
17.592840000000002 2.48 3.44 5000022.3214
28.29636 2.4 3.44 5000040.1606
21.41664 1.92 3.44 5000028.6944
124.19999999999999 1.3 3.44 5000200.0
124.19999999999999 1.28 3.44 5000200.0
21.41664 1.1 3.44 5000028.6944
12.23748 -0.02 3.44 5000013.3958
10.54584 -0.12 3.44 5000010.5764
28.29636 -4.52 3.44 5000040.1606
21.41664 -4.56 3.44 5000028.6944
28.29636 -6.34 3.44 5000040.1606
21.41664 5.88 3.42 5000028.6944
9.023147999999999 5.54 3.42 5000008.03858
9.023147999999999 5.38 3.42 5000008.03858
9.023147999999999 4.82 3.42 5000008.03858
9.023147999999999 4.8 3.42 5000008.03858
9.442464 4.42 3.42 5000008.73744
21.41664 3.94 3.42 5000028.6944
21.41664 3.92 3.42 5000028.6944
28.29636 3.1 3.42 5000040.1606
21.41664 3.08 3.42 5000028.6944
21.41664 3.0 3.42 5000028.6944
21.41664 2.96 3.42 5000028.6944
21.41664 2.94 3.42 5000028.6944
21.41664 2.76 3.42 5000028.6944
21.41664 2.74 3.42 5000028.6944
21.41664 2.58 3.42 5000028.6944
28.29636 2.4 3.42 5000040.1606
21.41664 1.92 3.42 5000028.6944
124.19999999999999 1.28 3.42 5000200.0
21.41664 1.1 3.42 5000028.6944
12.23748 -0.02 3.42 5000013.3958
10.54584 -0.12 3.42 5000010.5764
28.29636 -4.52 3.42 5000040.1606
21.41664 -4.56 3.42 5000028.6944
21.41664 -4.58 3.42 5000028.6944
28.29636 -6.34 3.42 5000040.1606
17.592840000000002 5.94 3.4 5000022.3214
21.41664 5.88 3.4 5000028.6944
9.023147999999999 5.4 3.4 5000008.03858
9.023147999999999 5.38 3.4 5000008.03858
9.023147999999999 4.84 3.4 5000008.03858
9.023147999999999 4.82 3.4 5000008.03858
9.023147999999999 4.8 3.4 5000008.03858
9.442464 4.44 3.4 5000008.73744
9.442464 4.42 3.4 5000008.73744
21.41664 4.06 3.4 5000028.6944
21.41664 3.5 3.4 5000028.6944
28.29636 3.1 3.4 5000040.1606
21.41664 2.74 3.4 5000028.6944
28.29636 2.4 3.4 5000040.1606
21.41664 1.92 3.4 5000028.6944
21.41664 1.1 3.4 5000028.6944
12.23748 -0.02 3.4 5000013.3958
10.54584 -0.12 3.4 5000010.5764
28.29636 -4.52 3.4 5000040.1606
21.41664 -4.56 3.4 5000028.6944
28.29636 -6.3 3.4 5000040.1606
28.29636 -6.32 3.4 5000040.1606
21.41664 5.88 3.38 5000028.6944
9.023147999999999 5.4 3.38 5000008.03858
9.023147999999999 5.38 3.38 5000008.03858
8.665944 4.86 3.38 5000007.44324
9.023147999999999 4.84 3.38 5000008.03858
9.023147999999999 4.82 3.38 5000008.03858
9.023147999999999 4.76 3.38 5000008.03858
9.442464 4.46 3.38 5000008.73744
9.442464 4.44 3.38 5000008.73744
21.41664 3.96 3.38 5000028.6944
21.41664 3.5 3.38 5000028.6944
21.41664 3.24 3.38 5000028.6944
44.33376 3.14 3.38 5000066.8896
21.41664 2.94 3.38 5000028.6944
28.29636 2.76 3.38 5000040.1606
28.29636 2.42 3.38 5000040.1606
21.41664 1.92 3.38 5000028.6944
21.41664 1.1 3.38 5000028.6944
12.23748 -0.02 3.38 5000013.3958
10.54584 -0.12 3.38 5000010.5764
28.29636 -4.52 3.38 5000040.1606
21.41664 -4.56 3.38 5000028.6944
21.41664 -4.58 3.38 5000028.6944
21.41664 5.88 3.36 5000028.6944
9.023147999999999 5.4 3.36 5000008.03858
17.592840000000002 5.22 3.36 5000022.3214
8.665944 4.88 3.36 5000007.44324
9.023147999999999 4.86 3.36 5000008.03858
9.023147999999999 4.84 3.36 5000008.03858
9.442464 4.46 3.36 5000008.73744
9.442464 4.44 3.36 5000008.73744
28.29636 3.78 3.36 5000040.1606
44.33376 3.02 3.36 5000066.8896
28.29636 2.76 3.36 5000040.1606
28.29636 2.48 3.36 5000040.1606
28.29636 2.42 3.36 5000040.1606
11.29218 2.18 3.36 5000011.8203
21.41664 1.92 3.36 5000028.6944
21.41664 1.1 3.36 5000028.6944
12.23748 -0.02 3.36 5000013.3958
10.54584 -0.12 3.36 5000010.5764
28.29636 -4.52 3.36 5000040.1606
21.41664 -4.56 3.36 5000028.6944
21.41664 -4.58 3.36 5000028.6944
28.29636 -6.24 3.36 5000040.1606
21.41664 5.88 3.34 5000028.6944
9.023147999999999 5.62 3.34 5000008.03858
9.023147999999999 5.6 3.34 5000008.03858
8.665944 5.3 3.34 5000007.44324
8.665944 5.28 3.34 5000007.44324
17.592840000000002 5.18 3.34 5000022.3214
9.023147999999999 4.88 3.34 5000008.03858
9.023147999999999 4.86 3.34 5000008.03858
9.442464 4.46 3.34 5000008.73744
124.19999999999999 3.18 3.34 5000200.0
28.29636 2.74 3.34 5000040.1606
28.29636 2.48 3.34 5000040.1606
11.29218 2.18 3.34 5000011.8203
21.41664 1.92 3.34 5000028.6944
21.41664 1.1 3.34 5000028.6944
12.23748 -0.02 3.34 5000013.3958
10.54584 -0.12 3.34 5000010.5764
28.29636 -4.52 3.34 5000040.1606
21.41664 -4.56 3.34 5000028.6944
21.41664 -4.58 3.34 5000028.6944
44.33376 -6.18 3.34 5000066.8896
28.29636 -6.24 3.34 5000040.1606
12.23748 -6.56 3.34 5000013.3958
21.41664 5.88 3.32 5000028.6944
9.023147999999999 5.6 3.32 5000008.03858
8.665944 5.3 3.32 5000007.44324
8.665944 5.28 3.32 5000007.44324
17.592840000000002 5.22 3.32 5000022.3214
17.592840000000002 5.18 3.32 5000022.3214
9.023147999999999 4.86 3.32 5000008.03858
9.023147999999999 4.74 3.32 5000008.03858
9.442464 4.54 3.32 5000008.73744
9.442464 4.5 3.32 5000008.73744
9.442464 4.48 3.32 5000008.73744
9.442464 4.46 3.32 5000008.73744
17.592840000000002 4.34 3.32 5000022.3214
28.29636 2.88 3.32 5000040.1606
28.29636 2.54 3.32 5000040.1606
28.29636 2.5 3.32 5000040.1606
21.41664 1.92 3.32 5000028.6944
21.41664 1.1 3.32 5000028.6944
12.23748 -0.02 3.32 5000013.3958
10.54584 -0.12 3.32 5000010.5764
28.29636 -4.52 3.32 5000040.1606
21.41664 -4.56 3.32 5000028.6944
21.41664 -4.58 3.32 5000028.6944
44.33376 -6.14 3.32 5000066.8896
12.23748 -6.52 3.32 5000013.3958
21.41664 5.88 3.3 5000028.6944
9.023147999999999 5.6 3.3 5000008.03858
8.665944 5.32 3.3 5000007.44324
8.665944 5.3 3.3 5000007.44324
17.592840000000002 5.18 3.3 5000022.3214
9.023147999999999 4.86 3.3 5000008.03858
9.442464 4.58 3.3 5000008.73744
9.442464 4.52 3.3 5000008.73744
9.442464 4.5 3.3 5000008.73744
21.41664 4.0 3.3 5000028.6944
21.41664 3.36 3.3 5000028.6944
28.29636 2.92 3.3 5000040.1606
28.29636 2.9 3.3 5000040.1606
28.29636 2.88 3.3 5000040.1606
124.19999999999999 2.82 3.3 5000200.0
124.19999999999999 2.62 3.3 5000200.0
21.41664 1.92 3.3 5000028.6944
21.41664 1.1 3.3 5000028.6944
12.23748 -0.02 3.3 5000013.3958
10.54584 -0.12 3.3 5000010.5764
28.29636 -4.52 3.3 5000040.1606
21.41664 -4.56 3.3 5000028.6944
21.41664 -4.58 3.3 5000028.6944
44.33376 -6.12 3.3 5000066.8896
44.33376 -6.14 3.3 5000066.8896
28.29636 -6.16 3.3 5000040.1606
28.29636 -6.28 3.3 5000040.1606
12.23748 -6.5 3.3 5000013.3958
21.41664 5.64 3.28 5000028.6944
8.665944 5.32 3.28 5000007.44324
8.665944 5.3 3.28 5000007.44324
9.442464 4.56 3.28 5000008.73744
9.442464 4.54 3.28 5000008.73744
9.442464 4.52 3.28 5000008.73744
21.41664 4.02 3.28 5000028.6944
21.41664 4.0 3.28 5000028.6944
28.29636 2.92 3.28 5000040.1606
28.29636 2.9 3.28 5000040.1606
13.4736 2.22 3.28 5000015.456
21.41664 1.92 3.28 5000028.6944
15.15888 1.78 3.28 5000018.2648
15.15888 1.76 3.28 5000018.2648
21.41664 1.1 3.28 5000028.6944
12.23748 -0.02 3.28 5000013.3958
10.54584 -0.12 3.28 5000010.5764
28.29636 -4.52 3.28 5000040.1606
21.41664 -4.56 3.28 5000028.6944
21.41664 -4.58 3.28 5000028.6944
44.33376 -6.08 3.28 5000066.8896
44.33376 -6.1 3.28 5000066.8896
28.29636 -6.14 3.28 5000040.1606
28.29636 -6.16 3.28 5000040.1606
21.41664 5.64 3.26 5000028.6944
21.41664 5.62 3.26 5000028.6944
8.665944 5.32 3.26 5000007.44324
9.442464 4.56 3.26 5000008.73744
9.442464 4.54 3.26 5000008.73744
21.41664 4.2 3.26 5000028.6944
28.29636 3.74 3.26 5000040.1606
28.29636 2.94 3.26 5000040.1606
28.29636 2.92 3.26 5000040.1606
28.29636 2.9 3.26 5000040.1606
21.41664 1.92 3.26 5000028.6944
21.41664 1.86 3.26 5000028.6944
21.41664 1.1 3.26 5000028.6944
12.23748 -0.02 3.26 5000013.3958
10.54584 -0.12 3.26 5000010.5764
28.29636 -4.52 3.26 5000040.1606
21.41664 -4.56 3.26 5000028.6944
21.41664 -4.58 3.26 5000028.6944
44.33376 -6.06 3.26 5000066.8896
17.592840000000002 -6.22 3.26 5000022.3214
21.41664 5.64 3.24 5000028.6944
9.023147999999999 5.52 3.24 5000008.03858
8.665944 5.34 3.24 5000007.44324
8.665944 5.32 3.24 5000007.44324
8.665944 5.24 3.24 5000007.44324
8.665944 5.22 3.24 5000007.44324
9.023147999999999 4.98 3.24 5000008.03858
9.442464 4.56 3.24 5000008.73744
17.592840000000002 4.48 3.24 5000022.3214
21.41664 4.24 3.24 5000028.6944
28.29636 2.94 3.24 5000040.1606
21.41664 2.46 3.24 5000028.6944
28.29636 2.3 3.24 5000040.1606
13.4736 2.2 3.24 5000015.456
21.41664 1.92 3.24 5000028.6944
21.41664 1.86 3.24 5000028.6944
21.41664 1.1 3.24 5000028.6944
12.23748 -0.02 3.24 5000013.3958
10.54584 -0.12 3.24 5000010.5764
28.29636 -4.52 3.24 5000040.1606
21.41664 -4.56 3.24 5000028.6944
21.41664 -4.58 3.24 5000028.6944
44.33376 -6.02 3.24 5000066.8896
44.33376 -6.04 3.24 5000066.8896
44.33376 -6.06 3.24 5000066.8896
12.23748 -6.4 3.24 5000013.3958
21.41664 5.88 3.22 5000028.6944
21.41664 5.64 3.22 5000028.6944
9.023147999999999 5.5 3.22 5000008.03858
9.023147999999999 5.34 3.22 5000008.03858
9.023147999999999 5.32 3.22 5000008.03858
8.665944 5.24 3.22 5000007.44324
8.665944 5.22 3.22 5000007.44324
9.023147999999999 4.98 3.22 5000008.03858
9.023147999999999 4.9 3.22 5000008.03858
21.41664 4.08 3.22 5000028.6944
44.33376 3.0 3.22 5000066.8896
28.29636 2.74 3.22 5000040.1606
21.41664 2.7 3.22 5000028.6944
17.592840000000002 2.64 3.22 5000022.3214
17.592840000000002 2.6 3.22 5000022.3214
28.29636 2.34 3.22 5000040.1606
28.29636 2.32 3.22 5000040.1606
21.41664 1.92 3.22 5000028.6944
21.41664 1.9 3.22 5000028.6944
21.41664 1.86 3.22 5000028.6944
21.41664 1.8 3.22 5000028.6944
21.41664 1.72 3.22 5000028.6944
21.41664 1.1 3.22 5000028.6944
12.23748 -0.02 3.22 5000013.3958
10.54584 -0.12 3.22 5000010.5764
28.29636 -4.52 3.22 5000040.1606
21.41664 -4.56 3.22 5000028.6944
21.41664 -4.58 3.22 5000028.6944
44.33376 -6.0 3.22 5000066.8896
44.33376 -6.04 3.22 5000066.8896
44.33376 -6.06 3.22 5000066.8896
17.592840000000002 -6.16 3.22 5000022.3214
21.41664 5.88 3.2 5000028.6944
21.41664 5.64 3.2 5000028.6944
9.023147999999999 5.5 3.2 5000008.03858
9.023147999999999 5.34 3.2 5000008.03858
9.023147999999999 5.32 3.2 5000008.03858
8.665944 5.22 3.2 5000007.44324
9.023147999999999 4.94 3.2 5000008.03858
9.023147999999999 4.9 3.2 5000008.03858
9.023147999999999 4.88 3.2 5000008.03858
9.442464 4.58 3.2 5000008.73744
21.41664 4.08 3.2 5000028.6944
21.41664 3.98 3.2 5000028.6944
21.41664 3.64 3.2 5000028.6944
44.33376 2.98 3.2 5000066.8896
124.19999999999999 2.88 3.2 5000200.0
124.19999999999999 2.86 3.2 5000200.0
28.29636 2.72 3.2 5000040.1606
28.29636 2.7 3.2 5000040.1606
21.41664 2.68 3.2 5000028.6944
21.41664 2.44 3.2 5000028.6944
21.41664 1.92 3.2 5000028.6944
21.41664 1.9 3.2 5000028.6944
28.29636 1.86 3.2 5000040.1606
21.41664 1.76 3.2 5000028.6944
21.41664 1.74 3.2 5000028.6944
21.41664 1.72 3.2 5000028.6944
21.41664 1.7 3.2 5000028.6944
21.41664 1.58 3.2 5000028.6944
21.41664 1.34 3.2 5000028.6944
21.41664 1.32 3.2 5000028.6944
21.41664 1.12 3.2 5000028.6944
21.41664 1.1 3.2 5000028.6944
12.23748 -0.02 3.2 5000013.3958
10.54584 -0.12 3.2 5000010.5764
28.29636 -4.52 3.2 5000040.1606
21.41664 -4.56 3.2 5000028.6944
21.41664 -4.58 3.2 5000028.6944
44.33376 -5.96 3.2 5000066.8896
44.33376 -5.98 3.2 5000066.8896
44.33376 -6.0 3.2 5000066.8896
12.23748 -6.34 3.2 5000013.3958
21.41664 5.88 3.18 5000028.6944
21.41664 5.64 3.18 5000028.6944
9.023147999999999 4.9 3.18 5000008.03858
9.442464 4.58 3.18 5000008.73744
21.41664 4.1 3.18 5000028.6944
21.41664 4.08 3.18 5000028.6944
21.41664 4.02 3.18 5000028.6944
21.41664 3.98 3.18 5000028.6944
21.41664 3.96 3.18 5000028.6944
21.41664 3.48 3.18 5000028.6944
124.19999999999999 2.86 3.18 5000200.0
124.19999999999999 2.84 3.18 5000200.0
28.29636 2.34 3.18 5000040.1606
21.41664 1.92 3.18 5000028.6944
21.41664 1.9 3.18 5000028.6944
21.41664 1.76 3.18 5000028.6944
21.41664 1.74 3.18 5000028.6944
21.41664 1.58 3.18 5000028.6944
21.41664 1.34 3.18 5000028.6944
21.41664 1.32 3.18 5000028.6944
21.41664 1.12 3.18 5000028.6944
21.41664 1.1 3.18 5000028.6944
12.23748 -0.02 3.18 5000013.3958
10.54584 -0.12 3.18 5000010.5764
28.29636 -4.52 3.18 5000040.1606
21.41664 -4.56 3.18 5000028.6944
21.41664 -4.58 3.18 5000028.6944
44.33376 -5.94 3.18 5000066.8896
44.33376 -5.96 3.18 5000066.8896
12.23748 -6.3 3.18 5000013.3958
21.41664 5.88 3.16 5000028.6944
8.665944 5.46 3.16 5000007.44324
9.442464 4.6 3.16 5000008.73744
21.41664 4.12 3.16 5000028.6944
21.41664 4.1 3.16 5000028.6944
21.41664 3.48 3.16 5000028.6944
21.41664 3.1 3.16 5000028.6944
124.19999999999999 2.92 3.16 5000200.0
124.19999999999999 2.86 3.16 5000200.0
124.19999999999999 2.82 3.16 5000200.0
28.29636 2.7 3.16 5000040.1606
21.41664 2.52 3.16 5000028.6944
28.29636 2.36 3.16 5000040.1606
28.29636 2.34 3.16 5000040.1606
124.19999999999999 2.0 3.16 5000200.0
21.41664 1.92 3.16 5000028.6944
28.29636 1.86 3.16 5000040.1606
21.41664 1.76 3.16 5000028.6944
21.41664 1.12 3.16 5000028.6944
21.41664 1.1 3.16 5000028.6944
12.23748 -0.02 3.16 5000013.3958
10.54584 -0.12 3.16 5000010.5764
28.29636 -4.52 3.16 5000040.1606
21.41664 -4.56 3.16 5000028.6944
21.41664 -4.58 3.16 5000028.6944
44.33376 -5.9 3.16 5000066.8896
44.33376 -5.92 3.16 5000066.8896
44.33376 -5.94 3.16 5000066.8896
28.29636 -5.96 3.16 5000040.1606
12.23748 -6.28 3.16 5000013.3958
28.29636 -6.4 3.16 5000040.1606
21.41664 5.88 3.14 5000028.6944
8.665944 5.44 3.14 5000007.44324
9.442464 4.62 3.14 5000008.73744
9.442464 4.6 3.14 5000008.73744
21.41664 4.22 3.14 5000028.6944
21.41664 4.12 3.14 5000028.6944
21.41664 3.82 3.14 5000028.6944
21.41664 3.1 3.14 5000028.6944
124.19999999999999 2.8 3.14 5000200.0
44.33376 2.74 3.14 5000066.8896
21.41664 2.52 3.14 5000028.6944
28.29636 2.36 3.14 5000040.1606
28.29636 2.34 3.14 5000040.1606
21.41664 1.92 3.14 5000028.6944
44.33376 1.86 3.14 5000066.8896
21.41664 1.76 3.14 5000028.6944
124.19999999999999 1.3 3.14 5000200.0
124.19999999999999 1.28 3.14 5000200.0
21.41664 1.1 3.14 5000028.6944
12.23748 -0.02 3.14 5000013.3958
10.54584 -0.12 3.14 5000010.5764
28.29636 -4.52 3.14 5000040.1606
21.41664 -4.58 3.14 5000028.6944
44.33376 -5.88 3.14 5000066.8896
44.33376 -5.9 3.14 5000066.8896
44.33376 -5.92 3.14 5000066.8896
28.29636 -6.4 3.14 5000040.1606
21.41664 5.88 3.12 5000028.6944
8.665944 5.44 3.12 5000007.44324
8.665944 5.42 3.12 5000007.44324
9.442464 4.62 3.12 5000008.73744
21.41664 4.26 3.12 5000028.6944
21.41664 4.24 3.12 5000028.6944
21.41664 4.22 3.12 5000028.6944
21.41664 4.2 3.12 5000028.6944
21.41664 4.12 3.12 5000028.6944
21.41664 3.82 3.12 5000028.6944
21.41664 3.1 3.12 5000028.6944
124.19999999999999 2.8 3.12 5000200.0
124.19999999999999 2.78 3.12 5000200.0
44.33376 2.72 3.12 5000066.8896
21.41664 2.54 3.12 5000028.6944
28.29636 2.34 3.12 5000040.1606
21.41664 1.92 3.12 5000028.6944
124.19999999999999 1.28 3.12 5000200.0
21.41664 1.1 3.12 5000028.6944
12.23748 -0.02 3.12 5000013.3958
10.54584 -0.12 3.12 5000010.5764
21.41664 -0.9 3.12 5000028.6944
28.29636 -4.52 3.12 5000040.1606
21.41664 -4.58 3.12 5000028.6944
44.33376 -5.86 3.12 5000066.8896
12.23748 -6.22 3.12 5000013.3958
8.665944 5.44 3.1 5000007.44324
8.665944 5.42 3.1 5000007.44324
9.023147999999999 4.66 3.1 5000008.03858
9.023147999999999 4.64 3.1 5000008.03858
21.41664 4.32 3.1 5000028.6944
21.41664 3.58 3.1 5000028.6944
21.41664 3.5 3.1 5000028.6944
21.41664 3.06 3.1 5000028.6944
28.29636 2.66 3.1 5000040.1606
21.41664 2.52 3.1 5000028.6944
124.19999999999999 2.46 3.1 5000200.0
28.29636 2.32 3.1 5000040.1606
21.41664 1.92 3.1 5000028.6944
124.19999999999999 1.26 3.1 5000200.0
21.41664 1.1 3.1 5000028.6944
12.23748 -0.02 3.1 5000013.3958
10.54584 -0.12 3.1 5000010.5764
21.41664 -0.84 3.1 5000028.6944
21.41664 -0.9 3.1 5000028.6944
28.29636 -4.52 3.1 5000040.1606
21.41664 -4.58 3.1 5000028.6944
44.33376 -5.82 3.1 5000066.8896
8.665944 5.44 3.08 5000007.44324
8.665944 5.42 3.08 5000007.44324
9.023147999999999 5.26 3.08 5000008.03858
9.442464 4.8 3.08 5000008.73744
9.941628000000001 4.72 3.08 5000009.56938
9.023147999999999 4.66 3.08 5000008.03858
9.023147999999999 4.64 3.08 5000008.03858
21.41664 4.32 3.08 5000028.6944
21.41664 2.58 3.08 5000028.6944
21.41664 2.56 3.08 5000028.6944
124.19999999999999 2.44 3.08 5000200.0
28.29636 2.38 3.08 5000040.1606
21.41664 1.94 3.08 5000028.6944
21.41664 1.1 3.08 5000028.6944
12.23748 -0.02 3.08 5000013.3958
10.54584 -0.12 3.08 5000010.5764
10.54584 -0.14 3.08 5000010.5764
21.41664 -0.84 3.08 5000028.6944
21.41664 -0.88 3.08 5000028.6944
21.41664 -0.9 3.08 5000028.6944
28.29636 -4.52 3.08 5000040.1606
21.41664 -4.58 3.08 5000028.6944
44.33376 -5.78 3.08 5000066.8896
44.33376 -5.8 3.08 5000066.8896
44.33376 -5.82 3.08 5000066.8896
44.33376 -5.84 3.08 5000066.8896
21.41664 5.82 3.06 5000028.6944
9.023147999999999 5.44 3.06 5000008.03858
9.023147999999999 5.42 3.06 5000008.03858
9.023147999999999 5.3 3.06 5000008.03858
9.023147999999999 4.66 3.06 5000008.03858
9.023147999999999 4.64 3.06 5000008.03858
28.29636 4.38 3.06 5000040.1606
21.41664 4.32 3.06 5000028.6944
21.41664 3.96 3.06 5000028.6944
21.41664 3.86 3.06 5000028.6944
21.41664 3.84 3.06 5000028.6944
124.19999999999999 2.74 3.06 5000200.0
28.29636 2.64 3.06 5000040.1606
21.41664 2.58 3.06 5000028.6944
21.41664 2.54 3.06 5000028.6944
21.41664 1.94 3.06 5000028.6944
21.41664 1.92 3.06 5000028.6944
21.41664 1.9 3.06 5000028.6944
124.19999999999999 1.24 3.06 5000200.0
21.41664 1.1 3.06 5000028.6944
12.23748 -0.02 3.06 5000013.3958
10.54584 -0.12 3.06 5000010.5764
21.41664 -0.82 3.06 5000028.6944
21.41664 -0.88 3.06 5000028.6944
28.29636 -4.52 3.06 5000040.1606
21.41664 -4.58 3.06 5000028.6944
44.33376 -5.76 3.06 5000066.8896
44.33376 -5.78 3.06 5000066.8896
44.33376 -5.82 3.06 5000066.8896
21.41664 5.62 3.04 5000028.6944
9.023147999999999 5.42 3.04 5000008.03858
9.023147999999999 5.3 3.04 5000008.03858
9.023147999999999 4.88 3.04 5000008.03858
9.023147999999999 4.68 3.04 5000008.03858
9.023147999999999 4.66 3.04 5000008.03858
21.41664 4.32 3.04 5000028.6944
21.41664 4.3 3.04 5000028.6944
21.41664 3.96 3.04 5000028.6944
21.41664 3.86 3.04 5000028.6944
21.41664 3.84 3.04 5000028.6944
21.41664 3.62 3.04 5000028.6944
21.41664 3.6 3.04 5000028.6944
28.29636 2.66 3.04 5000040.1606
28.29636 2.64 3.04 5000040.1606
28.29636 2.36 3.04 5000040.1606
28.29636 2.34 3.04 5000040.1606
21.41664 1.94 3.04 5000028.6944
21.41664 1.92 3.04 5000028.6944
21.41664 1.12 3.04 5000028.6944
21.41664 1.1 3.04 5000028.6944
12.23748 -0.02 3.04 5000013.3958
10.54584 -0.12 3.04 5000010.5764
10.54584 -0.14 3.04 5000010.5764
28.29636 -0.82 3.04 5000040.1606
21.41664 -0.88 3.04 5000028.6944
28.29636 -4.52 3.04 5000040.1606
21.41664 -4.58 3.04 5000028.6944
44.33376 -5.72 3.04 5000066.8896
44.33376 -5.74 3.04 5000066.8896
21.41664 5.62 3.02 5000028.6944
9.023147999999999 5.42 3.02 5000008.03858
9.023147999999999 5.3 3.02 5000008.03858
9.023147999999999 4.68 3.02 5000008.03858
9.023147999999999 4.66 3.02 5000008.03858
21.41664 4.32 3.02 5000028.6944
21.41664 3.62 3.02 5000028.6944
21.41664 3.6 3.02 5000028.6944
28.29636 3.1 3.02 5000040.1606
28.29636 3.08 3.02 5000040.1606
28.29636 2.66 3.02 5000040.1606
28.29636 2.34 3.02 5000040.1606
21.41664 1.92 3.02 5000028.6944
21.41664 1.9 3.02 5000028.6944
21.41664 1.12 3.02 5000028.6944
21.41664 1.1 3.02 5000028.6944
12.23748 -0.02 3.02 5000013.3958
10.54584 -0.12 3.02 5000010.5764
10.54584 -0.14 3.02 5000010.5764
28.29636 -0.82 3.02 5000040.1606
21.41664 -0.88 3.02 5000028.6944
28.29636 -4.52 3.02 5000040.1606
21.41664 -4.58 3.02 5000028.6944
44.33376 -5.7 3.02 5000066.8896
44.33376 -5.72 3.02 5000066.8896
44.33376 -5.74 3.02 5000066.8896
44.33376 -5.76 3.02 5000066.8896
9.023147999999999 5.42 3.0 5000008.03858
17.592840000000002 5.18 3.0 5000022.3214
21.41664 4.32 3.0 5000028.6944
21.41664 4.24 3.0 5000028.6944
21.41664 4.22 3.0 5000028.6944
21.41664 3.34 3.0 5000028.6944
21.41664 3.32 3.0 5000028.6944
21.41664 3.26 3.0 5000028.6944
44.33376 2.68 3.0 5000066.8896
44.33376 2.66 3.0 5000066.8896
17.592840000000002 2.54 3.0 5000022.3214
21.41664 1.92 3.0 5000028.6944
21.41664 1.9 3.0 5000028.6944
21.41664 1.12 3.0 5000028.6944
21.41664 1.1 3.0 5000028.6944
12.23748 -0.02 3.0 5000013.3958
10.54584 -0.12 3.0 5000010.5764
10.54584 -0.14 3.0 5000010.5764
28.29636 -0.82 3.0 5000040.1606
28.29636 -4.52 3.0 5000040.1606
21.41664 -4.58 3.0 5000028.6944
44.33376 -5.7 3.0 5000066.8896
28.29636 -5.74 3.0 5000040.1606
28.29636 -5.76 3.0 5000040.1606
9.023147999999999 5.42 2.98 5000008.03858
9.023147999999999 4.9 2.98 5000008.03858
9.023147999999999 4.76 2.98 5000008.03858
9.023147999999999 4.74 2.98 5000008.03858
9.023147999999999 4.72 2.98 5000008.03858
21.41664 4.02 2.98 5000028.6944
21.41664 3.54 2.98 5000028.6944
21.41664 3.34 2.98 5000028.6944
21.41664 3.26 2.98 5000028.6944
17.592840000000002 2.54 2.98 5000022.3214
15.15888 2.48 2.98 5000018.2648
21.41664 1.92 2.98 5000028.6944
21.41664 1.9 2.98 5000028.6944
21.41664 1.12 2.98 5000028.6944
21.41664 1.1 2.98 5000028.6944
12.23748 -0.02 2.98 5000013.3958
10.54584 -0.12 2.98 5000010.5764
10.54584 -0.14 2.98 5000010.5764
28.29636 -4.52 2.98 5000040.1606
21.41664 -4.58 2.98 5000028.6944
44.33376 -5.68 2.98 5000066.8896
28.29636 -5.76 2.98 5000040.1606
21.41664 5.68 2.96 5000028.6944
9.023147999999999 5.44 2.96 5000008.03858
9.023147999999999 5.42 2.96 5000008.03858
9.023147999999999 4.9 2.96 5000008.03858
9.023147999999999 4.76 2.96 5000008.03858
9.023147999999999 4.74 2.96 5000008.03858
21.41664 4.1 2.96 5000028.6944
21.41664 4.04 2.96 5000028.6944
124.19999999999999 2.78 2.96 5000200.0
44.33376 2.7 2.96 5000066.8896
44.33376 2.68 2.96 5000066.8896
44.33376 2.64 2.96 5000066.8896
21.41664 2.6 2.96 5000028.6944
15.15888 2.48 2.96 5000018.2648
21.41664 1.92 2.96 5000028.6944
21.41664 1.9 2.96 5000028.6944
21.41664 1.12 2.96 5000028.6944
21.41664 1.1 2.96 5000028.6944
12.23748 -0.02 2.96 5000013.3958
10.54584 -0.12 2.96 5000010.5764
10.54584 -0.14 2.96 5000010.5764
21.41664 -0.9 2.96 5000028.6944
28.29636 -4.52 2.96 5000040.1606
21.41664 -4.58 2.96 5000028.6944
44.33376 -5.68 2.96 5000066.8896
28.29636 -5.76 2.96 5000040.1606
21.41664 5.64 2.94 5000028.6944
9.023147999999999 5.42 2.94 5000008.03858
17.592840000000002 5.18 2.94 5000022.3214
9.023147999999999 4.76 2.94 5000008.03858
9.023147999999999 4.74 2.94 5000008.03858
21.41664 4.08 2.94 5000028.6944
44.33376 2.68 2.94 5000066.8896
21.41664 2.6 2.94 5000028.6944
15.15888 2.48 2.94 5000018.2648
21.41664 1.92 2.94 5000028.6944
21.41664 1.12 2.94 5000028.6944
21.41664 1.1 2.94 5000028.6944
12.23748 -0.02 2.94 5000013.3958
10.54584 -0.12 2.94 5000010.5764
10.54584 -0.14 2.94 5000010.5764
21.41664 -0.88 2.94 5000028.6944
21.41664 -0.9 2.94 5000028.6944
28.29636 -4.52 2.94 5000040.1606
21.41664 -4.58 2.94 5000028.6944
28.29636 -5.9 2.94 5000040.1606
28.29636 -5.92 2.94 5000040.1606
21.41664 -6.0 2.94 5000028.6944
8.665944 5.42 2.92 5000007.44324
17.592840000000002 5.18 2.92 5000022.3214
9.023147999999999 4.78 2.92 5000008.03858
9.023147999999999 4.76 2.92 5000008.03858
44.33376 2.66 2.92 5000066.8896
28.29636 2.32 2.92 5000040.1606
21.41664 1.92 2.92 5000028.6944
21.41664 1.9 2.92 5000028.6944
21.41664 1.12 2.92 5000028.6944
21.41664 1.1 2.92 5000028.6944
12.23748 -0.02 2.92 5000013.3958
12.23748 -0.04 2.92 5000013.3958
10.54584 -0.12 2.92 5000010.5764
10.54584 -0.14 2.92 5000010.5764
21.41664 -0.88 2.92 5000028.6944
21.41664 -0.9 2.92 5000028.6944
28.29636 -4.52 2.92 5000040.1606
21.41664 -4.58 2.92 5000028.6944
124.19999999999999 -5.62 2.92 5000200.0
28.29636 -5.92 2.92 5000040.1606
21.41664 -6.0 2.92 5000028.6944
21.41664 5.64 2.9 5000028.6944
21.41664 5.58 2.9 5000028.6944
8.665944 5.4 2.9 5000007.44324
17.592840000000002 5.18 2.9 5000022.3214
9.023147999999999 4.8 2.9 5000008.03858
9.023147999999999 4.78 2.9 5000008.03858
9.023147999999999 4.76 2.9 5000008.03858
9.023147999999999 4.74 2.9 5000008.03858
21.41664 4.42 2.9 5000028.6944
21.41664 3.42 2.9 5000028.6944
28.29636 3.22 2.9 5000040.1606
21.41664 3.0 2.9 5000028.6944
44.33376 2.66 2.9 5000066.8896
28.29636 2.24 2.9 5000040.1606
21.41664 1.92 2.9 5000028.6944
21.41664 1.9 2.9 5000028.6944
21.41664 1.12 2.9 5000028.6944
21.41664 1.1 2.9 5000028.6944
12.23748 -0.02 2.9 5000013.3958
12.23748 -0.04 2.9 5000013.3958
10.54584 -0.12 2.9 5000010.5764
10.54584 -0.14 2.9 5000010.5764
28.29636 -0.82 2.9 5000040.1606
28.29636 -0.84 2.9 5000040.1606
21.41664 -0.88 2.9 5000028.6944
21.41664 -0.9 2.9 5000028.6944
28.29636 -4.52 2.9 5000040.1606
21.41664 -4.58 2.9 5000028.6944
44.33376 -5.86 2.9 5000066.8896
28.29636 -5.92 2.9 5000040.1606
21.41664 -6.0 2.9 5000028.6944
21.41664 5.58 2.88 5000028.6944
8.665944 5.42 2.88 5000007.44324
8.665944 5.4 2.88 5000007.44324
8.665944 5.38 2.88 5000007.44324
8.665944 4.96 2.88 5000007.44324
9.941628000000001 4.94 2.88 5000009.56938
9.023147999999999 4.82 2.88 5000008.03858
9.023147999999999 4.8 2.88 5000008.03858
9.023147999999999 4.78 2.88 5000008.03858
9.023147999999999 4.74 2.88 5000008.03858
21.41664 3.5 2.88 5000028.6944
44.33376 2.64 2.88 5000066.8896
21.41664 2.54 2.88 5000028.6944
17.592840000000002 2.48 2.88 5000022.3214
13.4736 2.38 2.88 5000015.456
21.41664 1.92 2.88 5000028.6944
21.41664 1.9 2.88 5000028.6944
21.41664 1.12 2.88 5000028.6944
21.41664 1.1 2.88 5000028.6944
12.23748 -0.02 2.88 5000013.3958
12.23748 -0.04 2.88 5000013.3958
10.54584 -0.12 2.88 5000010.5764
10.54584 -0.14 2.88 5000010.5764
28.29636 -0.82 2.88 5000040.1606
21.41664 -0.9 2.88 5000028.6944
28.29636 -4.52 2.88 5000040.1606
21.41664 -4.58 2.88 5000028.6944
44.33376 -5.86 2.88 5000066.8896
28.29636 -5.92 2.88 5000040.1606
21.41664 -6.0 2.88 5000028.6944
8.665944 5.42 2.86 5000007.44324
8.665944 5.4 2.86 5000007.44324
9.941628000000001 4.92 2.86 5000009.56938
9.941628000000001 4.9 2.86 5000009.56938
9.023147999999999 4.82 2.86 5000008.03858
9.023147999999999 4.8 2.86 5000008.03858
21.41664 4.64 2.86 5000028.6944
21.41664 4.44 2.86 5000028.6944
21.41664 4.26 2.86 5000028.6944
21.41664 4.24 2.86 5000028.6944
44.33376 4.1 2.86 5000066.8896
28.29636 4.04 2.86 5000040.1606
21.41664 3.7 2.86 5000028.6944
21.41664 3.52 2.86 5000028.6944
21.41664 3.24 2.86 5000028.6944
124.19999999999999 2.7 2.86 5000200.0
21.41664 2.54 2.86 5000028.6944
21.41664 1.92 2.86 5000028.6944
21.41664 1.9 2.86 5000028.6944
21.41664 1.12 2.86 5000028.6944
21.41664 1.1 2.86 5000028.6944
12.23748 -0.02 2.86 5000013.3958
12.23748 -0.04 2.86 5000013.3958
10.54584 -0.14 2.86 5000010.5764
21.41664 -0.9 2.86 5000028.6944
21.41664 -2.84 2.86 5000028.6944
21.41664 -2.86 2.86 5000028.6944
28.29636 -4.52 2.86 5000040.1606
21.41664 -4.58 2.86 5000028.6944
124.19999999999999 -5.8 2.86 5000200.0
44.33376 -5.86 2.86 5000066.8896
28.29636 -5.92 2.86 5000040.1606
8.665944 5.42 2.84 5000007.44324
8.665944 5.4 2.84 5000007.44324
9.023147999999999 4.84 2.84 5000008.03858
9.023147999999999 4.82 2.84 5000008.03858
9.023147999999999 4.8 2.84 5000008.03858
21.41664 4.66 2.84 5000028.6944
17.592840000000002 4.6 2.84 5000022.3214
21.41664 4.44 2.84 5000028.6944
21.41664 4.26 2.84 5000028.6944
21.41664 4.24 2.84 5000028.6944
21.41664 3.78 2.84 5000028.6944
21.41664 3.7 2.84 5000028.6944
21.41664 3.68 2.84 5000028.6944
21.41664 3.44 2.84 5000028.6944
28.29636 3.24 2.84 5000040.1606
28.29636 3.22 2.84 5000040.1606
28.29636 3.2 2.84 5000040.1606
28.29636 2.58 2.84 5000040.1606
28.29636 2.54 2.84 5000040.1606
21.41664 1.92 2.84 5000028.6944
21.41664 1.12 2.84 5000028.6944
21.41664 1.1 2.84 5000028.6944
12.23748 -0.02 2.84 5000013.3958
12.23748 -0.04 2.84 5000013.3958
10.54584 -0.12 2.84 5000010.5764
10.54584 -0.14 2.84 5000010.5764
21.41664 -0.9 2.84 5000028.6944
21.41664 -2.84 2.84 5000028.6944
21.41664 -3.12 2.84 5000028.6944
28.29636 -4.52 2.84 5000040.1606
21.41664 -4.58 2.84 5000028.6944
124.19999999999999 -5.8 2.84 5000200.0
44.33376 -5.86 2.84 5000066.8896
28.29636 -5.92 2.84 5000040.1606
8.665944 5.44 2.82 5000007.44324
8.665944 5.42 2.82 5000007.44324
9.023147999999999 4.84 2.82 5000008.03858
9.023147999999999 4.82 2.82 5000008.03858
17.592840000000002 4.6 2.82 5000022.3214
21.41664 4.28 2.82 5000028.6944
21.41664 4.26 2.82 5000028.6944
28.29636 4.06 2.82 5000040.1606
28.29636 4.04 2.82 5000040.1606
21.41664 4.0 2.82 5000028.6944
21.41664 3.98 2.82 5000028.6944
21.41664 3.78 2.82 5000028.6944
21.41664 3.46 2.82 5000028.6944
28.29636 2.92 2.82 5000040.1606
44.33376 2.6 2.82 5000066.8896
44.33376 2.58 2.82 5000066.8896
15.15888 2.36 2.82 5000018.2648
28.29636 2.28 2.82 5000040.1606
28.29636 2.12 2.82 5000040.1606
21.41664 1.92 2.82 5000028.6944
21.41664 1.9 2.82 5000028.6944
17.592840000000002 1.84 2.82 5000022.3214
21.41664 1.12 2.82 5000028.6944
21.41664 1.1 2.82 5000028.6944
12.23748 -0.02 2.82 5000013.3958
12.23748 -0.04 2.82 5000013.3958
10.54584 -0.14 2.82 5000010.5764
21.41664 -0.9 2.82 5000028.6944
12.23748 -2.66 2.82 5000013.3958
21.41664 -2.84 2.82 5000028.6944
21.41664 -3.12 2.82 5000028.6944
28.29636 -4.52 2.82 5000040.1606
21.41664 -4.58 2.82 5000028.6944
124.19999999999999 -5.8 2.82 5000200.0
44.33376 -5.86 2.82 5000066.8896
28.29636 -5.92 2.82 5000040.1606
8.665944 5.42 2.8 5000007.44324
8.665944 5.4 2.8 5000007.44324
9.023147999999999 4.86 2.8 5000008.03858
9.023147999999999 4.84 2.8 5000008.03858
17.592840000000002 4.6 2.8 5000022.3214
17.592840000000002 4.58 2.8 5000022.3214
21.41664 4.04 2.8 5000028.6944
21.41664 3.98 2.8 5000028.6944
21.41664 3.92 2.8 5000028.6944
21.41664 3.8 2.8 5000028.6944
21.41664 3.46 2.8 5000028.6944
28.29636 2.96 2.8 5000040.1606
44.33376 2.64 2.8 5000066.8896
44.33376 2.6 2.8 5000066.8896
44.33376 2.58 2.8 5000066.8896
15.15888 2.38 2.8 5000018.2648
28.29636 2.12 2.8 5000040.1606
28.29636 1.92 2.8 5000040.1606
28.29636 1.9 2.8 5000040.1606
21.41664 1.12 2.8 5000028.6944
21.41664 1.1 2.8 5000028.6944
12.23748 -0.02 2.8 5000013.3958
12.23748 -0.04 2.8 5000013.3958
10.54584 -0.14 2.8 5000010.5764
21.41664 -0.9 2.8 5000028.6944
12.23748 -2.66 2.8 5000013.3958
21.41664 -3.08 2.8 5000028.6944
21.41664 -3.12 2.8 5000028.6944
21.41664 -4.58 2.8 5000028.6944
124.19999999999999 -5.8 2.8 5000200.0
44.33376 -5.86 2.8 5000066.8896
28.29636 -5.92 2.8 5000040.1606
8.665944 5.42 2.78 5000007.44324
8.665944 5.4 2.78 5000007.44324
21.41664 5.3 2.78 5000028.6944
9.023147999999999 4.86 2.78 5000008.03858
17.592840000000002 4.62 2.78 5000022.3214
21.41664 4.4 2.78 5000028.6944
21.41664 3.96 2.78 5000028.6944
21.41664 3.92 2.78 5000028.6944
21.41664 3.9 2.78 5000028.6944
21.41664 3.82 2.78 5000028.6944
21.41664 3.72 2.78 5000028.6944
21.41664 3.6 2.78 5000028.6944
21.41664 2.86 2.78 5000028.6944
21.41664 2.84 2.78 5000028.6944
21.41664 2.68 2.78 5000028.6944
44.33376 2.62 2.78 5000066.8896
44.33376 2.6 2.78 5000066.8896
44.33376 2.58 2.78 5000066.8896
28.29636 2.12 2.78 5000040.1606
28.29636 1.92 2.78 5000040.1606
11.29218 1.54 2.78 5000011.8203
21.41664 1.12 2.78 5000028.6944
21.41664 1.1 2.78 5000028.6944
12.23748 -0.02 2.78 5000013.3958
12.23748 -0.04 2.78 5000013.3958
10.54584 -0.14 2.78 5000010.5764
21.41664 -0.9 2.78 5000028.6944
12.23748 -2.66 2.78 5000013.3958
21.41664 -3.08 2.78 5000028.6944
21.41664 -3.12 2.78 5000028.6944
21.41664 -4.54 2.78 5000028.6944
21.41664 -4.58 2.78 5000028.6944
44.33376 -5.86 2.78 5000066.8896
28.29636 -5.92 2.78 5000040.1606
8.665944 5.42 2.76 5000007.44324
8.665944 5.4 2.76 5000007.44324
8.665944 5.1 2.76 5000007.44324
9.023147999999999 4.86 2.76 5000008.03858
17.592840000000002 4.74 2.76 5000022.3214
17.592840000000002 4.72 2.76 5000022.3214
17.592840000000002 4.7 2.76 5000022.3214
21.41664 4.62 2.76 5000028.6944
21.41664 4.2 2.76 5000028.6944
21.41664 4.02 2.76 5000028.6944
21.41664 3.96 2.76 5000028.6944
21.41664 3.82 2.76 5000028.6944
21.41664 3.8 2.76 5000028.6944
21.41664 3.72 2.76 5000028.6944
21.41664 3.6 2.76 5000028.6944
21.41664 3.3 2.76 5000028.6944
21.41664 3.26 2.76 5000028.6944
21.41664 3.24 2.76 5000028.6944
21.41664 2.86 2.76 5000028.6944
21.41664 2.84 2.76 5000028.6944
21.41664 2.68 2.76 5000028.6944
44.33376 2.62 2.76 5000066.8896
44.33376 2.6 2.76 5000066.8896
28.29636 1.92 2.76 5000040.1606
11.29218 1.54 2.76 5000011.8203
12.23748 1.18 2.76 5000013.3958
21.41664 1.12 2.76 5000028.6944
21.41664 1.1 2.76 5000028.6944
12.23748 -0.02 2.76 5000013.3958
12.23748 -0.04 2.76 5000013.3958
10.54584 -0.14 2.76 5000010.5764
21.41664 -0.9 2.76 5000028.6944
21.41664 -2.36 2.76 5000028.6944
21.41664 -2.38 2.76 5000028.6944
13.4736 -2.6 2.76 5000015.456
12.23748 -2.66 2.76 5000013.3958
13.4736 -2.86 2.76 5000015.456
21.41664 -3.12 2.76 5000028.6944
21.41664 -4.58 2.76 5000028.6944
124.19999999999999 -5.8 2.76 5000200.0
44.33376 -5.86 2.76 5000066.8896
28.29636 -5.92 2.76 5000040.1606
21.41664 -6.0 2.76 5000028.6944
8.665944 5.42 2.74 5000007.44324
17.592840000000002 5.18 2.74 5000022.3214
8.665944 5.1 2.74 5000007.44324
8.665944 5.08 2.74 5000007.44324
9.023147999999999 4.88 2.74 5000008.03858
17.592840000000002 4.72 2.74 5000022.3214
17.592840000000002 4.7 2.74 5000022.3214
21.41664 3.96 2.74 5000028.6944
21.41664 3.8 2.74 5000028.6944
21.41664 3.64 2.74 5000028.6944
21.41664 3.58 2.74 5000028.6944
21.41664 3.3 2.74 5000028.6944
21.41664 3.28 2.74 5000028.6944
21.41664 3.26 2.74 5000028.6944
21.41664 2.86 2.74 5000028.6944
21.41664 2.84 2.74 5000028.6944
44.33376 2.5 2.74 5000066.8896
44.33376 2.46 2.74 5000066.8896
28.29636 2.44 2.74 5000040.1606
28.29636 2.26 2.74 5000040.1606
28.29636 1.92 2.74 5000040.1606
12.23748 1.18 2.74 5000013.3958
21.41664 1.12 2.74 5000028.6944
21.41664 1.1 2.74 5000028.6944
12.23748 -0.02 2.74 5000013.3958
12.23748 -0.04 2.74 5000013.3958
