VERSION .7
FIELDS x y z rgb
SIZE 4 4 4 4
TYPE F F F F
COUNT 1 1 1 1
WIDTH 827
HEIGHT 1
VIEWPOINT 0 0 0 1 0 0 0
POINTS 827
DATA ascii
10.744046666666666 3.066666666666667 2.466666666666667 5000022.3214
10.744046666666666 2.933333333333333 2.466666666666667 5000022.3214
10.744046666666666 0.6666666666666666 2.466666666666667 5000022.3214
10.95648 -0.43333333333333335 2.466666666666667 5000028.6944
10.95648 -0.4666666666666667 2.466666666666667 5000028.6944
10.608826666666667 -0.8333333333333334 2.466666666666667 5000018.2648
10.608826666666667 -0.9 2.466666666666667 5000018.2648
10.608826666666667 -0.9333333333333333 2.466666666666667 5000018.2648
10.5152 -6.1 2.466666666666667 5000015.456
10.352546666666667 -6.333333333333333 2.466666666666667 5000010.5764
10.744046666666666 -7.066666666666666 2.466666666666667 5000022.3214
10.744046666666666 -7.1 2.466666666666667 5000022.3214
10.744046666666666 -10.3 2.466666666666667 5000022.3214
10.744046666666666 -10.333333333333334 2.466666666666667 5000022.3214
16.666666666666668 -11.066666666666666 2.466666666666667 5000200.0
12.229653333333333 -11.1 2.466666666666667 5000066.8896
10.744046666666666 -11.166666666666666 2.466666666666667 5000022.3214
10.744046666666666 -11.233333333333333 2.466666666666667 5000022.3214
10.744046666666666 -11.533333333333333 2.466666666666667 5000022.3214
10.744046666666666 -11.566666666666666 2.466666666666667 5000022.3214
10.744046666666666 -11.6 2.466666666666667 5000022.3214
11.338686666666668 -11.833333333333334 2.466666666666667 5000040.1606
10.95648 -11.933333333333334 2.466666666666667 5000028.6944
10.95648 -11.966666666666667 2.466666666666667 5000028.6944
10.95648 -12.6 2.466666666666667 5000028.6944
10.95648 -12.633333333333333 2.466666666666667 5000028.6944
10.95648 -12.766666666666667 2.466666666666667 5000028.6944
10.608826666666667 -12.866666666666667 2.466666666666667 5000018.2648
10.117536333333334 -13.033333333333333 2.466666666666667 5000003.52609
10.95648 -13.633333333333333 2.466666666666667 5000028.6944
11.338686666666668 -14.033333333333333 2.466666666666667 5000040.1606
11.338686666666668 -14.066666666666666 2.466666666666667 5000040.1606
10.95648 -14.133333333333333 2.466666666666667 5000028.6944
10.744046666666666 -14.266666666666667 2.466666666666667 5000022.3214
10.95648 -14.366666666666667 2.466666666666667 5000028.6944
10.95648 -14.566666666666666 2.466666666666667 5000028.6944
10.95648 -15.333333333333334 2.466666666666667 5000028.6944
10.95648 -15.366666666666667 2.466666666666667 5000028.6944
10.95648 -15.6 2.466666666666667 5000028.6944
10.95648 -15.733333333333333 2.466666666666667 5000028.6944
10.95648 -17.6 2.466666666666667 5000028.6944
10.744046666666666 3.066666666666667 2.433333333333333 5000022.3214
10.744046666666666 2.933333333333333 2.433333333333333 5000022.3214
10.744046666666666 0.6666666666666666 2.433333333333333 5000022.3214
10.95648 -0.43333333333333335 2.433333333333333 5000028.6944
10.95648 -0.4666666666666667 2.433333333333333 5000028.6944
10.95648 -0.5 2.433333333333333 5000028.6944
10.608826666666667 -0.6666666666666666 2.433333333333333 5000018.2648
10.608826666666667 -0.8333333333333334 2.433333333333333 5000018.2648
10.608826666666667 -0.9 2.433333333333333 5000018.2648
10.608826666666667 -0.9333333333333333 2.433333333333333 5000018.2648
10.5152 -6.066666666666666 2.433333333333333 5000015.456
12.229653333333333 -6.166666666666667 2.433333333333333 5000066.8896
10.744046666666666 -6.433333333333334 2.433333333333333 5000022.3214
10.744046666666666 -6.466666666666667 2.433333333333333 5000022.3214
10.203004333333332 -6.8 2.433333333333333 5000006.09013
10.744046666666666 -7.133333333333334 2.433333333333333 5000022.3214
10.744046666666666 -7.166666666666667 2.433333333333333 5000022.3214
12.229653333333333 -7.433333333333334 2.433333333333333 5000066.8896
10.744046666666666 -7.733333333333333 2.433333333333333 5000022.3214
10.744046666666666 -7.766666666666667 2.433333333333333 5000022.3214
10.744046666666666 -7.833333333333333 2.433333333333333 5000022.3214
10.608826666666667 -7.866666666666666 2.433333333333333 5000018.2648
11.338686666666668 -10.066666666666666 2.433333333333333 5000040.1606
11.338686666666668 -10.1 2.433333333333333 5000040.1606
10.744046666666666 -10.3 2.433333333333333 5000022.3214
10.744046666666666 -10.333333333333334 2.433333333333333 5000022.3214
16.666666666666668 -11.066666666666666 2.433333333333333 5000200.0
10.744046666666666 -11.166666666666666 2.433333333333333 5000022.3214
10.744046666666666 -11.2 2.433333333333333 5000022.3214
10.744046666666666 -11.566666666666666 2.433333333333333 5000022.3214
10.744046666666666 -11.6 2.433333333333333 5000022.3214
10.744046666666666 -11.666666666666666 2.433333333333333 5000022.3214
10.608826666666667 -12.066666666666666 2.433333333333333 5000018.2648
10.95648 -12.6 2.433333333333333 5000028.6944
10.95648 -12.766666666666667 2.433333333333333 5000028.6944
10.95648 -12.866666666666667 2.433333333333333 5000028.6944
10.95648 -13.633333333333333 2.433333333333333 5000028.6944
10.744046666666666 -13.766666666666667 2.433333333333333 5000022.3214
10.95648 -14.133333333333333 2.433333333333333 5000028.6944
10.95648 -14.366666666666667 2.433333333333333 5000028.6944
10.95648 -14.566666666666666 2.433333333333333 5000028.6944
10.95648 -15.366666666666667 2.433333333333333 5000028.6944
10.95648 -15.6 2.433333333333333 5000028.6944
10.95648 -15.733333333333333 2.433333333333333 5000028.6944
10.744046666666666 3.066666666666667 2.4 5000022.3214
10.744046666666666 2.933333333333333 2.4 5000022.3214
10.744046666666666 2.1666666666666665 2.4 5000022.3214
10.744046666666666 0.7 2.4 5000022.3214
10.744046666666666 0.3 2.4 5000022.3214
10.95648 -0.4666666666666667 2.4 5000028.6944
10.95648 -0.5 2.4 5000028.6944
10.95648 -0.8 2.4 5000028.6944
10.608826666666667 -0.9 2.4 5000018.2648
10.608826666666667 -0.9333333333333333 2.4 5000018.2648
10.39401 -5.966666666666667 2.4 5000011.8203
10.5152 -6.033333333333333 2.4 5000015.456
10.5152 -6.066666666666666 2.4 5000015.456
12.229653333333333 -6.166666666666667 2.4 5000066.8896
10.744046666666666 -6.466666666666667 2.4 5000022.3214
16.666666666666668 -6.566666666666666 2.4 5000200.0
16.666666666666668 -6.6 2.4 5000200.0
16.666666666666668 -7.3 2.4 5000200.0
10.608826666666667 -7.333333333333333 2.4 5000018.2648
10.744046666666666 -7.666666666666667 2.4 5000022.3214
10.744046666666666 -7.733333333333333 2.4 5000022.3214
10.744046666666666 -7.766666666666667 2.4 5000022.3214
10.744046666666666 -7.833333333333333 2.4 5000022.3214
10.608826666666667 -7.866666666666666 2.4 5000018.2648
10.744046666666666 -8.0 2.4 5000022.3214
11.338686666666668 -10.033333333333333 2.4 5000040.1606
11.338686666666668 -10.066666666666666 2.4 5000040.1606
10.744046666666666 -10.166666666666666 2.4 5000022.3214
12.229653333333333 -11.133333333333333 2.4 5000066.8896
10.744046666666666 -11.166666666666666 2.4 5000022.3214
10.248108 -11.333333333333334 2.4 5000007.44324
10.248108 -11.366666666666667 2.4 5000007.44324
10.744046666666666 -11.666666666666666 2.4 5000022.3214
10.95648 -12.766666666666667 2.4 5000028.6944
10.95648 -12.8 2.4 5000028.6944
10.95648 -13.6 2.4 5000028.6944
10.95648 -13.633333333333333 2.4 5000028.6944
10.95648 -14.366666666666667 2.4 5000028.6944
10.95648 -14.566666666666666 2.4 5000028.6944
10.95648 -15.366666666666667 2.4 5000028.6944
10.95648 -15.6 2.4 5000028.6944
10.744046666666666 3.066666666666667 2.3666666666666667 5000022.3214
10.744046666666666 2.933333333333333 2.3666666666666667 5000022.3214
10.95648 -0.43333333333333335 2.3666666666666667 5000028.6944
10.95648 -0.4666666666666667 2.3666666666666667 5000028.6944
10.95648 -0.8 2.3666666666666667 5000028.6944
10.608826666666667 -0.9 2.3666666666666667 5000018.2648
10.608826666666667 -0.9333333333333333 2.3666666666666667 5000018.2648
10.39401 -5.966666666666667 2.3666666666666667 5000011.8203
10.5152 -6.033333333333333 2.3666666666666667 5000015.456
12.229653333333333 -6.166666666666667 2.3666666666666667 5000066.8896
10.744046666666666 -6.466666666666667 2.3666666666666667 5000022.3214
10.744046666666666 -6.5 2.3666666666666667 5000022.3214
16.666666666666668 -6.6 2.3666666666666667 5000200.0
11.338686666666668 -6.966666666666667 2.3666666666666667 5000040.1606
10.95648 -7.0 2.3666666666666667 5000028.6944
10.744046666666666 -7.066666666666666 2.3666666666666667 5000022.3214
10.744046666666666 -7.166666666666667 2.3666666666666667 5000022.3214
11.338686666666668 -7.266666666666667 2.3666666666666667 5000040.1606
16.666666666666668 -7.566666666666666 2.3666666666666667 5000200.0
10.744046666666666 -7.666666666666667 2.3666666666666667 5000022.3214
10.744046666666666 -7.966666666666667 2.3666666666666667 5000022.3214
10.744046666666666 -8.0 2.3666666666666667 5000022.3214
16.666666666666668 -8.233333333333333 2.3666666666666667 5000200.0
10.744046666666666 -8.833333333333334 2.3666666666666667 5000022.3214
10.744046666666666 -10.233333333333333 2.3666666666666667 5000022.3214
10.744046666666666 -11.933333333333334 2.3666666666666667 5000022.3214
10.95648 -12.433333333333334 2.3666666666666667 5000028.6944
10.95648 -12.466666666666667 2.3666666666666667 5000028.6944
10.95648 -12.8 2.3666666666666667 5000028.6944
10.95648 -13.6 2.3666666666666667 5000028.6944
10.95648 -14.0 2.3666666666666667 5000028.6944
11.338686666666668 -14.266666666666667 2.3666666666666667 5000040.1606
10.95648 -14.366666666666667 2.3666666666666667 5000028.6944
10.95648 -14.566666666666666 2.3666666666666667 5000028.6944
10.95648 -15.366666666666667 2.3666666666666667 5000028.6944
10.744046666666666 3.066666666666667 2.3333333333333335 5000022.3214
10.744046666666666 2.933333333333333 2.3333333333333335 5000022.3214
10.95648 -0.4666666666666667 2.3333333333333335 5000028.6944
11.338686666666668 -0.6333333333333333 2.3333333333333335 5000040.1606
11.338686666666668 -0.6666666666666666 2.3333333333333335 5000040.1606
10.608826666666667 -0.9 2.3333333333333335 5000018.2648
10.608826666666667 -0.9333333333333333 2.3333333333333335 5000018.2648
10.39401 -5.933333333333334 2.3333333333333335 5000011.8203
10.39401 -5.966666666666667 2.3333333333333335 5000011.8203
10.5152 -6.033333333333333 2.3333333333333335 5000015.456
10.744046666666666 -6.1 2.3333333333333335 5000022.3214
12.229653333333333 -6.133333333333334 2.3333333333333335 5000066.8896
11.338686666666668 -6.266666666666667 2.3333333333333335 5000040.1606
10.318979333333333 -6.366666666666666 2.3333333333333335 5000009.56938
10.744046666666666 -6.5 2.3333333333333335 5000022.3214
16.666666666666668 -6.6 2.3333333333333335 5000200.0
11.338686666666668 -6.966666666666667 2.3333333333333335 5000040.1606
10.95648 -7.066666666666666 2.3333333333333335 5000028.6944
10.744046666666666 -7.133333333333334 2.3333333333333335 5000022.3214
10.744046666666666 -7.166666666666667 2.3333333333333335 5000022.3214
11.338686666666668 -7.266666666666667 2.3333333333333335 5000040.1606
10.5152 -7.4 2.3333333333333335 5000015.456
10.744046666666666 -7.966666666666667 2.3333333333333335 5000022.3214
16.666666666666668 -8.166666666666666 2.3333333333333335 5000200.0
16.666666666666668 -8.233333333333333 2.3333333333333335 5000200.0
11.338686666666668 -8.6 2.3333333333333335 5000040.1606
10.95648 -8.666666666666666 2.3333333333333335 5000028.6944
10.95648 -8.7 2.3333333333333335 5000028.6944
10.744046666666666 -8.8 2.3333333333333335 5000022.3214
10.744046666666666 -8.833333333333334 2.3333333333333335 5000022.3214
10.744046666666666 -9.766666666666667 2.3333333333333335 5000022.3214
10.744046666666666 -10.233333333333333 2.3333333333333335 5000022.3214
10.744046666666666 -10.266666666666667 2.3333333333333335 5000022.3214
10.744046666666666 -10.333333333333334 2.3333333333333335 5000022.3214
10.95648 -11.833333333333334 2.3333333333333335 5000028.6944
10.744046666666666 -11.933333333333334 2.3333333333333335 5000022.3214
10.95648 -12.433333333333334 2.3333333333333335 5000028.6944
10.446526666666667 -12.933333333333334 2.3333333333333335 5000013.3958
10.95648 -13.7 2.3333333333333335 5000028.6944
10.95648 -13.733333333333333 2.3333333333333335 5000028.6944
10.95648 -14.366666666666667 2.3333333333333335 5000028.6944
10.95648 -14.566666666666666 2.3333333333333335 5000028.6944
10.95648 -14.933333333333334 2.3333333333333335 5000028.6944
10.95648 -15.366666666666667 2.3333333333333335 5000028.6944
10.95648 -15.633333333333333 2.3333333333333335 5000028.6944
10.744046666666666 3.066666666666667 2.3 5000022.3214
10.744046666666666 2.933333333333333 2.3 5000022.3214
10.744046666666666 1.0666666666666667 2.3 5000022.3214
10.744046666666666 -0.4666666666666667 2.3 5000022.3214
10.95648 -0.8 2.3 5000028.6944
10.608826666666667 -0.9 2.3 5000018.2648
10.608826666666667 -0.9333333333333333 2.3 5000018.2648
10.608826666666667 -1.4666666666666666 2.3 5000018.2648
10.608826666666667 -1.5 2.3 5000018.2648
12.229653333333333 -5.733333333333333 2.3 5000066.8896
10.39401 -5.933333333333334 2.3 5000011.8203
12.229653333333333 -6.266666666666667 2.3 5000066.8896
10.744046666666666 -6.5 2.3 5000022.3214
16.666666666666668 -6.6 2.3 5000200.0
11.338686666666668 -6.966666666666667 2.3 5000040.1606
10.744046666666666 -7.166666666666667 2.3 5000022.3214
10.744046666666666 -7.2 2.3 5000022.3214
10.5152 -7.366666666666666 2.3 5000015.456
10.5152 -7.4 2.3 5000015.456
10.744046666666666 -8.1 2.3 5000022.3214
10.744046666666666 -8.133333333333333 2.3 5000022.3214
12.229653333333333 -8.466666666666667 2.3 5000066.8896
12.229653333333333 -8.5 2.3 5000066.8896
11.338686666666668 -8.6 2.3 5000040.1606
10.95648 -8.7 2.3 5000028.6944
10.744046666666666 -8.8 2.3 5000022.3214
10.744046666666666 -8.833333333333334 2.3 5000022.3214
10.39401 -9.4 2.3 5000011.8203
10.352546666666667 -9.5 2.3 5000010.5764
10.95648 -9.666666666666666 2.3 5000028.6944
10.744046666666666 -9.766666666666667 2.3 5000022.3214
10.744046666666666 -10.233333333333333 2.3 5000022.3214
10.744046666666666 -10.266666666666667 2.3 5000022.3214
10.744046666666666 -10.333333333333334 2.3 5000022.3214
10.744046666666666 -11.2 2.3 5000022.3214
10.95648 -11.833333333333334 2.3 5000028.6944
10.744046666666666 -11.9 2.3 5000022.3214
10.744046666666666 -11.933333333333334 2.3 5000022.3214
10.95648 -12.4 2.3 5000028.6944
10.95648 -12.433333333333334 2.3 5000028.6944
10.95648 -12.533333333333333 2.3 5000028.6944
10.95648 -13.666666666666666 2.3 5000028.6944
10.95648 -13.7 2.3 5000028.6944
10.744046666666666 -13.833333333333334 2.3 5000022.3214
10.95648 -14.0 2.3 5000028.6944
10.95648 -14.033333333333333 2.3 5000028.6944
10.744046666666666 -14.166666666666666 2.3 5000022.3214
10.95648 -14.366666666666667 2.3 5000028.6944
10.95648 -14.566666666666666 2.3 5000028.6944
10.95648 -14.933333333333334 2.3 5000028.6944
10.95648 -15.633333333333333 2.3 5000028.6944
10.95648 -15.833333333333334 2.3 5000028.6944
10.744046666666666 3.066666666666667 2.2666666666666666 5000022.3214
10.744046666666666 2.933333333333333 2.2666666666666666 5000022.3214
10.744046666666666 2.033333333333333 2.2666666666666666 5000022.3214
10.95648 -0.43333333333333335 2.2666666666666666 5000028.6944
10.95648 -0.4666666666666667 2.2666666666666666 5000028.6944
10.608826666666667 -1.4666666666666666 2.2666666666666666 5000018.2648
10.608826666666667 -1.5 2.2666666666666666 5000018.2648
10.608826666666667 -1.5333333333333334 2.2666666666666666 5000018.2648
10.744046666666666 -5.533333333333333 2.2666666666666666 5000022.3214
10.95648 -5.566666666666666 2.2666666666666666 5000028.6944
12.229653333333333 -6.233333333333333 2.2666666666666666 5000066.8896
10.744046666666666 -6.5 2.2666666666666666 5000022.3214
10.5152 -7.4 2.2666666666666666 5000015.456
16.666666666666668 -7.5 2.2666666666666666 5000200.0
10.744046666666666 -7.933333333333334 2.2666666666666666 5000022.3214
10.744046666666666 -7.966666666666667 2.2666666666666666 5000022.3214
10.744046666666666 -8.066666666666666 2.2666666666666666 5000022.3214
10.744046666666666 -8.1 2.2666666666666666 5000022.3214
12.229653333333333 -8.5 2.2666666666666666 5000066.8896
10.744046666666666 -8.8 2.2666666666666666 5000022.3214
10.744046666666666 -8.9 2.2666666666666666 5000022.3214
10.608826666666667 -8.966666666666667 2.2666666666666666 5000018.2648
10.5152 -9.0 2.2666666666666666 5000015.456
10.39401 -9.4 2.2666666666666666 5000011.8203
10.318979333333333 -9.5 2.2666666666666666 5000009.56938
10.267952666666666 -9.8 2.2666666666666666 5000008.03858
10.744046666666666 -11.166666666666666 2.2666666666666666 5000022.3214
10.744046666666666 -11.9 2.2666666666666666 5000022.3214
10.744046666666666 -11.933333333333334 2.2666666666666666 5000022.3214
10.95648 -12.466666666666667 2.2666666666666666 5000028.6944
10.744046666666666 -12.6 2.2666666666666666 5000022.3214
10.95648 -13.666666666666666 2.2666666666666666 5000028.6944
10.95648 -13.7 2.2666666666666666 5000028.6944
10.95648 -14.033333333333333 2.2666666666666666 5000028.6944
10.744046666666666 -14.166666666666666 2.2666666666666666 5000022.3214
10.95648 -14.366666666666667 2.2666666666666666 5000028.6944
10.95648 -14.4 2.2666666666666666 5000028.6944
10.95648 -14.566666666666666 2.2666666666666666 5000028.6944
10.608826666666667 -14.666666666666666 2.2666666666666666 5000018.2648
10.95648 -14.933333333333334 2.2666666666666666 5000028.6944
10.95648 -15.833333333333334 2.2666666666666666 5000028.6944
10.744046666666666 3.066666666666667 2.2333333333333334 5000022.3214
10.744046666666666 2.933333333333333 2.2333333333333334 5000022.3214
10.744046666666666 -0.06666666666666667 2.2333333333333334 5000022.3214
10.95648 -0.4666666666666667 2.2333333333333334 5000028.6944
10.95648 -0.5 2.2333333333333334 5000028.6944
10.608826666666667 -1.5 2.2333333333333334 5000018.2648
10.608826666666667 -1.5333333333333334 2.2333333333333334 5000018.2648
10.608826666666667 -1.5666666666666667 2.2333333333333334 5000018.2648
12.229653333333333 -1.8 2.2333333333333334 5000066.8896
12.229653333333333 -1.8333333333333333 2.2333333333333334 5000066.8896
12.229653333333333 -1.8666666666666667 2.2333333333333334 5000066.8896
10.744046666666666 -5.466666666666667 2.2333333333333334 5000022.3214
10.744046666666666 -5.5 2.2333333333333334 5000022.3214
10.744046666666666 -5.533333333333333 2.2333333333333334 5000022.3214
10.95648 -5.566666666666666 2.2333333333333334 5000028.6944
10.95648 -5.633333333333334 2.2333333333333334 5000028.6944
10.352546666666667 -6.066666666666666 2.2333333333333334 5000010.5764
10.446526666666667 -6.133333333333334 2.2333333333333334 5000013.3958
12.229653333333333 -6.2 2.2333333333333334 5000066.8896
10.352546666666667 -6.366666666666666 2.2333333333333334 5000010.5764
10.744046666666666 -6.5 2.2333333333333334 5000022.3214
16.666666666666668 -6.633333333333334 2.2333333333333334 5000200.0
10.744046666666666 -7.066666666666666 2.2333333333333334 5000022.3214
16.666666666666668 -7.5 2.2333333333333334 5000200.0
11.338686666666668 -7.666666666666667 2.2333333333333334 5000040.1606
10.95648 -7.9 2.2333333333333334 5000028.6944
10.95648 -7.933333333333334 2.2333333333333334 5000028.6944
10.744046666666666 -8.066666666666666 2.2333333333333334 5000022.3214
11.338686666666668 -8.533333333333333 2.2333333333333334 5000040.1606
10.744046666666666 -8.766666666666667 2.2333333333333334 5000022.3214
10.744046666666666 -8.8 2.2333333333333334 5000022.3214
10.608826666666667 -8.9 2.2333333333333334 5000018.2648
10.5152 -9.0 2.2333333333333334 5000015.456
10.39401 -9.433333333333334 2.2333333333333334 5000011.8203
10.318979333333333 -9.5 2.2333333333333334 5000009.56938
10.352546666666667 -9.533333333333333 2.2333333333333334 5000010.5764
10.267952666666666 -9.833333333333334 2.2333333333333334 5000008.03858
10.744046666666666 -11.3 2.2333333333333334 5000022.3214
10.744046666666666 -11.833333333333334 2.2333333333333334 5000022.3214
10.744046666666666 -11.9 2.2333333333333334 5000022.3214
10.95648 -13.633333333333333 2.2333333333333334 5000028.6944
10.95648 -13.666666666666666 2.2333333333333334 5000028.6944
10.95648 -13.733333333333333 2.2333333333333334 5000028.6944
10.608826666666667 -13.9 2.2333333333333334 5000018.2648
10.608826666666667 -13.933333333333334 2.2333333333333334 5000018.2648
10.95648 -14.033333333333333 2.2333333333333334 5000028.6944
10.95648 -14.4 2.2333333333333334 5000028.6944
10.95648 -14.933333333333334 2.2333333333333334 5000028.6944
10.95648 -15.966666666666667 2.2333333333333334 5000028.6944
10.744046666666666 3.066666666666667 2.2 5000022.3214
10.744046666666666 2.933333333333333 2.2 5000022.3214
10.744046666666666 2.0 2.2 5000022.3214
10.95648 -0.4666666666666667 2.2 5000028.6944
10.95648 -0.5 2.2 5000028.6944
10.608826666666667 -1.5333333333333334 2.2 5000018.2648
10.608826666666667 -1.5666666666666667 2.2 5000018.2648
11.338686666666668 -1.7333333333333334 2.2 5000040.1606
12.229653333333333 -1.7666666666666666 2.2 5000066.8896
10.608826666666667 -2.0 2.2 5000018.2648
10.608826666666667 -2.033333333333333 2.2 5000018.2648
10.608826666666667 -2.066666666666667 2.2 5000018.2648
10.744046666666666 -5.466666666666667 2.2 5000022.3214
10.744046666666666 -5.533333333333333 2.2 5000022.3214
10.352546666666667 -6.033333333333333 2.2 5000010.5764
10.352546666666667 -6.066666666666666 2.2 5000010.5764
12.229653333333333 -6.2 2.2 5000066.8896
10.744046666666666 -6.5 2.2 5000022.3214
10.744046666666666 -6.533333333333333 2.2 5000022.3214
16.666666666666668 -6.633333333333334 2.2 5000200.0
10.744046666666666 -7.066666666666666 2.2 5000022.3214
10.744046666666666 -8.033333333333333 2.2 5000022.3214
10.744046666666666 -8.233333333333333 2.2 5000022.3214
11.338686666666668 -8.333333333333334 2.2 5000040.1606
11.338686666666668 -8.366666666666667 2.2 5000040.1606
11.338686666666668 -8.533333333333333 2.2 5000040.1606
11.338686666666668 -8.566666666666666 2.2 5000040.1606
10.744046666666666 -8.766666666666667 2.2 5000022.3214
10.744046666666666 -8.8 2.2 5000022.3214
10.608826666666667 -8.9 2.2 5000018.2648
10.5152 -9.0 2.2 5000015.456
10.352546666666667 -9.433333333333334 2.2 5000010.5764
10.352546666666667 -9.533333333333333 2.2 5000010.5764
10.248108 -9.866666666666667 2.2 5000007.44324
11.338686666666668 -10.066666666666666 2.2 5000040.1606
10.744046666666666 -10.233333333333333 2.2 5000022.3214
10.744046666666666 -10.266666666666667 2.2 5000022.3214
11.338686666666668 -11.0 2.2 5000040.1606
11.338686666666668 -11.033333333333333 2.2 5000040.1606
10.744046666666666 -11.266666666666667 2.2 5000022.3214
10.446526666666667 -11.633333333333333 2.2 5000013.3958
10.95648 -11.833333333333334 2.2 5000028.6944
10.744046666666666 -11.9 2.2 5000022.3214
10.95648 -13.533333333333333 2.2 5000028.6944
10.95648 -13.6 2.2 5000028.6944
10.95648 -13.633333333333333 2.2 5000028.6944
10.95648 -13.666666666666666 2.2 5000028.6944
10.95648 -13.733333333333333 2.2 5000028.6944
10.608826666666667 -13.933333333333334 2.2 5000018.2648
10.95648 -14.4 2.2 5000028.6944
10.95648 -14.933333333333334 2.2 5000028.6944
10.744046666666666 3.066666666666667 2.1666666666666665 5000022.3214
10.744046666666666 2.933333333333333 2.1666666666666665 5000022.3214
10.744046666666666 2.0 2.1666666666666665 5000022.3214
10.744046666666666 1.3333333333333333 2.1666666666666665 5000022.3214
10.744046666666666 1.0333333333333334 2.1666666666666665 5000022.3214
10.744046666666666 1.0 2.1666666666666665 5000022.3214
10.744046666666666 -0.16666666666666666 2.1666666666666665 5000022.3214
10.744046666666666 -0.23333333333333334 2.1666666666666665 5000022.3214
10.608826666666667 -2.033333333333333 2.1666666666666665 5000018.2648
10.608826666666667 -2.066666666666667 2.1666666666666665 5000018.2648
10.608826666666667 -2.1 2.1666666666666665 5000018.2648
10.608826666666667 -2.1333333333333333 2.1666666666666665 5000018.2648
10.744046666666666 -5.433333333333334 2.1666666666666665 5000022.3214
10.744046666666666 -5.466666666666667 2.1666666666666665 5000022.3214
10.352546666666667 -6.066666666666666 2.1666666666666665 5000010.5764
12.229653333333333 -6.2 2.1666666666666665 5000066.8896
12.229653333333333 -6.233333333333333 2.1666666666666665 5000066.8896
10.744046666666666 -6.5 2.1666666666666665 5000022.3214
10.744046666666666 -6.533333333333333 2.1666666666666665 5000022.3214
16.666666666666668 -6.633333333333334 2.1666666666666665 5000200.0
10.744046666666666 -7.066666666666666 2.1666666666666665 5000022.3214
10.95648 -7.866666666666666 2.1666666666666665 5000028.6944
10.95648 -8.033333333333333 2.1666666666666665 5000028.6944
10.744046666666666 -8.166666666666666 2.1666666666666665 5000022.3214
10.744046666666666 -8.2 2.1666666666666665 5000022.3214
11.338686666666668 -8.4 2.1666666666666665 5000040.1606
10.95648 -8.633333333333333 2.1666666666666665 5000028.6944
10.95648 -8.666666666666666 2.1666666666666665 5000028.6944
10.744046666666666 -8.766666666666667 2.1666666666666665 5000022.3214
10.608826666666667 -8.9 2.1666666666666665 5000018.2648
10.608826666666667 -8.933333333333334 2.1666666666666665 5000018.2648
10.248108 -9.733333333333333 2.1666666666666665 5000007.44324
10.744046666666666 -10.233333333333333 2.1666666666666665 5000022.3214
10.744046666666666 -10.266666666666667 2.1666666666666665 5000022.3214
11.338686666666668 -10.966666666666667 2.1666666666666665 5000040.1606
11.338686666666668 -11.0 2.1666666666666665 5000040.1606
10.608826666666667 -11.133333333333333 2.1666666666666665 5000018.2648
10.744046666666666 -11.233333333333333 2.1666666666666665 5000022.3214
10.5152 -11.5 2.1666666666666665 5000015.456
10.446526666666667 -11.633333333333333 2.1666666666666665 5000013.3958
10.95648 -11.833333333333334 2.1666666666666665 5000028.6944
10.95648 -11.9 2.1666666666666665 5000028.6944
10.95648 -12.366666666666667 2.1666666666666665 5000028.6944
10.95648 -13.533333333333333 2.1666666666666665 5000028.6944
10.95648 -13.6 2.1666666666666665 5000028.6944
10.95648 -13.633333333333333 2.1666666666666665 5000028.6944
10.95648 -14.4 2.1666666666666665 5000028.6944
10.744046666666666 3.066666666666667 2.1333333333333333 5000022.3214
10.744046666666666 2.933333333333333 2.1333333333333333 5000022.3214
10.744046666666666 2.0 2.1333333333333333 5000022.3214
10.744046666666666 1.1 2.1333333333333333 5000022.3214
10.744046666666666 1.0333333333333334 2.1333333333333333 5000022.3214
10.744046666666666 0.06666666666666667 2.1333333333333333 5000022.3214
10.744046666666666 -0.1 2.1333333333333333 5000022.3214
10.744046666666666 -0.13333333333333333 2.1333333333333333 5000022.3214
10.744046666666666 -0.2 2.1333333333333333 5000022.3214
10.744046666666666 -0.23333333333333334 2.1333333333333333 5000022.3214
10.744046666666666 -0.26666666666666666 2.1333333333333333 5000022.3214
11.338686666666668 -0.36666666666666664 2.1333333333333333 5000040.1606
10.608826666666667 -1.5 2.1333333333333333 5000018.2648
10.608826666666667 -2.066666666666667 2.1333333333333333 5000018.2648
10.608826666666667 -2.1 2.1333333333333333 5000018.2648
10.608826666666667 -2.1333333333333333 2.1333333333333333 5000018.2648
11.338686666666668 -5.233333333333333 2.1333333333333333 5000040.1606
11.338686666666668 -5.266666666666667 2.1333333333333333 5000040.1606
10.744046666666666 -5.433333333333334 2.1333333333333333 5000022.3214
10.352546666666667 -6.066666666666666 2.1333333333333333 5000010.5764
12.229653333333333 -6.2 2.1333333333333333 5000066.8896
12.229653333333333 -6.233333333333333 2.1333333333333333 5000066.8896
10.744046666666666 -6.5 2.1333333333333333 5000022.3214
10.744046666666666 -6.533333333333333 2.1333333333333333 5000022.3214
16.666666666666668 -7.433333333333334 2.1333333333333333 5000200.0
16.666666666666668 -7.533333333333333 2.1333333333333333 5000200.0
16.666666666666668 -7.566666666666666 2.1333333333333333 5000200.0
10.95648 -8.0 2.1333333333333333 5000028.6944
10.95648 -8.033333333333333 2.1333333333333333 5000028.6944
10.744046666666666 -8.133333333333333 2.1333333333333333 5000022.3214
10.744046666666666 -8.166666666666666 2.1333333333333333 5000022.3214
12.229653333333333 -8.366666666666667 2.1333333333333333 5000066.8896
12.229653333333333 -8.4 2.1333333333333333 5000066.8896
10.95648 -8.633333333333333 2.1333333333333333 5000028.6944
10.95648 -8.666666666666666 2.1333333333333333 5000028.6944
10.608826666666667 -8.9 2.1333333333333333 5000018.2648
11.338686666666668 -9.166666666666666 2.1333333333333333 5000040.1606
10.248108 -9.733333333333333 2.1333333333333333 5000007.44324
10.744046666666666 -10.2 2.1333333333333333 5000022.3214
10.744046666666666 -10.233333333333333 2.1333333333333333 5000022.3214
10.744046666666666 -11.233333333333333 2.1333333333333333 5000022.3214
10.95648 -11.8 2.1333333333333333 5000028.6944
10.95648 -11.833333333333334 2.1333333333333333 5000028.6944
10.95648 -12.3 2.1333333333333333 5000028.6944
10.95648 -13.6 2.1333333333333333 5000028.6944
10.95648 -13.633333333333333 2.1333333333333333 5000028.6944
10.95648 -15.166666666666666 2.1333333333333333 5000028.6944
10.95648 -15.2 2.1333333333333333 5000028.6944
10.95648 -15.433333333333334 2.1333333333333333 5000028.6944
10.95648 -15.633333333333333 2.1333333333333333 5000028.6944
10.744046666666666 3.066666666666667 2.1 5000022.3214
10.744046666666666 2.933333333333333 2.1 5000022.3214
10.744046666666666 -0.1 2.1 5000022.3214
10.744046666666666 -0.13333333333333333 2.1 5000022.3214
10.608826666666667 -1.4666666666666666 2.1 5000018.2648
10.608826666666667 -1.5 2.1 5000018.2648
10.608826666666667 -2.1 2.1 5000018.2648
10.608826666666667 -2.1333333333333333 2.1 5000018.2648
10.608826666666667 -2.1666666666666665 2.1 5000018.2648
11.338686666666668 -5.166666666666667 2.1 5000040.1606
11.338686666666668 -5.233333333333333 2.1 5000040.1606
11.338686666666668 -5.266666666666667 2.1 5000040.1606
11.338686666666668 -5.333333333333333 2.1 5000040.1606
10.744046666666666 -5.433333333333334 2.1 5000022.3214
10.744046666666666 -5.5 2.1 5000022.3214
10.608826666666667 -5.733333333333333 2.1 5000018.2648
10.744046666666666 -5.8 2.1 5000022.3214
10.352546666666667 -6.066666666666666 2.1 5000010.5764
12.229653333333333 -6.2 2.1 5000066.8896
12.229653333333333 -6.233333333333333 2.1 5000066.8896
10.744046666666666 -6.5 2.1 5000022.3214
10.744046666666666 -6.533333333333333 2.1 5000022.3214
16.666666666666668 -7.433333333333334 2.1 5000200.0
16.666666666666668 -7.533333333333333 2.1 5000200.0
16.666666666666668 -7.566666666666666 2.1 5000200.0
10.95648 -7.833333333333333 2.1 5000028.6944
10.95648 -7.866666666666666 2.1 5000028.6944
10.95648 -8.0 2.1 5000028.6944
10.744046666666666 -8.133333333333333 2.1 5000022.3214
10.95648 -8.633333333333333 2.1 5000028.6944
10.608826666666667 -8.766666666666667 2.1 5000018.2648
10.608826666666667 -8.9 2.1 5000018.2648
12.229653333333333 -9.066666666666666 2.1 5000066.8896
10.446526666666667 -9.166666666666666 2.1 5000013.3958
10.95648 -9.2 2.1 5000028.6944
10.95648 -9.3 2.1 5000028.6944
10.95648 -10.1 2.1 5000028.6944
10.744046666666666 -10.2 2.1 5000022.3214
10.744046666666666 -10.233333333333333 2.1 5000022.3214
10.744046666666666 -11.233333333333333 2.1 5000022.3214
10.5152 -11.433333333333334 2.1 5000015.456
10.5152 -11.466666666666667 2.1 5000015.456
10.95648 -11.8 2.1 5000028.6944
10.95648 -11.833333333333334 2.1 5000028.6944
10.608826666666667 -12.1 2.1 5000018.2648
10.5152 -12.2 2.1 5000015.456
12.229653333333333 -13.266666666666667 2.1 5000066.8896
10.95648 -13.6 2.1 5000028.6944
10.95648 -13.633333333333333 2.1 5000028.6944
10.744046666666666 -13.733333333333333 2.1 5000022.3214
10.95648 -14.233333333333333 2.1 5000028.6944
10.95648 -15.166666666666666 2.1 5000028.6944
10.95648 -15.333333333333334 2.1 5000028.6944
10.744046666666666 3.066666666666667 2.066666666666667 5000022.3214
10.744046666666666 2.933333333333333 2.066666666666667 5000022.3214
11.338686666666668 0.7666666666666667 2.066666666666667 5000040.1606
10.744046666666666 0.6666666666666666 2.066666666666667 5000022.3214
10.744046666666666 0.6 2.066666666666667 5000022.3214
10.744046666666666 -0.3 2.066666666666667 5000022.3214
10.95648 -0.5 2.066666666666667 5000028.6944
10.744046666666666 -0.7 2.066666666666667 5000022.3214
10.608826666666667 -1.4666666666666666 2.066666666666667 5000018.2648
10.608826666666667 -1.6 2.066666666666667 5000018.2648
10.608826666666667 -2.1333333333333333 2.066666666666667 5000018.2648
10.608826666666667 -2.1666666666666665 2.066666666666667 5000018.2648
10.95648 -2.2666666666666666 2.066666666666667 5000028.6944
10.95648 -2.3 2.066666666666667 5000028.6944
10.608826666666667 -2.4 2.066666666666667 5000018.2648
10.608826666666667 -2.433333333333333 2.066666666666667 5000018.2648
11.338686666666668 -5.166666666666667 2.066666666666667 5000040.1606
11.338686666666668 -5.2 2.066666666666667 5000040.1606
11.338686666666668 -5.233333333333333 2.066666666666667 5000040.1606
11.338686666666668 -5.466666666666667 2.066666666666667 5000040.1606
10.608826666666667 -5.666666666666667 2.066666666666667 5000018.2648
10.608826666666667 -5.7 2.066666666666667 5000018.2648
10.608826666666667 -5.733333333333333 2.066666666666667 5000018.2648
10.744046666666666 -5.866666666666666 2.066666666666667 5000022.3214
10.352546666666667 -6.066666666666666 2.066666666666667 5000010.5764
12.229653333333333 -6.233333333333333 2.066666666666667 5000066.8896
10.744046666666666 -6.5 2.066666666666667 5000022.3214
10.744046666666666 -6.533333333333333 2.066666666666667 5000022.3214
16.666666666666668 -7.533333333333333 2.066666666666667 5000200.0
16.666666666666668 -7.566666666666666 2.066666666666667 5000200.0
10.95648 -7.833333333333333 2.066666666666667 5000028.6944
10.95648 -7.866666666666666 2.066666666666667 5000028.6944
10.95648 -7.966666666666667 2.066666666666667 5000028.6944
10.95648 -8.0 2.066666666666667 5000028.6944
10.744046666666666 -8.133333333333333 2.066666666666667 5000022.3214
10.744046666666666 -8.266666666666667 2.066666666666667 5000022.3214
10.744046666666666 -8.366666666666667 2.066666666666667 5000022.3214
10.95648 -8.6 2.066666666666667 5000028.6944
10.95648 -8.633333333333333 2.066666666666667 5000028.6944
10.608826666666667 -8.8 2.066666666666667 5000018.2648
10.446526666666667 -9.166666666666666 2.066666666666667 5000013.3958
10.39401 -9.266666666666667 2.066666666666667 5000011.8203
10.39401 -9.366666666666667 2.066666666666667 5000011.8203
10.5152 -9.566666666666666 2.066666666666667 5000015.456
10.95648 -10.1 2.066666666666667 5000028.6944
10.171777 -10.333333333333334 2.066666666666667 5000005.15331
10.744046666666666 -11.4 2.066666666666667 5000022.3214
10.5152 -11.466666666666667 2.066666666666667 5000015.456
10.39401 -11.933333333333334 2.066666666666667 5000011.8203
10.744046666666666 -13.433333333333334 2.066666666666667 5000022.3214
10.95648 -13.6 2.066666666666667 5000028.6944
10.95648 -14.066666666666666 2.066666666666667 5000028.6944
10.744046666666666 3.066666666666667 2.033333333333333 5000022.3214
10.744046666666666 2.933333333333333 2.033333333333333 5000022.3214
10.744046666666666 0.6 2.033333333333333 5000022.3214
10.95648 -0.5 2.033333333333333 5000028.6944
10.744046666666666 -0.7 2.033333333333333 5000022.3214
10.608826666666667 -1.4333333333333333 2.033333333333333 5000018.2648
10.608826666666667 -2.1666666666666665 2.033333333333333 5000018.2648
10.608826666666667 -2.2 2.033333333333333 5000018.2648
10.95648 -2.2666666666666666 2.033333333333333 5000028.6944
10.95648 -2.3 2.033333333333333 5000028.6944
10.608826666666667 -2.4 2.033333333333333 5000018.2648
10.608826666666667 -2.433333333333333 2.033333333333333 5000018.2648
10.744046666666666 -5.166666666666667 2.033333333333333 5000022.3214
11.338686666666668 -5.233333333333333 2.033333333333333 5000040.1606
11.338686666666668 -5.4 2.033333333333333 5000040.1606
11.338686666666668 -5.466666666666667 2.033333333333333 5000040.1606
10.608826666666667 -5.666666666666667 2.033333333333333 5000018.2648
10.608826666666667 -5.7 2.033333333333333 5000018.2648
10.744046666666666 -5.9 2.033333333333333 5000022.3214
10.352546666666667 -6.066666666666666 2.033333333333333 5000010.5764
10.744046666666666 -6.5 2.033333333333333 5000022.3214
12.229653333333333 -7.233333333333333 2.033333333333333 5000066.8896
12.229653333333333 -7.266666666666667 2.033333333333333 5000066.8896
12.229653333333333 -7.566666666666666 2.033333333333333 5000066.8896
10.744046666666666 -7.833333333333333 2.033333333333333 5000022.3214
10.744046666666666 -7.866666666666666 2.033333333333333 5000022.3214
10.744046666666666 -7.966666666666667 2.033333333333333 5000022.3214
10.744046666666666 -8.0 2.033333333333333 5000022.3214
10.744046666666666 -8.133333333333333 2.033333333333333 5000022.3214
10.744046666666666 -8.333333333333334 2.033333333333333 5000022.3214
10.352546666666667 -8.633333333333333 2.033333333333333 5000010.5764
10.608826666666667 -8.766666666666667 2.033333333333333 5000018.2648
10.608826666666667 -8.8 2.033333333333333 5000018.2648
10.5152 -9.066666666666666 2.033333333333333 5000015.456
10.39401 -9.2 2.033333333333333 5000011.8203
10.39401 -9.3 2.033333333333333 5000011.8203
10.5152 -9.566666666666666 2.033333333333333 5000015.456
16.666666666666668 -10.433333333333334 2.033333333333333 5000200.0
12.229653333333333 -10.466666666666667 2.033333333333333 5000066.8896
10.744046666666666 -10.9 2.033333333333333 5000022.3214
10.744046666666666 -10.933333333333334 2.033333333333333 5000022.3214
10.5152 -11.266666666666667 2.033333333333333 5000015.456
10.5152 -11.3 2.033333333333333 5000015.456
10.744046666666666 3.066666666666667 2.0 5000022.3214
10.744046666666666 2.933333333333333 2.0 5000022.3214
10.744046666666666 2.2333333333333334 2.0 5000022.3214
10.744046666666666 1.5 2.0 5000022.3214
10.608826666666667 -1.4333333333333333 2.0 5000018.2648
11.338686666666668 -1.9 2.0 5000040.1606
11.338686666666668 -1.9333333333333333 2.0 5000040.1606
11.338686666666668 -1.9666666666666666 2.0 5000040.1606
11.338686666666668 -2.0 2.0 5000040.1606
11.338686666666668 -2.033333333333333 2.0 5000040.1606
10.608826666666667 -2.1666666666666665 2.0 5000018.2648
10.608826666666667 -2.2 2.0 5000018.2648
10.95648 -2.3 2.0 5000028.6944
10.608826666666667 -2.433333333333333 2.0 5000018.2648
10.744046666666666 -5.133333333333334 2.0 5000022.3214
10.744046666666666 -5.166666666666667 2.0 5000022.3214
10.744046666666666 -5.2 2.0 5000022.3214
10.744046666666666 -5.233333333333333 2.0 5000022.3214
11.338686666666668 -5.4 2.0 5000040.1606
11.338686666666668 -5.466666666666667 2.0 5000040.1606
10.608826666666667 -5.666666666666667 2.0 5000018.2648
10.744046666666666 -5.9 2.0 5000022.3214
10.352546666666667 -6.066666666666666 2.0 5000010.5764
11.338686666666668 -6.2 2.0 5000040.1606
10.744046666666666 -6.5 2.0 5000022.3214
10.744046666666666 -6.533333333333333 2.0 5000022.3214
12.229653333333333 -7.266666666666667 2.0 5000066.8896
12.229653333333333 -7.333333333333333 2.0 5000066.8896
12.229653333333333 -7.6 2.0 5000066.8896
10.95648 -7.833333333333333 2.0 5000028.6944
10.95648 -7.866666666666666 2.0 5000028.6944
10.744046666666666 -7.966666666666667 2.0 5000022.3214
10.744046666666666 -8.0 2.0 5000022.3214
10.744046666666666 -8.3 2.0 5000022.3214
10.744046666666666 -8.333333333333334 2.0 5000022.3214
10.352546666666667 -8.633333333333333 2.0 5000010.5764
10.608826666666667 -8.766666666666667 2.0 5000018.2648
10.5152 -9.066666666666666 2.0 5000015.456
10.39401 -9.2 2.0 5000011.8203
10.39401 -9.3 2.0 5000011.8203
12.229653333333333 -10.5 2.0 5000066.8896
12.229653333333333 -10.533333333333333 2.0 5000066.8896
10.95648 -10.8 2.0 5000028.6944
10.95648 -10.833333333333334 2.0 5000028.6944
10.744046666666666 -10.866666666666667 2.0 5000022.3214
10.744046666666666 -10.9 2.0 5000022.3214
10.608826666666667 -11.066666666666666 2.0 5000018.2648
10.446526666666667 -11.3 2.0 5000013.3958
10.5152 -11.5 2.0 5000015.456
10.5152 -11.533333333333333 2.0 5000015.456
10.744046666666666 3.066666666666667 1.9666666666666666 5000022.3214
10.744046666666666 2.933333333333333 1.9666666666666666 5000022.3214
10.744046666666666 2.2333333333333334 1.9666666666666666 5000022.3214
10.744046666666666 2.2 1.9666666666666666 5000022.3214
10.744046666666666 2.0 1.9666666666666666 5000022.3214
10.744046666666666 1.5 1.9666666666666666 5000022.3214
10.608826666666667 -1.4333333333333333 1.9666666666666666 5000018.2648
10.608826666666667 -1.7333333333333334 1.9666666666666666 5000018.2648
10.608826666666667 -1.7666666666666666 1.9666666666666666 5000018.2648
11.338686666666668 -2.033333333333333 1.9666666666666666 5000040.1606
10.608826666666667 -2.2 1.9666666666666666 5000018.2648
10.608826666666667 -2.2333333333333334 1.9666666666666666 5000018.2648
10.95648 -2.3 1.9666666666666666 5000028.6944
10.95648 -2.3333333333333335 1.9666666666666666 5000028.6944
10.608826666666667 -2.433333333333333 1.9666666666666666 5000018.2648
10.608826666666667 -2.466666666666667 1.9666666666666666 5000018.2648
10.744046666666666 -5.133333333333334 1.9666666666666666 5000022.3214
10.744046666666666 -5.166666666666667 1.9666666666666666 5000022.3214
10.744046666666666 -5.2 1.9666666666666666 5000022.3214
11.338686666666668 -5.4 1.9666666666666666 5000040.1606
11.338686666666668 -5.433333333333334 1.9666666666666666 5000040.1606
10.608826666666667 -5.666666666666667 1.9666666666666666 5000018.2648
10.744046666666666 -5.833333333333333 1.9666666666666666 5000022.3214
10.744046666666666 -5.9 1.9666666666666666 5000022.3214
10.352546666666667 -6.066666666666666 1.9666666666666666 5000010.5764
11.338686666666668 -6.233333333333333 1.9666666666666666 5000040.1606
11.338686666666668 -6.266666666666667 1.9666666666666666 5000040.1606
10.744046666666666 -6.433333333333334 1.9666666666666666 5000022.3214
10.744046666666666 -6.5 1.9666666666666666 5000022.3214
12.229653333333333 -7.6 1.9666666666666666 5000066.8896
12.229653333333333 -7.633333333333334 1.9666666666666666 5000066.8896
12.229653333333333 -7.666666666666667 1.9666666666666666 5000066.8896
10.95648 -7.8 1.9666666666666666 5000028.6944
10.95648 -7.833333333333333 1.9666666666666666 5000028.6944
10.95648 -7.866666666666666 1.9666666666666666 5000028.6944
10.744046666666666 -7.966666666666667 1.9666666666666666 5000022.3214
10.744046666666666 -8.0 1.9666666666666666 5000022.3214
10.744046666666666 -8.166666666666666 1.9666666666666666 5000022.3214
10.744046666666666 -8.3 1.9666666666666666 5000022.3214
10.216099333333334 -9.2 1.9666666666666666 5000006.48298
12.229653333333333 -10.5 1.9666666666666666 5000066.8896
12.229653333333333 -10.533333333333333 1.9666666666666666 5000066.8896
10.95648 -10.766666666666667 1.9666666666666666 5000028.6944
10.95648 -10.8 1.9666666666666666 5000028.6944
10.744046666666666 -10.866666666666667 1.9666666666666666 5000022.3214
10.744046666666666 -10.933333333333334 1.9666666666666666 5000022.3214
10.5152 -11.066666666666666 1.9666666666666666 5000015.456
10.5152 -11.1 1.9666666666666666 5000015.456
10.446526666666667 -11.3 1.9666666666666666 5000013.3958
10.446526666666667 -11.366666666666667 1.9666666666666666 5000013.3958
10.352546666666667 -11.566666666666666 1.9666666666666666 5000010.5764
10.318979333333333 -11.633333333333333 1.9666666666666666 5000009.56938
10.744046666666666 3.066666666666667 1.9333333333333333 5000022.3214
10.744046666666666 2.933333333333333 1.9333333333333333 5000022.3214
10.744046666666666 1.5 1.9333333333333333 5000022.3214
10.744046666666666 0.26666666666666666 1.9333333333333333 5000022.3214
10.744046666666666 0.23333333333333334 1.9333333333333333 5000022.3214
10.744046666666666 0.2 1.9333333333333333 5000022.3214
10.744046666666666 -0.3 1.9333333333333333 5000022.3214
10.744046666666666 -0.3333333333333333 1.9333333333333333 5000022.3214
10.744046666666666 -0.36666666666666664 1.9333333333333333 5000022.3214
10.95648 -1.5333333333333334 1.9333333333333333 5000028.6944
10.608826666666667 -1.6666666666666667 1.9333333333333333 5000018.2648
10.608826666666667 -1.7 1.9333333333333333 5000018.2648
10.608826666666667 -1.7333333333333334 1.9333333333333333 5000018.2648
10.608826666666667 -1.8 1.9333333333333333 5000018.2648
11.338686666666668 -1.9333333333333333 1.9333333333333333 5000040.1606
10.95648 -2.033333333333333 1.9333333333333333 5000028.6944
10.608826666666667 -2.2 1.9333333333333333 5000018.2648
10.608826666666667 -2.2333333333333334 1.9333333333333333 5000018.2648
10.95648 -2.3333333333333335 1.9333333333333333 5000028.6944
10.95648 -2.3666666666666667 1.9333333333333333 5000028.6944
10.608826666666667 -2.433333333333333 1.9333333333333333 5000018.2648
10.608826666666667 -2.466666666666667 1.9333333333333333 5000018.2648
10.744046666666666 -5.3 1.9333333333333333 5000022.3214
11.338686666666668 -5.433333333333334 1.9333333333333333 5000040.1606
10.608826666666667 -5.633333333333334 1.9333333333333333 5000018.2648
10.608826666666667 -5.666666666666667 1.9333333333333333 5000018.2648
10.446526666666667 -5.833333333333333 1.9333333333333333 5000013.3958
10.352546666666667 -6.066666666666666 1.9333333333333333 5000010.5764
11.338686666666668 -6.233333333333333 1.9333333333333333 5000040.1606
10.744046666666666 -6.5 1.9333333333333333 5000022.3214
12.229653333333333 -7.666666666666667 1.9333333333333333 5000066.8896
12.229653333333333 -7.7 1.9333333333333333 5000066.8896
10.95648 -7.866666666666666 1.9333333333333333 5000028.6944
10.744046666666666 -7.966666666666667 1.9333333333333333 5000022.3214
10.744046666666666 -8.0 1.9333333333333333 5000022.3214
10.744046666666666 -8.166666666666666 1.9333333333333333 5000022.3214
10.744046666666666 -8.266666666666667 1.9333333333333333 5000022.3214
12.229653333333333 -10.566666666666666 1.9333333333333333 5000066.8896
12.229653333333333 -10.6 1.9333333333333333 5000066.8896
10.95648 -10.766666666666667 1.9333333333333333 5000028.6944
10.95648 -10.833333333333334 1.9333333333333333 5000028.6944
10.5152 -11.1 1.9333333333333333 5000015.456
10.39401 -11.4 1.9333333333333333 5000011.8203
10.352546666666667 -11.566666666666666 1.9333333333333333 5000010.5764
10.318979333333333 -11.633333333333333 1.9333333333333333 5000009.56938
10.318979333333333 -11.666666666666666 1.9333333333333333 5000009.56938
10.744046666666666 3.066666666666667 1.9 5000022.3214
10.744046666666666 2.933333333333333 1.9 5000022.3214
10.744046666666666 2.0 1.9 5000022.3214
10.744046666666666 1.9666666666666666 1.9 5000022.3214
10.744046666666666 0.26666666666666666 1.9 5000022.3214
10.744046666666666 0.23333333333333334 1.9 5000022.3214
10.744046666666666 -0.3333333333333333 1.9 5000022.3214
10.744046666666666 -0.36666666666666664 1.9 5000022.3214
10.744046666666666 -0.43333333333333335 1.9 5000022.3214
10.744046666666666 -0.5333333333333333 1.9 5000022.3214
10.5152 -0.6333333333333333 1.9 5000015.456
10.608826666666667 -0.7666666666666667 1.9 5000018.2648
10.95648 -1.5333333333333334 1.9 5000028.6944
10.608826666666667 -1.6666666666666667 1.9 5000018.2648
10.608826666666667 -1.7 1.9 5000018.2648
10.95648 -2.066666666666667 1.9 5000028.6944
10.608826666666667 -2.2 1.9 5000018.2648
10.608826666666667 -2.2333333333333334 1.9 5000018.2648
10.744046666666666 -5.366666666666666 1.9 5000022.3214
11.338686666666668 -5.433333333333334 1.9 5000040.1606
11.338686666666668 -5.466666666666667 1.9 5000040.1606
10.608826666666667 -5.633333333333334 1.9 5000018.2648
10.608826666666667 -5.666666666666667 1.9 5000018.2648
10.352546666666667 -6.066666666666666 1.9 5000010.5764
12.229653333333333 -7.7 1.9 5000066.8896
10.95648 -7.9 1.9 5000028.6944
10.352546666666667 -8.5 1.9 5000010.5764
10.5152 -11.1 1.9 5000015.456
10.744046666666666 -11.233333333333333 1.9 5000022.3214
10.744046666666666 3.066666666666667 1.8666666666666667 5000022.3214
10.744046666666666 2.3 1.8666666666666667 5000022.3214
10.744046666666666 -0.3333333333333333 1.8666666666666667 5000022.3214
10.744046666666666 -0.36666666666666664 1.8666666666666667 5000022.3214
10.744046666666666 -0.43333333333333335 1.8666666666666667 5000022.3214
10.608826666666667 -1.4 1.8666666666666667 5000018.2648
