VERSION .7
FIELDS x y z rgb
SIZE 4 4 4 4
TYPE F F F F
COUNT 1 1 1 1
WIDTH 1630
HEIGHT 1
VIEWPOINT 0 0 0 1 0 0 0
POINTS 1630
DATA ascii
28.29636 4.5 2.5 40.1606
28.29636 4.44 2.5 40.1606
17.592840000000002 4.36 2.5 22.3214
15.15888 4.28 2.5 18.2648
17.592840000000002 4.14 2.5 22.3214
13.4736 3.5 2.5 15.456
17.592840000000002 3.38 2.5 22.3214
9.023147999999999 3.18 2.5 8.03858
8.358006 3.12 2.5 6.93001
8.358006 3.1 2.5 6.93001
9.023147999999999 2.86 2.5 8.03858
9.023147999999999 2.84 2.5 8.03858
8.358006 2.76 2.5 6.93001
8.358006 2.74 2.5 6.93001
8.358006 2.72 2.5 6.93001
8.665944 2.56 2.5 7.44324
8.358006 2.52 2.5 6.93001
8.358006 2.5 2.5 6.93001
9.442464 2.22 2.5 8.73744
9.442464 2.2 2.5 8.73744
8.358006 2.1 2.5 6.93001
8.358006 2.08 2.5 6.93001
8.358006 2.06 2.5 6.93001
28.29636 -1.44 2.5 40.1606
21.41664 -1.5 2.5 28.6944
21.41664 -3.04 2.5 28.6944
28.29636 -4.26 2.5 40.1606
28.29636 -4.28 2.5 40.1606
21.41664 -4.34 2.5 28.6944
21.41664 -4.36 2.5 28.6944
21.41664 -4.86 2.5 28.6944
28.29636 -5.34 2.5 40.1606
28.29636 -5.36 2.5 40.1606
28.29636 -5.84 2.5 40.1606
21.41664 5.26 2.48 28.6944
28.29636 4.54 2.48 40.1606
17.592840000000002 4.2 2.48 22.3214
17.592840000000002 4.14 2.48 22.3214
17.592840000000002 3.38 2.48 22.3214
9.023147999999999 3.2 2.48 8.03858
8.358006 3.12 2.48 6.93001
8.358006 3.1 2.48 6.93001
9.023147999999999 2.84 2.48 8.03858
9.023147999999999 2.82 2.48 8.03858
8.358006 2.76 2.48 6.93001
8.358006 2.74 2.48 6.93001
9.442464 2.68 2.48 8.73744
8.665944 2.56 2.48 7.44324
8.358006 2.52 2.48 6.93001
8.358006 2.5 2.48 6.93001
9.442464 2.2 2.48 8.73744
8.665944 2.1 2.48 7.44324
8.358006 2.06 2.48 6.93001
8.358006 2.04 2.48 6.93001
21.41664 -1.5 2.48 28.6944
21.41664 -1.52 2.48 28.6944
21.41664 -3.04 2.48 28.6944
28.29636 -4.26 2.48 40.1606
28.29636 -4.28 2.48 40.1606
21.41664 -4.36 2.48 28.6944
28.29636 -5.34 2.48 40.1606
28.29636 -5.36 2.48 40.1606
28.29636 -5.84 2.48 40.1606
21.41664 5.88 2.46 28.6944
21.41664 5.64 2.46 28.6944
17.592840000000002 5.62 2.46 22.3214
21.41664 5.58 2.46 28.6944
21.41664 5.54 2.46 28.6944
21.41664 5.52 2.46 28.6944
21.41664 5.14 2.46 28.6944
28.29636 5.0 2.46 40.1606
28.29636 4.98 2.46 40.1606
28.29636 4.72 2.46 40.1606
28.29636 4.68 2.46 40.1606
28.29636 4.54 2.46 40.1606
17.592840000000002 4.36 2.46 22.3214
17.592840000000002 4.2 2.46 22.3214
17.592840000000002 3.68 2.46 22.3214
17.592840000000002 3.66 2.46 22.3214
17.592840000000002 3.4 2.46 22.3214
17.592840000000002 3.38 2.46 22.3214
9.023147999999999 3.22 2.46 8.03858
9.023147999999999 3.2 2.46 8.03858
8.358006 3.14 2.46 6.93001
8.358006 3.12 2.46 6.93001
9.023147999999999 2.82 2.46 8.03858
8.665944 2.8 2.46 7.44324
8.358006 2.76 2.46 6.93001
9.442464 2.66 2.46 8.73744
8.665944 2.56 2.46 7.44324
8.358006 2.52 2.46 6.93001
8.358006 2.5 2.46 6.93001
9.442464 2.18 2.46 8.73744
8.358006 2.08 2.46 6.93001
8.358006 2.04 2.46 6.93001
8.358006 2.02 2.46 6.93001
21.41664 -1.52 2.46 28.6944
21.41664 -3.04 2.46 28.6944
28.29636 -4.26 2.46 40.1606
28.29636 -4.28 2.46 40.1606
28.29636 -5.34 2.46 40.1606
28.29636 -5.36 2.46 40.1606
28.29636 -5.84 2.46 40.1606
21.41664 5.88 2.44 28.6944
21.41664 5.56 2.44 28.6944
21.41664 5.54 2.44 28.6944
17.592840000000002 5.36 2.44 22.3214
17.592840000000002 5.34 2.44 22.3214
44.33376 5.22 2.44 66.8896
21.41664 5.12 2.44 28.6944
21.41664 5.1 2.44 28.6944
28.29636 4.98 2.44 40.1606
28.29636 4.72 2.44 40.1606
17.592840000000002 4.2 2.44 22.3214
17.592840000000002 3.64 2.44 22.3214
17.592840000000002 3.4 2.44 22.3214
17.592840000000002 3.38 2.44 22.3214
9.023147999999999 3.22 2.44 8.03858
8.358006 3.14 2.44 6.93001
8.358006 3.12 2.44 6.93001
8.665944 2.8 2.44 7.44324
8.665944 2.76 2.44 7.44324
9.442464 2.66 2.44 8.73744
9.442464 2.64 2.44 8.73744
8.665944 2.56 2.44 7.44324
8.665944 2.52 2.44 7.44324
8.358006 2.5 2.44 6.93001
11.29218 2.36 2.44 11.8203
9.442464 2.18 2.44 8.73744
9.442464 2.16 2.44 8.73744
8.665944 2.08 2.44 7.44324
8.358006 2.04 2.44 6.93001
8.358006 2.02 2.44 6.93001
21.41664 -1.2 2.44 28.6944
21.41664 -1.52 2.44 28.6944
21.41664 -3.04 2.44 28.6944
28.29636 -4.26 2.44 40.1606
28.29636 -4.28 2.44 40.1606
28.29636 -5.36 2.44 40.1606
21.41664 -5.46 2.44 28.6944
28.29636 -5.84 2.44 40.1606
21.41664 5.56 2.42 28.6944
21.41664 5.54 2.42 28.6944
17.592840000000002 5.36 2.42 22.3214
124.19999999999999 5.28 2.42 200.0
21.41664 4.84 2.42 28.6944
28.29636 4.72 2.42 40.1606
124.19999999999999 4.3 2.42 200.0
17.592840000000002 4.2 2.42 22.3214
17.592840000000002 3.38 2.42 22.3214
9.023147999999999 3.22 2.42 8.03858
8.358006 3.16 2.42 6.93001
8.358006 3.14 2.42 6.93001
8.665944 2.8 2.42 7.44324
9.442464 2.66 2.42 8.73744
8.665944 2.52 2.42 7.44324
9.442464 2.16 2.42 8.73744
8.665944 2.06 2.42 7.44324
8.358006 2.02 2.42 6.93001
8.358006 2.0 2.42 6.93001
21.41664 -1.2 2.42 28.6944
21.41664 -1.52 2.42 28.6944
17.592840000000002 -3.26 2.42 22.3214
28.29636 -4.22 2.42 40.1606
28.29636 -4.26 2.42 40.1606
28.29636 -4.28 2.42 40.1606
21.41664 -4.34 2.42 28.6944
17.592840000000002 -4.44 2.42 22.3214
28.29636 -4.84 2.42 40.1606
28.29636 -5.36 2.42 40.1606
21.41664 -5.46 2.42 28.6944
28.29636 -5.84 2.42 40.1606
44.33376 5.46 2.4 66.8896
124.19999999999999 4.42 2.4 200.0
17.592840000000002 4.2 2.4 22.3214
21.41664 3.36 2.4 28.6944
9.023147999999999 3.24 2.4 8.03858
8.358006 3.16 2.4 6.93001
8.358006 3.14 2.4 6.93001
9.442464 2.16 2.4 8.73744
9.442464 2.14 2.4 8.73744
8.358006 2.04 2.4 6.93001
8.358006 2.0 2.4 6.93001
21.41664 -1.52 2.4 28.6944
28.29636 -4.26 2.4 40.1606
28.29636 -4.28 2.4 40.1606
28.29636 -5.36 2.4 40.1606
21.41664 -5.46 2.4 28.6944
28.29636 -5.84 2.4 40.1606
17.592840000000002 5.4 2.38 22.3214
21.41664 4.98 2.38 28.6944
21.41664 4.94 2.38 28.6944
124.19999999999999 4.34 2.38 200.0
21.41664 3.36 2.38 28.6944
21.41664 3.34 2.38 28.6944
8.358006 3.18 2.38 6.93001
8.358006 3.16 2.38 6.93001
9.442464 2.14 2.38 8.73744
9.442464 2.12 2.38 8.73744
8.665944 2.04 2.38 7.44324
8.358006 2.0 2.38 6.93001
8.358006 1.98 2.38 6.93001
28.29636 -4.26 2.38 40.1606
28.29636 -4.28 2.38 40.1606
21.41664 -4.36 2.38 28.6944
28.29636 -4.8 2.38 40.1606
28.29636 -5.36 2.38 40.1606
28.29636 -5.38 2.38 40.1606
28.29636 -5.54 2.38 40.1606
28.29636 -5.84 2.38 40.1606
28.29636 5.54 2.36 40.1606
28.29636 5.52 2.36 40.1606
17.592840000000002 5.4 2.36 22.3214
44.33376 5.08 2.36 66.8896
44.33376 4.88 2.36 66.8896
124.19999999999999 4.4 2.36 200.0
8.358006 3.18 2.36 6.93001
8.358006 3.16 2.36 6.93001
10.54584 2.66 2.36 10.5764
9.442464 2.12 2.36 8.73744
8.665944 2.02 2.36 7.44324
8.358006 1.98 2.36 6.93001
8.358006 1.96 2.36 6.93001
28.29636 -3.1 2.36 40.1606
28.29636 -4.26 2.36 40.1606
28.29636 -4.28 2.36 40.1606
21.41664 -4.36 2.36 28.6944
28.29636 -5.36 2.36 40.1606
28.29636 -5.38 2.36 40.1606
21.41664 -5.46 2.36 28.6944
21.41664 -5.5 2.36 28.6944
28.29636 -5.54 2.36 40.1606
28.29636 -5.84 2.36 40.1606
28.29636 5.56 2.34 40.1606
28.29636 5.54 2.34 40.1606
28.29636 5.52 2.34 40.1606
44.33376 5.34 2.34 66.8896
44.33376 4.88 2.34 66.8896
21.41664 4.84 2.34 28.6944
8.358006 3.18 2.34 6.93001
9.442464 2.16 2.34 8.73744
9.442464 2.12 2.34 8.73744
9.442464 2.1 2.34 8.73744
8.665944 2.02 2.34 7.44324
8.358006 2.0 2.34 6.93001
8.358006 1.96 2.34 6.93001
21.41664 -4.0 2.34 28.6944
28.29636 -4.26 2.34 40.1606
28.29636 -4.28 2.34 40.1606
21.41664 -4.34 2.34 28.6944
21.41664 -4.36 2.34 28.6944
28.29636 -5.36 2.34 40.1606
28.29636 -5.38 2.34 40.1606
21.41664 -5.46 2.34 28.6944
21.41664 -5.5 2.34 28.6944
15.15888 -5.66 2.34 18.2648
28.29636 -5.84 2.34 40.1606
28.29636 5.54 2.32 40.1606
21.41664 4.84 2.32 28.6944
21.41664 4.82 2.32 28.6944
8.665944 2.18 2.32 7.44324
8.665944 2.16 2.32 7.44324
9.442464 2.1 2.32 8.73744
9.442464 2.08 2.32 8.73744
8.665944 2.0 2.32 7.44324
8.358006 1.96 2.32 6.93001
8.358006 1.94 2.32 6.93001
21.41664 -3.26 2.32 28.6944
21.41664 -4.0 2.32 28.6944
28.29636 -4.26 2.32 40.1606
28.29636 -4.28 2.32 40.1606
21.41664 -4.34 2.32 28.6944
21.41664 -4.36 2.32 28.6944
28.29636 -4.86 2.32 40.1606
28.29636 -5.36 2.32 40.1606
28.29636 -5.38 2.32 40.1606
21.41664 -5.46 2.32 28.6944
28.29636 -5.84 2.32 40.1606
21.41664 5.64 2.3 28.6944
44.33376 5.24 2.3 66.8896
44.33376 4.96 2.3 66.8896
28.29636 4.78 2.3 40.1606
28.29636 4.7 2.3 40.1606
28.29636 4.48 2.3 40.1606
12.23748 2.32 2.3 13.3958
9.442464 2.1 2.3 8.73744
9.442464 2.08 2.3 8.73744
8.358006 1.98 2.3 6.93001
8.358006 1.96 2.3 6.93001
8.358006 1.94 2.3 6.93001
28.29636 -3.04 2.3 40.1606
28.29636 -4.26 2.3 40.1606
28.29636 -4.28 2.3 40.1606
21.41664 -4.34 2.3 28.6944
21.41664 -4.36 2.3 28.6944
17.592840000000002 -4.48 2.3 22.3214
44.33376 -4.74 2.3 66.8896
28.29636 -4.82 2.3 40.1606
28.29636 -5.38 2.3 40.1606
28.29636 -5.6 2.3 40.1606
28.29636 -5.84 2.3 40.1606
28.29636 5.54 2.28 40.1606
28.29636 5.04 2.28 40.1606
28.29636 5.02 2.28 40.1606
44.33376 4.76 2.28 66.8896
28.29636 4.7 2.28 40.1606
44.33376 4.64 2.28 66.8896
17.592840000000002 3.38 2.28 22.3214
8.358006 1.94 2.28 6.93001
8.358006 1.92 2.28 6.93001
17.592840000000002 0.98 2.28 22.3214
28.29636 -3.04 2.28 40.1606
21.41664 -3.76 2.28 28.6944
28.29636 -4.26 2.28 40.1606
28.29636 -4.28 2.28 40.1606
21.41664 -4.34 2.28 28.6944
17.592840000000002 -4.46 2.28 22.3214
17.592840000000002 -4.48 2.28 22.3214
44.33376 -4.72 2.28 66.8896
28.29636 -4.8 2.28 40.1606
44.33376 -5.28 2.28 66.8896
44.33376 -5.3 2.28 66.8896
44.33376 -5.32 2.28 66.8896
28.29636 -5.36 2.28 40.1606
28.29636 -5.38 2.28 40.1606
28.29636 -5.6 2.28 40.1606
28.29636 -5.84 2.28 40.1606
21.41664 -5.94 2.28 28.6944
28.29636 5.82 2.26 40.1606
17.592840000000002 5.76 2.26 22.3214
28.29636 5.7 2.26 40.1606
28.29636 5.68 2.26 40.1606
21.41664 5.62 2.26 28.6944
28.29636 4.94 2.26 40.1606
124.19999999999999 4.84 2.26 200.0
28.29636 4.5 2.26 40.1606
17.592840000000002 3.38 2.26 22.3214
8.358006 1.96 2.26 6.93001
8.358006 1.94 2.26 6.93001
8.358006 1.92 2.26 6.93001
17.592840000000002 0.96 2.26 22.3214
28.29636 -3.02 2.26 40.1606
21.41664 -3.32 2.26 28.6944
28.29636 -4.28 2.26 40.1606
28.29636 -4.84 2.26 40.1606
44.33376 -5.28 2.26 66.8896
44.33376 -5.3 2.26 66.8896
28.29636 -5.36 2.26 40.1606
28.29636 -5.38 2.26 40.1606
28.29636 -5.84 2.26 40.1606
21.41664 -5.94 2.26 28.6944
28.29636 5.84 2.24 40.1606
28.29636 5.82 2.24 40.1606
17.592840000000002 5.76 2.24 22.3214
28.29636 5.7 2.24 40.1606
28.29636 5.68 2.24 40.1606
28.29636 5.52 2.24 40.1606
28.29636 5.22 2.24 40.1606
28.29636 4.94 2.24 40.1606
21.41664 4.18 2.24 28.6944
8.665944 1.96 2.24 7.44324
8.358006 1.94 2.24 6.93001
8.358006 1.92 2.24 6.93001
21.41664 1.04 2.24 28.6944
21.41664 1.0 2.24 28.6944
17.592840000000002 0.96 2.24 22.3214
28.29636 -3.02 2.24 40.1606
28.29636 -4.28 2.24 40.1606
44.33376 -4.7 2.24 66.8896
28.29636 -4.78 2.24 40.1606
28.29636 -5.84 2.24 40.1606
21.41664 -5.94 2.24 28.6944
28.29636 5.8 2.22 40.1606
28.29636 5.4 2.22 40.1606
28.29636 5.02 2.22 40.1606
28.29636 4.66 2.22 40.1606
28.29636 4.54 2.22 40.1606
28.29636 4.5 2.22 40.1606
21.41664 4.18 2.22 28.6944
8.665944 2.78 2.22 7.44324
8.665944 2.54 2.22 7.44324
8.665944 2.52 2.22 7.44324
8.358006 2.5 2.22 6.93001
8.665944 2.32 2.22 7.44324
8.665944 2.28 2.22 7.44324
8.665944 2.26 2.22 7.44324
8.665944 2.24 2.22 7.44324
8.665944 2.22 2.22 7.44324
8.665944 2.2 2.22 7.44324
8.665944 2.18 2.22 7.44324
8.665944 2.16 2.22 7.44324
8.665944 2.14 2.22 7.44324
8.665944 2.12 2.22 7.44324
8.665944 2.1 2.22 7.44324
8.665944 2.08 2.22 7.44324
8.665944 2.06 2.22 7.44324
9.023147999999999 2.02 2.22 8.03858
9.023147999999999 2.0 2.22 8.03858
8.665944 1.94 2.22 7.44324
8.358006 1.92 2.22 6.93001
21.41664 1.06 2.22 28.6944
17.592840000000002 0.98 2.22 22.3214
17.592840000000002 0.96 2.22 22.3214
124.19999999999999 -3.1 2.22 200.0
21.41664 -3.34 2.22 28.6944
28.29636 -4.28 2.22 40.1606
17.592840000000002 -4.34 2.22 22.3214
28.29636 -4.76 2.22 40.1606
28.29636 -4.78 2.22 40.1606
21.41664 -4.82 2.22 28.6944
28.29636 -5.84 2.22 40.1606
21.41664 -5.94 2.22 28.6944
28.29636 5.58 2.2 40.1606
28.29636 5.4 2.2 40.1606
28.29636 5.02 2.2 40.1606
124.19999999999999 4.6 2.2 200.0
21.41664 4.2 2.2 28.6944
21.41664 4.18 2.2 28.6944
8.665944 3.28 2.2 7.44324
8.665944 3.26 2.2 7.44324
8.665944 3.22 2.2 7.44324
8.665944 3.2 2.2 7.44324
8.665944 3.18 2.2 7.44324
8.665944 3.16 2.2 7.44324
8.665944 3.14 2.2 7.44324
8.665944 3.12 2.2 7.44324
8.665944 3.1 2.2 7.44324
8.665944 3.08 2.2 7.44324
8.665944 3.06 2.2 7.44324
8.665944 3.04 2.2 7.44324
8.665944 3.02 2.2 7.44324
8.665944 3.0 2.2 7.44324
9.023147999999999 2.98 2.2 8.03858
9.023147999999999 2.96 2.2 8.03858
9.023147999999999 2.94 2.2 8.03858
9.023147999999999 2.92 2.2 8.03858
9.023147999999999 2.9 2.2 8.03858
9.023147999999999 2.88 2.2 8.03858
9.023147999999999 2.86 2.2 8.03858
8.665944 2.82 2.2 7.44324
8.665944 2.8 2.2 7.44324
8.665944 2.64 2.2 7.44324
8.665944 2.62 2.2 7.44324
8.665944 2.6 2.2 7.44324
8.665944 2.58 2.2 7.44324
8.665944 2.56 2.2 7.44324
8.665944 2.54 2.2 7.44324
8.665944 2.52 2.2 7.44324
9.023147999999999 2.02 2.2 8.03858
9.023147999999999 2.0 2.2 8.03858
9.023147999999999 1.98 2.2 8.03858
8.665944 1.92 2.2 7.44324
28.29636 1.06 2.2 40.1606
21.41664 1.04 2.2 28.6944
21.41664 0.98 2.2 28.6944
21.41664 0.96 2.2 28.6944
44.33376 -3.04 2.2 66.8896
124.19999999999999 -3.08 2.2 200.0
44.33376 -3.18 2.2 66.8896
28.29636 -4.24 2.2 40.1606
28.29636 -4.28 2.2 40.1606
17.592840000000002 -4.34 2.2 22.3214
28.29636 -4.76 2.2 40.1606
28.29636 -4.82 2.2 40.1606
44.33376 5.84 2.18 66.8896
28.29636 5.64 2.18 40.1606
28.29636 5.58 2.18 40.1606
28.29636 5.56 2.18 40.1606
28.29636 5.22 2.18 40.1606
28.29636 4.68 2.18 40.1606
21.41664 4.2 2.18 28.6944
21.41664 4.18 2.18 28.6944
8.665944 3.38 2.18 7.44324
8.665944 3.36 2.18 7.44324
8.665944 3.34 2.18 7.44324
8.665944 3.32 2.18 7.44324
8.665944 2.64 2.18 7.44324
8.665944 2.62 2.18 7.44324
8.665944 2.6 2.18 7.44324
8.665944 2.58 2.18 7.44324
28.29636 1.04 2.18 40.1606
21.41664 0.98 2.18 28.6944
21.41664 0.96 2.18 28.6944
28.29636 -4.28 2.18 40.1606
28.29636 -4.76 2.18 40.1606
28.29636 -5.84 2.18 40.1606
21.41664 -5.94 2.18 28.6944
28.29636 5.56 2.16 40.1606
124.19999999999999 5.3 2.16 200.0
28.29636 5.22 2.16 40.1606
28.29636 5.2 2.16 40.1606
44.33376 5.0 2.16 66.8896
28.29636 4.86 2.16 40.1606
21.41664 4.8 2.16 28.6944
28.29636 4.68 2.16 40.1606
21.41664 4.2 2.16 28.6944
21.41664 4.18 2.16 28.6944
8.665944 3.38 2.16 7.44324
8.665944 3.36 2.16 7.44324
8.665944 3.34 2.16 7.44324
8.665944 1.94 2.16 7.44324
8.665944 1.92 2.16 7.44324
28.29636 1.04 2.16 40.1606
21.41664 0.98 2.16 28.6944
21.41664 -3.02 2.16 28.6944
28.29636 -3.26 2.16 40.1606
13.4736 -3.34 2.16 15.456
28.29636 -4.28 2.16 40.1606
28.29636 -4.76 2.16 40.1606
28.29636 -5.84 2.16 40.1606
28.29636 5.92 2.14 40.1606
28.29636 5.78 2.14 40.1606
28.29636 5.56 2.14 40.1606
44.33376 5.5 2.14 66.8896
28.29636 5.22 2.14 40.1606
28.29636 5.2 2.14 40.1606
44.33376 5.14 2.14 66.8896
44.33376 5.0 2.14 66.8896
124.19999999999999 4.94 2.14 200.0
124.19999999999999 4.92 2.14 200.0
28.29636 4.7 2.14 40.1606
28.29636 4.68 2.14 40.1606
21.41664 4.34 2.14 28.6944
21.41664 4.2 2.14 28.6944
21.41664 4.18 2.14 28.6944
8.665944 3.38 2.14 7.44324
8.665944 3.36 2.14 7.44324
8.665944 1.94 2.14 7.44324
8.665944 1.92 2.14 7.44324
28.29636 1.04 2.14 40.1606
44.33376 -3.0 2.14 66.8896
28.29636 -3.06 2.14 40.1606
44.33376 -4.2 2.14 66.8896
28.29636 -4.28 2.14 40.1606
28.29636 -4.32 2.14 40.1606
28.29636 -4.76 2.14 40.1606
28.29636 -5.84 2.14 40.1606
28.29636 5.74 2.12 40.1606
28.29636 5.72 2.12 40.1606
124.19999999999999 5.5 2.12 200.0
28.29636 5.22 2.12 40.1606
28.29636 5.2 2.12 40.1606
21.41664 4.34 2.12 28.6944
28.29636 4.26 2.12 40.1606
21.41664 4.18 2.12 28.6944
8.665944 3.38 2.12 7.44324
8.665944 3.36 2.12 7.44324
8.665944 2.44 2.12 7.44324
8.665944 2.42 2.12 7.44324
7.8540779999999994 2.2 2.12 6.09013
8.665944 1.94 2.12 7.44324
28.29636 -3.06 2.12 40.1606
21.41664 -3.98 2.12 28.6944
28.29636 -4.28 2.12 40.1606
28.29636 -4.32 2.12 40.1606
15.15888 -4.4 2.12 18.2648
28.29636 -5.84 2.12 40.1606
28.29636 5.72 2.1 40.1606
28.29636 5.7 2.1 40.1606
124.19999999999999 5.48 2.1 200.0
44.33376 5.4 2.1 66.8896
28.29636 4.84 2.1 40.1606
21.41664 4.34 2.1 28.6944
21.41664 4.18 2.1 28.6944
8.665944 3.38 2.1 7.44324
8.665944 3.36 2.1 7.44324
8.665944 2.44 2.1 7.44324
8.665944 2.42 2.1 7.44324
8.358006 2.3 2.1 6.93001
7.8540779999999994 2.2 2.1 6.09013
7.8540779999999994 2.18 2.1 6.09013
8.665944 1.94 2.1 7.44324
8.665944 1.9 2.1 7.44324
17.592840000000002 0.96 2.1 22.3214
28.29636 -3.04 2.1 40.1606
17.592840000000002 -3.16 2.1 22.3214
28.29636 -4.24 2.1 40.1606
28.29636 -4.28 2.1 40.1606
28.29636 5.74 2.08 40.1606
28.29636 5.7 2.08 40.1606
28.29636 5.68 2.08 40.1606
44.33376 5.62 2.08 66.8896
124.19999999999999 5.46 2.08 200.0
44.33376 5.42 2.08 66.8896
44.33376 5.4 2.08 66.8896
28.29636 5.12 2.08 40.1606
28.29636 5.1 2.08 40.1606
44.33376 5.02 2.08 66.8896
28.29636 4.84 2.08 40.1606
28.29636 4.82 2.08 40.1606
44.33376 4.78 2.08 66.8896
21.41664 4.34 2.08 28.6944
21.41664 4.18 2.08 28.6944
8.665944 3.38 2.08 7.44324
8.665944 3.36 2.08 7.44324
8.358006 3.18 2.08 6.93001
8.665944 2.4 2.08 7.44324
8.665944 2.38 2.08 7.44324
8.358006 2.28 2.08 6.93001
8.358006 2.14 2.08 6.93001
8.358006 2.12 2.08 6.93001
8.665944 1.94 2.08 7.44324
8.665944 1.9 2.08 7.44324
21.41664 0.96 2.08 28.6944
28.29636 -3.02 2.08 40.1606
17.592840000000002 -3.16 2.08 22.3214
44.33376 -4.2 2.08 66.8896
28.29636 -4.28 2.08 40.1606
28.29636 -4.74 2.08 40.1606
28.29636 -5.84 2.08 40.1606
28.29636 5.66 2.06 40.1606
44.33376 5.4 2.06 66.8896
124.19999999999999 5.22 2.06 200.0
28.29636 5.1 2.06 40.1606
28.29636 5.08 2.06 40.1606
21.41664 4.34 2.06 28.6944
21.41664 4.3 2.06 28.6944
21.41664 4.18 2.06 28.6944
8.665944 3.38 2.06 7.44324
8.665944 3.36 2.06 7.44324
8.358006 3.18 2.06 6.93001
9.023147999999999 2.36 2.06 8.03858
8.358006 2.12 2.06 6.93001
7.8540779999999994 2.0 2.06 6.09013
8.665944 1.94 2.06 7.44324
21.41664 1.04 2.06 28.6944
21.41664 1.0 2.06 28.6944
21.41664 0.98 2.06 28.6944
21.41664 0.96 2.06 28.6944
9.023147999999999 -1.22 2.06 8.03858
9.023147999999999 -1.54 2.06 8.03858
28.29636 -3.02 2.06 40.1606
17.592840000000002 -3.14 2.06 22.3214
21.41664 -3.84 2.06 28.6944
28.29636 -4.28 2.06 40.1606
21.41664 -4.34 2.06 28.6944
21.41664 -4.36 2.06 28.6944
28.29636 -4.74 2.06 40.1606
28.29636 5.9 2.04 40.1606
28.29636 5.86 2.04 40.1606
124.19999999999999 5.82 2.04 200.0
28.29636 5.1 2.04 40.1606
28.29636 4.96 2.04 40.1606
21.41664 4.34 2.04 28.6944
21.41664 4.18 2.04 28.6944
21.41664 4.16 2.04 28.6944
8.665944 3.38 2.04 7.44324
8.665944 3.36 2.04 7.44324
8.358006 3.02 2.04 6.93001
8.358006 3.0 2.04 6.93001
8.358006 2.9 2.04 6.93001
8.358006 2.88 2.04 6.93001
8.358006 2.78 2.04 6.93001
8.358006 2.6 2.04 6.93001
8.665944 2.58 2.04 7.44324
9.442464 2.24 2.04 8.73744
8.358006 2.12 2.04 6.93001
8.358006 2.1 2.04 6.93001
8.665944 1.94 2.04 7.44324
8.665944 1.9 2.04 7.44324
21.41664 1.04 2.04 28.6944
21.41664 1.0 2.04 28.6944
21.41664 0.98 2.04 28.6944
21.41664 0.96 2.04 28.6944
9.023147999999999 -1.22 2.04 8.03858
9.023147999999999 -1.54 2.04 8.03858
21.41664 -3.04 2.04 28.6944
21.41664 -3.06 2.04 28.6944
13.4736 -3.26 2.04 15.456
28.29636 -3.36 2.04 40.1606
21.41664 -3.84 2.04 28.6944
28.29636 -4.28 2.04 40.1606
28.29636 -4.74 2.04 40.1606
17.592840000000002 5.62 2.02 22.3214
44.33376 5.1 2.02 66.8896
28.29636 4.96 2.02 40.1606
28.29636 4.94 2.02 40.1606
44.33376 4.9 2.02 66.8896
21.41664 4.16 2.02 28.6944
8.665944 3.38 2.02 7.44324
8.665944 3.36 2.02 7.44324
8.358006 3.0 2.02 6.93001
8.358006 2.96 2.02 6.93001
8.665944 2.58 2.02 7.44324
8.665944 2.54 2.02 7.44324
9.023147999999999 2.44 2.02 8.03858
9.941628000000001 2.32 2.02 9.56938
8.358006 2.12 2.02 6.93001
9.442464 2.06 2.02 8.73744
8.665944 1.94 2.02 7.44324
8.665944 1.9 2.02 7.44324
21.41664 1.0 2.02 28.6944
21.41664 0.98 2.02 28.6944
9.023147999999999 -1.22 2.02 8.03858
9.023147999999999 -1.54 2.02 8.03858
21.41664 -3.04 2.02 28.6944
17.592840000000002 -3.12 2.02 22.3214
28.29636 -3.36 2.02 40.1606
124.19999999999999 -4.14 2.02 200.0
28.29636 -4.28 2.02 40.1606
28.29636 -4.74 2.02 40.1606
21.41664 5.72 2.0 28.6944
17.592840000000002 5.62 2.0 22.3214
28.29636 5.18 2.0 40.1606
28.29636 4.78 2.0 40.1606
21.41664 4.16 2.0 28.6944
8.665944 3.38 2.0 7.44324
8.665944 3.34 2.0 7.44324
9.023147999999999 2.66 2.0 8.03858
9.442464 2.06 2.0 8.73744
8.358006 1.92 2.0 6.93001
8.358006 1.9 2.0 6.93001
21.41664 1.0 2.0 28.6944
9.023147999999999 -1.22 2.0 8.03858
9.023147999999999 -1.54 2.0 8.03858
17.592840000000002 -3.12 2.0 22.3214
28.29636 -3.34 2.0 40.1606
28.29636 -3.36 2.0 40.1606
124.19999999999999 -3.8 2.0 200.0
21.41664 -3.86 2.0 28.6944
17.592840000000002 -3.94 2.0 22.3214
28.29636 -4.02 2.0 40.1606
28.29636 -4.28 2.0 40.1606
21.41664 -4.38 2.0 28.6944
17.592840000000002 5.62 1.98 22.3214
17.592840000000002 5.6 1.98 22.3214
17.592840000000002 5.54 1.98 22.3214
28.29636 5.34 1.98 40.1606
28.29636 5.2 1.98 40.1606
21.41664 4.16 1.98 28.6944
8.665944 3.38 1.98 7.44324
8.665944 3.34 1.98 7.44324
7.645308 2.22 1.98 5.74218
7.645308 2.2 1.98 5.74218
9.442464 2.06 1.98 8.73744
8.358006 1.92 1.98 6.93001
8.358006 1.9 1.98 6.93001
21.41664 1.0 1.98 28.6944
21.41664 -1.22 1.98 28.6944
21.41664 -1.54 1.98 28.6944
21.41664 -3.06 1.98 28.6944
124.19999999999999 -3.2 1.98 200.0
28.29636 -3.3 1.98 40.1606
28.29636 -3.34 1.98 40.1606
28.29636 -3.36 1.98 40.1606
124.19999999999999 -3.8 1.98 200.0
44.33376 -4.06 1.98 66.8896
21.41664 -4.8 1.98 28.6944
17.592840000000002 5.62 1.96 22.3214
17.592840000000002 5.6 1.96 22.3214
28.29636 5.2 1.96 40.1606
8.665944 3.38 1.96 7.44324
8.665944 3.34 1.96 7.44324
7.645308 2.22 1.96 5.74218
7.645308 2.2 1.96 5.74218
7.645308 2.18 1.96 5.74218
8.358006 1.9 1.96 6.93001
21.41664 1.0 1.96 28.6944
11.29218 -0.98 1.96 11.8203
21.41664 -1.22 1.96 28.6944
21.41664 -1.24 1.96 28.6944
21.41664 -1.52 1.96 28.6944
21.41664 -3.06 1.96 28.6944
124.19999999999999 -3.2 1.96 200.0
44.33376 -3.3 1.96 66.8896
28.29636 -3.34 1.96 40.1606
28.29636 -3.36 1.96 40.1606
21.41664 -3.6 1.96 28.6944
124.19999999999999 -3.8 1.96 200.0
124.19999999999999 -3.84 1.96 200.0
21.41664 -4.0 1.96 28.6944
21.41664 -4.38 1.96 28.6944
21.41664 -4.72 1.96 28.6944
17.592840000000002 5.6 1.94 22.3214
17.592840000000002 5.28 1.94 22.3214
28.29636 5.2 1.94 40.1606
8.358006 3.38 1.94 6.93001
8.358006 3.36 1.94 6.93001
7.8540779999999994 3.26 1.94 6.09013
8.358006 3.2 1.94 6.93001
8.358006 3.16 1.94 6.93001
8.358006 3.14 1.94 6.93001
8.665944 3.08 1.94 7.44324
7.8540779999999994 2.78 1.94 6.09013
7.8540779999999994 2.64 1.94 6.09013
7.8540779999999994 2.2 1.94 6.09013
7.645308 2.18 1.94 5.74218
8.358006 2.12 1.94 6.93001
8.358006 2.1 1.94 6.93001
21.41664 1.04 1.94 28.6944
11.29218 -0.98 1.94 11.8203
11.29218 -1.0 1.94 11.8203
21.41664 -1.22 1.94 28.6944
21.41664 -1.24 1.94 28.6944
21.41664 -1.5 1.94 28.6944
21.41664 -1.52 1.94 28.6944
21.41664 -3.04 1.94 28.6944
21.41664 -3.06 1.94 28.6944
17.592840000000002 -3.12 1.94 22.3214
124.19999999999999 -3.8 1.94 200.0
17.592840000000002 5.6 1.92 22.3214
17.592840000000002 5.28 1.92 22.3214
17.592840000000002 5.0 1.92 22.3214
17.592840000000002 4.98 1.92 22.3214
28.29636 4.66 1.92 40.1606
28.29636 4.34 1.92 40.1606
44.33376 4.16 1.92 66.8896
8.358006 3.38 1.92 6.93001
8.358006 3.36 1.92 6.93001
8.358006 3.24 1.92 6.93001
8.358006 3.2 1.92 6.93001
8.358006 3.18 1.92 6.93001
8.358006 3.14 1.92 6.93001
8.665944 3.04 1.92 7.44324
8.665944 3.02 1.92 7.44324
7.8540779999999994 2.92 1.92 6.09013
8.358006 2.72 1.92 6.93001
8.358006 2.7 1.92 6.93001
8.358006 2.28 1.92 6.93001
8.358006 2.16 1.92 6.93001
8.665944 2.12 1.92 7.44324
8.358006 2.1 1.92 6.93001
7.8540779999999994 2.0 1.92 6.09013
7.8540779999999994 1.98 1.92 6.09013
21.41664 1.0 1.92 28.6944
11.29218 -0.98 1.92 11.8203
11.29218 -1.0 1.92 11.8203
21.41664 -1.22 1.92 28.6944
21.41664 -1.24 1.92 28.6944
21.41664 -1.52 1.92 28.6944
21.41664 -3.04 1.92 28.6944
21.41664 -3.06 1.92 28.6944
17.592840000000002 -3.12 1.92 22.3214
124.19999999999999 -3.18 1.92 200.0
44.33376 -3.3 1.92 66.8896
21.41664 -3.56 1.92 28.6944
124.19999999999999 -3.8 1.92 200.0
28.29636 -4.0 1.92 40.1606
21.41664 -4.82 1.92 28.6944
28.29636 5.66 1.9 40.1606
17.592840000000002 5.28 1.9 22.3214
17.592840000000002 5.0 1.9 22.3214
17.592840000000002 4.98 1.9 22.3214
17.592840000000002 4.72 1.9 22.3214
28.29636 4.34 1.9 40.1606
44.33376 4.18 1.9 66.8896
44.33376 4.08 1.9 66.8896
8.358006 3.38 1.9 6.93001
8.358006 3.36 1.9 6.93001
8.358006 3.34 1.9 6.93001
8.358006 3.2 1.9 6.93001
8.358006 3.18 1.9 6.93001
8.358006 2.72 1.9 6.93001
8.358006 2.7 1.9 6.93001
8.358006 2.3 1.9 6.93001
8.358006 2.28 1.9 6.93001
8.358006 2.24 1.9 6.93001
8.665944 2.16 1.9 7.44324
8.665944 2.12 1.9 7.44324
8.358006 2.1 1.9 6.93001
7.8540779999999994 1.98 1.9 6.09013
8.358006 1.9 1.9 6.93001
12.23748 -0.92 1.9 13.3958
11.29218 -0.98 1.9 11.8203
11.29218 -1.0 1.9 11.8203
12.23748 -1.22 1.9 13.3958
12.23748 -1.24 1.9 13.3958
21.41664 -1.52 1.9 28.6944
21.41664 -3.04 1.9 28.6944
17.592840000000002 -3.12 1.9 22.3214
44.33376 -3.3 1.9 66.8896
124.19999999999999 -3.8 1.9 200.0
28.29636 -3.98 1.9 40.1606
21.41664 -4.78 1.9 28.6944
28.29636 -5.12 1.9 40.1606
28.29636 5.66 1.88 40.1606
17.592840000000002 5.56 1.88 22.3214
17.592840000000002 5.28 1.88 22.3214
17.592840000000002 5.0 1.88 22.3214
17.592840000000002 4.98 1.88 22.3214
17.592840000000002 4.72 1.88 22.3214
17.592840000000002 4.7 1.88 22.3214
44.33376 4.18 1.88 66.8896
44.33376 4.08 1.88 66.8896
28.29636 3.54 1.88 40.1606
8.358006 3.38 1.88 6.93001
8.358006 3.34 1.88 6.93001
8.665944 3.14 1.88 7.44324
8.358006 2.84 1.88 6.93001
8.358006 2.82 1.88 6.93001
8.358006 2.8 1.88 6.93001
8.665944 2.76 1.88 7.44324
8.358006 2.74 1.88 6.93001
8.358006 2.7 1.88 6.93001
8.665944 2.42 1.88 7.44324
9.023147999999999 2.4 1.88 8.03858
8.358006 2.3 1.88 6.93001
8.358006 2.28 1.88 6.93001
9.442464 2.24 1.88 8.73744
8.665944 2.12 1.88 7.44324
8.665944 2.1 1.88 7.44324
9.442464 2.04 1.88 8.73744
8.358006 1.9 1.88 6.93001
21.41664 -0.7 1.88 28.6944
12.23748 -0.92 1.88 13.3958
11.29218 -1.0 1.88 11.8203
12.23748 -1.24 1.88 13.3958
21.41664 -1.52 1.88 28.6944
21.41664 -3.04 1.88 28.6944
124.19999999999999 -3.84 1.88 200.0
44.33376 -3.94 1.88 66.8896
28.29636 -3.98 1.88 40.1606
12.23748 -4.44 1.88 13.3958
28.29636 -5.86 1.88 40.1606
17.592840000000002 5.56 1.86 22.3214
17.592840000000002 5.28 1.86 22.3214
17.592840000000002 5.0 1.86 22.3214
17.592840000000002 4.98 1.86 22.3214
17.592840000000002 4.72 1.86 22.3214
17.592840000000002 4.44 1.86 22.3214
44.33376 4.18 1.86 66.8896
44.33376 4.08 1.86 66.8896
28.29636 3.54 1.86 40.1606
8.358006 3.38 1.86 6.93001
8.358006 3.34 1.86 6.93001
9.442464 3.1 1.86 8.73744
8.665944 3.0 1.86 7.44324
8.665944 2.96 1.86 7.44324
9.023147999999999 2.94 1.86 8.03858
9.023147999999999 2.9 1.86 8.03858
8.358006 2.82 1.86 6.93001
8.358006 2.8 1.86 6.93001
8.665944 2.78 1.86 7.44324
8.665944 2.76 1.86 7.44324
8.665944 2.5 1.86 7.44324
8.665944 2.46 1.86 7.44324
8.665944 2.42 1.86 7.44324
9.023147999999999 2.38 1.86 8.03858
9.023147999999999 2.36 1.86 8.03858
8.358006 2.3 1.86 6.93001
8.358006 2.28 1.86 6.93001
9.442464 2.22 1.86 8.73744
9.442464 2.2 1.86 8.73744
9.442464 2.06 1.86 8.73744
9.442464 2.04 1.86 8.73744
8.358006 1.9 1.86 6.93001
28.29636 -0.64 1.86 40.1606
21.41664 -0.7 1.86 28.6944
12.23748 -0.92 1.86 13.3958
21.41664 -1.0 1.86 28.6944
12.23748 -1.24 1.86 13.3958
21.41664 -1.52 1.86 28.6944
21.41664 -3.02 1.86 28.6944
17.592840000000002 -3.14 1.86 22.3214
21.41664 -3.58 1.86 28.6944
124.19999999999999 -3.8 1.86 200.0
124.19999999999999 -3.84 1.86 200.0
44.33376 -3.92 1.86 66.8896
44.33376 -3.94 1.86 66.8896
21.41664 -4.72 1.86 28.6944
17.592840000000002 5.82 1.84 22.3214
17.592840000000002 5.72 1.84 22.3214
17.592840000000002 5.56 1.84 22.3214
17.592840000000002 5.54 1.84 22.3214
17.592840000000002 5.48 1.84 22.3214
17.592840000000002 5.0 1.84 22.3214
17.592840000000002 4.72 1.84 22.3214
17.592840000000002 4.7 1.84 22.3214
17.592840000000002 4.44 1.84 22.3214
17.592840000000002 4.18 1.84 22.3214
44.33376 4.1 1.84 66.8896
44.33376 4.08 1.84 66.8896
28.29636 3.54 1.84 40.1606
8.665944 3.38 1.84 7.44324
8.665944 3.34 1.84 7.44324
9.442464 3.1 1.84 8.73744
9.442464 3.08 1.84 8.73744
8.665944 3.0 1.84 7.44324
8.665944 2.96 1.84 7.44324
9.023147999999999 2.94 1.84 8.03858
9.023147999999999 2.92 1.84 8.03858
9.023147999999999 2.9 1.84 8.03858
9.023147999999999 2.88 1.84 8.03858
8.358006 2.82 1.84 6.93001
11.29218 2.6 1.84 11.8203
8.665944 2.46 1.84 7.44324
8.665944 2.42 1.84 7.44324
9.023147999999999 2.4 1.84 8.03858
9.023147999999999 2.38 1.84 8.03858
9.023147999999999 2.36 1.84 8.03858
9.442464 2.2 1.84 8.73744
9.442464 2.06 1.84 8.73744
9.442464 2.04 1.84 8.73744
8.358006 1.94 1.84 6.93001
8.358006 1.9 1.84 6.93001
28.29636 -0.64 1.84 40.1606
21.41664 -0.7 1.84 28.6944
12.23748 -0.92 1.84 13.3958
12.23748 -0.94 1.84 13.3958
21.41664 -1.0 1.84 28.6944
12.23748 -1.24 1.84 13.3958
21.41664 -1.52 1.84 28.6944
17.592840000000002 -3.14 1.84 22.3214
28.29636 -3.42 1.84 40.1606
28.29636 -3.46 1.84 40.1606
28.29636 -3.48 1.84 40.1606
21.41664 -3.56 1.84 28.6944
21.41664 -3.58 1.84 28.6944
124.19999999999999 -3.8 1.84 200.0
124.19999999999999 -3.84 1.84 200.0
44.33376 -3.92 1.84 66.8896
15.15888 -4.28 1.84 18.2648
28.29636 -5.58 1.84 40.1606
28.29636 -5.6 1.84 40.1606
21.41664 -5.66 1.84 28.6944
28.29636 -5.86 1.84 40.1606
17.592840000000002 5.82 1.82 22.3214
17.592840000000002 5.56 1.82 22.3214
17.592840000000002 5.54 1.82 22.3214
17.592840000000002 5.46 1.82 22.3214
17.592840000000002 4.72 1.82 22.3214
17.592840000000002 4.44 1.82 22.3214
17.592840000000002 4.18 1.82 22.3214
17.592840000000002 4.16 1.82 22.3214
44.33376 4.1 1.82 66.8896
17.592840000000002 3.92 1.82 22.3214
17.592840000000002 3.9 1.82 22.3214
28.29636 3.54 1.82 40.1606
8.665944 3.38 1.82 7.44324
8.665944 3.34 1.82 7.44324
9.023147999999999 2.9 1.82 8.03858
9.023147999999999 2.38 1.82 8.03858
9.023147999999999 2.36 1.82 8.03858
8.358006 1.94 1.82 6.93001
8.358006 1.9 1.82 6.93001
28.29636 -0.64 1.82 40.1606
21.41664 -0.7 1.82 28.6944
12.23748 -0.92 1.82 13.3958
12.23748 -0.94 1.82 13.3958
21.41664 -1.0 1.82 28.6944
12.23748 -1.24 1.82 13.3958
21.41664 -1.52 1.82 28.6944
15.15888 -3.2 1.82 18.2648
15.15888 -3.24 1.82 18.2648
28.29636 -3.46 1.82 40.1606
21.41664 -3.54 1.82 28.6944
124.19999999999999 -3.84 1.82 200.0
21.41664 -3.92 1.82 28.6944
17.592840000000002 -4.0 1.82 22.3214
44.33376 -5.5 1.82 66.8896
28.29636 -5.58 1.82 40.1606
28.29636 -5.6 1.82 40.1606
21.41664 -5.66 1.82 28.6944
17.592840000000002 5.74 1.8 22.3214
17.592840000000002 5.56 1.8 22.3214
17.592840000000002 5.54 1.8 22.3214
17.592840000000002 5.48 1.8 22.3214
17.592840000000002 5.46 1.8 22.3214
44.33376 5.4 1.8 66.8896
44.33376 4.8 1.8 66.8896
44.33376 4.78 1.8 66.8896
17.592840000000002 4.44 1.8 22.3214
17.592840000000002 4.18 1.8 22.3214
17.592840000000002 4.16 1.8 22.3214
17.592840000000002 3.9 1.8 22.3214
17.592840000000002 3.66 1.8 22.3214
28.29636 3.54 1.8 40.1606
8.665944 3.38 1.8 7.44324
8.665944 3.36 1.8 7.44324
8.665944 1.92 1.8 7.44324
8.665944 1.9 1.8 7.44324
28.29636 -0.64 1.8 40.1606
21.41664 -0.7 1.8 28.6944
21.41664 -0.72 1.8 28.6944
12.23748 -0.92 1.8 13.3958
12.23748 -0.94 1.8 13.3958
21.41664 -1.0 1.8 28.6944
12.23748 -1.24 1.8 13.3958
21.41664 -1.52 1.8 28.6944
21.41664 -3.06 1.8 28.6944
15.15888 -3.2 1.8 18.2648
28.29636 -3.5 1.8 40.1606
124.19999999999999 -3.84 1.8 200.0
21.41664 -3.9 1.8 28.6944
21.41664 -3.92 1.8 28.6944
17.592840000000002 -3.98 1.8 22.3214
17.592840000000002 -4.0 1.8 22.3214
21.41664 -4.34 1.8 28.6944
28.29636 -5.58 1.8 40.1606
28.29636 -5.6 1.8 40.1606
21.41664 -5.66 1.8 28.6944
28.29636 -5.86 1.8 40.1606
28.29636 5.68 1.78 40.1606
17.592840000000002 5.56 1.78 22.3214
44.33376 4.78 1.78 66.8896
17.592840000000002 4.18 1.78 22.3214
17.592840000000002 4.16 1.78 22.3214
17.592840000000002 3.9 1.78 22.3214
17.592840000000002 3.66 1.78 22.3214
17.592840000000002 3.64 1.78 22.3214
8.665944 3.36 1.78 7.44324
8.665944 1.94 1.78 7.44324
8.665944 1.92 1.78 7.44324
28.29636 -0.64 1.78 40.1606
21.41664 -0.7 1.78 28.6944
21.41664 -0.72 1.78 28.6944
21.41664 -0.94 1.78 28.6944
21.41664 -1.0 1.78 28.6944
21.41664 -1.02 1.78 28.6944
12.23748 -1.24 1.78 13.3958
21.41664 -1.52 1.78 28.6944
21.41664 -3.06 1.78 28.6944
13.4736 -3.34 1.78 15.456
28.29636 -3.5 1.78 40.1606
124.19999999999999 -3.8 1.78 200.0
124.19999999999999 -3.84 1.78 200.0
124.19999999999999 -3.86 1.78 200.0
21.41664 -3.9 1.78 28.6944
17.592840000000002 -3.98 1.78 22.3214
21.41664 -4.28 1.78 28.6944
21.41664 -4.3 1.78 28.6944
28.29636 -5.6 1.78 40.1606
21.41664 -5.66 1.78 28.6944
17.592840000000002 5.76 1.76 22.3214
17.592840000000002 5.58 1.76 22.3214
17.592840000000002 4.5 1.76 22.3214
17.592840000000002 4.48 1.76 22.3214
17.592840000000002 3.9 1.76 22.3214
17.592840000000002 3.66 1.76 22.3214
17.592840000000002 3.64 1.76 22.3214
8.665944 1.96 1.76 7.44324
8.665944 1.94 1.76 7.44324
28.29636 -0.64 1.76 40.1606
21.41664 -0.7 1.76 28.6944
21.41664 -0.94 1.76 28.6944
21.41664 -1.0 1.76 28.6944
21.41664 -1.02 1.76 28.6944
12.23748 -1.24 1.76 13.3958
21.41664 -1.52 1.76 28.6944
21.41664 -3.04 1.76 28.6944
21.41664 -3.06 1.76 28.6944
13.4736 -3.32 1.76 15.456
13.4736 -3.34 1.76 15.456
124.19999999999999 -3.66 1.76 200.0
124.19999999999999 -3.8 1.76 200.0
124.19999999999999 -3.84 1.76 200.0
124.19999999999999 -3.86 1.76 200.0
17.592840000000002 -3.96 1.76 22.3214
124.19999999999999 -4.12 1.76 200.0
21.41664 -4.28 1.76 28.6944
28.29636 -4.36 1.76 40.1606
28.29636 -5.6 1.76 40.1606
21.41664 -5.66 1.76 28.6944
28.29636 -5.86 1.76 40.1606
17.592840000000002 5.58 1.74 22.3214
17.592840000000002 4.5 1.74 22.3214
17.592840000000002 4.48 1.74 22.3214
28.29636 4.36 1.74 40.1606
17.592840000000002 3.66 1.74 22.3214
17.592840000000002 3.64 1.74 22.3214
8.665944 2.5 1.74 7.44324
8.358006 2.48 1.74 6.93001
8.665944 2.02 1.74 7.44324
8.665944 2.0 1.74 7.44324
8.665944 1.98 1.74 7.44324
8.665944 1.96 1.74 7.44324
28.29636 -0.64 1.74 40.1606
21.41664 -0.7 1.74 28.6944
21.41664 -0.72 1.74 28.6944
21.41664 -0.74 1.74 28.6944
124.19999999999999 -0.84 1.74 200.0
21.41664 -0.92 1.74 28.6944
21.41664 -0.94 1.74 28.6944
21.41664 -1.0 1.74 28.6944
21.41664 -1.02 1.74 28.6944
11.29218 -1.24 1.74 11.8203
21.41664 -3.04 1.74 28.6944
21.41664 -3.06 1.74 28.6944
13.4736 -3.32 1.74 15.456
44.33376 -3.74 1.74 66.8896
124.19999999999999 -3.8 1.74 200.0
124.19999999999999 -3.84 1.74 200.0
124.19999999999999 -3.86 1.74 200.0
124.19999999999999 -4.1 1.74 200.0
21.41664 -4.28 1.74 28.6944
28.29636 -5.6 1.74 40.1606
21.41664 -5.66 1.74 28.6944
28.29636 -5.86 1.74 40.1606
17.592840000000002 5.6 1.72 22.3214
17.592840000000002 5.58 1.72 22.3214
17.592840000000002 5.26 1.72 22.3214
17.592840000000002 5.24 1.72 22.3214
17.592840000000002 4.52 1.72 22.3214
17.592840000000002 4.5 1.72 22.3214
17.592840000000002 4.48 1.72 22.3214
28.29636 4.38 1.72 40.1606
28.29636 4.36 1.72 40.1606
28.29636 4.34 1.72 40.1606
8.358006 2.5 1.72 6.93001
28.29636 -0.64 1.72 40.1606
21.41664 -0.7 1.72 28.6944
21.41664 -0.72 1.72 28.6944
21.41664 -0.74 1.72 28.6944
21.41664 -0.92 1.72 28.6944
21.41664 -0.94 1.72 28.6944
21.41664 -1.0 1.72 28.6944
21.41664 -1.02 1.72 28.6944
21.41664 -1.52 1.72 28.6944
21.41664 -1.54 1.72 28.6944
28.29636 -3.02 1.72 40.1606
28.29636 -3.04 1.72 40.1606
44.33376 -3.46 1.72 66.8896
124.19999999999999 -3.8 1.72 200.0
124.19999999999999 -3.86 1.72 200.0
21.41664 -3.94 1.72 28.6944
21.41664 -3.96 1.72 28.6944
21.41664 -4.18 1.72 28.6944
21.41664 -4.26 1.72 28.6944
21.41664 -4.52 1.72 28.6944
28.29636 -5.6 1.72 40.1606
17.592840000000002 5.58 1.7 22.3214
124.19999999999999 5.46 1.7 200.0
17.592840000000002 5.26 1.7 22.3214
17.592840000000002 5.24 1.7 22.3214
17.592840000000002 5.14 1.7 22.3214
17.592840000000002 4.96 1.7 22.3214
17.592840000000002 4.48 1.7 22.3214
28.29636 4.16 1.7 40.1606
28.29636 4.14 1.7 40.1606
28.29636 4.12 1.7 40.1606
28.29636 4.1 1.7 40.1606
8.665944 2.84 1.7 7.44324
8.358006 2.52 1.7 6.93001
8.358006 2.44 1.7 6.93001
28.29636 -0.64 1.7 40.1606
124.19999999999999 -0.7 1.7 200.0
124.19999999999999 -0.74 1.7 200.0
21.41664 -0.94 1.7 28.6944
21.41664 -1.0 1.7 28.6944
21.41664 -1.02 1.7 28.6944
21.41664 -1.52 1.7 28.6944
21.41664 -1.54 1.7 28.6944
44.33376 -3.44 1.7 66.8896
124.19999999999999 -3.8 1.7 200.0
124.19999999999999 -3.86 1.7 200.0
21.41664 -3.94 1.7 28.6944
21.41664 -3.96 1.7 28.6944
17.592840000000002 -4.16 1.7 22.3214
21.41664 -4.22 1.7 28.6944
21.41664 -4.26 1.7 28.6944
28.29636 -5.6 1.7 40.1606
28.29636 -5.86 1.7 40.1606
17.592840000000002 5.58 1.68 22.3214
17.592840000000002 5.26 1.68 22.3214
17.592840000000002 5.24 1.68 22.3214
17.592840000000002 5.18 1.68 22.3214
17.592840000000002 4.96 1.68 22.3214
17.592840000000002 4.7 1.68 22.3214
17.592840000000002 4.68 1.68 22.3214
21.41664 4.54 1.68 28.6944
21.41664 4.52 1.68 28.6944
44.33376 4.2 1.68 66.8896
28.29636 4.12 1.68 40.1606
28.29636 4.1 1.68 40.1606
44.33376 4.04 1.68 66.8896
8.358006 2.92 1.68 6.93001
8.358006 2.52 1.68 6.93001
7.8540779999999994 2.42 1.68 6.09013
7.8540779999999994 2.4 1.68 6.09013
28.29636 -0.64 1.68 40.1606
124.19999999999999 -0.74 1.68 200.0
28.29636 -0.86 1.68 40.1606
28.29636 -0.94 1.68 40.1606
21.41664 -1.02 1.68 28.6944
21.41664 -1.54 1.68 28.6944
124.19999999999999 -3.16 1.68 200.0
17.592840000000002 -3.5 1.68 22.3214
124.19999999999999 -3.8 1.68 200.0
124.19999999999999 -3.86 1.68 200.0
17.592840000000002 -4.16 1.68 22.3214
21.41664 -4.22 1.68 28.6944
21.41664 -4.26 1.68 28.6944
21.41664 -4.28 1.68 28.6944
21.41664 -4.48 1.68 28.6944
12.23748 -4.76 1.68 13.3958
28.29636 -5.6 1.68 40.1606
28.29636 -5.86 1.68 40.1606
17.592840000000002 5.56 1.66 22.3214
17.592840000000002 5.26 1.66 22.3214
17.592840000000002 5.24 1.66 22.3214
17.592840000000002 5.2 1.66 22.3214
17.592840000000002 4.96 1.66 22.3214
17.592840000000002 4.7 1.66 22.3214
17.592840000000002 4.68 1.66 22.3214
28.29636 4.06 1.66 40.1606
8.358006 2.94 1.66 6.93001
8.358006 2.5 1.66 6.93001
8.358006 2.48 1.66 6.93001
8.089788 2.4 1.66 6.48298
8.089788 2.38 1.66 6.48298
8.358006 2.36 1.66 6.93001
28.29636 -0.64 1.66 40.1606
124.19999999999999 -0.74 1.66 200.0
21.41664 -1.02 1.66 28.6944
21.41664 -1.54 1.66 28.6944
28.29636 -3.28 1.66 40.1606
21.41664 -3.38 1.66 28.6944
124.19999999999999 -3.8 1.66 200.0
124.19999999999999 -3.86 1.66 200.0
17.592840000000002 -4.04 1.66 22.3214
17.592840000000002 -4.16 1.66 22.3214
21.41664 -4.28 1.66 28.6944
28.29636 -5.6 1.66 40.1606
28.29636 -5.86 1.66 40.1606
15.15888 5.84 1.64 18.2648
15.15888 5.82 1.64 18.2648
17.592840000000002 5.56 1.64 22.3214
17.592840000000002 5.54 1.64 22.3214
17.592840000000002 5.36 1.64 22.3214
17.592840000000002 4.96 1.64 22.3214
17.592840000000002 4.7 1.64 22.3214
17.592840000000002 4.68 1.64 22.3214
17.592840000000002 4.42 1.64 22.3214
17.592840000000002 4.4 1.64 22.3214
17.592840000000002 4.16 1.64 22.3214
28.29636 3.52 1.64 40.1606
8.358006 2.96 1.64 6.93001
8.665944 2.8 1.64 7.44324
8.665944 2.78 1.64 7.44324
8.358006 2.48 1.64 6.93001
8.358006 2.46 1.64 6.93001
8.358006 2.36 1.64 6.93001
8.358006 2.34 1.64 6.93001
124.19999999999999 -0.74 1.64 200.0
21.41664 -1.02 1.64 28.6944
21.41664 -1.24 1.64 28.6944
21.41664 -1.54 1.64 28.6944
21.41664 -3.1 1.64 28.6944
17.592840000000002 -3.46 1.64 22.3214
124.19999999999999 -3.8 1.64 200.0
124.19999999999999 -3.86 1.64 200.0
44.33376 -3.96 1.64 66.8896
21.41664 -4.28 1.64 28.6944
21.41664 -4.3 1.64 28.6944
21.41664 -4.38 1.64 28.6944
28.29636 -5.6 1.64 40.1606
28.29636 -5.86 1.64 40.1606
17.592840000000002 5.54 1.62 22.3214
17.592840000000002 5.36 1.62 22.3214
17.592840000000002 5.34 1.62 22.3214
17.592840000000002 4.92 1.62 22.3214
17.592840000000002 4.9 1.62 22.3214
17.592840000000002 4.7 1.62 22.3214
17.592840000000002 4.68 1.62 22.3214
17.592840000000002 4.42 1.62 22.3214
17.592840000000002 4.4 1.62 22.3214
17.592840000000002 4.16 1.62 22.3214
17.592840000000002 4.14 1.62 22.3214
17.592840000000002 3.88 1.62 22.3214
28.29636 3.52 1.62 40.1606
8.358006 2.98 1.62 6.93001
8.358006 2.86 1.62 6.93001
8.665944 2.84 1.62 7.44324
8.665944 2.82 1.62 7.44324
8.358006 2.44 1.62 6.93001
8.358006 2.42 1.62 6.93001
8.358006 2.36 1.62 6.93001
8.358006 2.32 1.62 6.93001
124.19999999999999 -1.04 1.62 200.0
21.41664 -1.24 1.62 28.6944
21.41664 -1.54 1.62 28.6944
28.29636 -3.04 1.62 40.1606
21.41664 -3.12 1.62 28.6944
17.592840000000002 -3.62 1.62 22.3214
15.15888 -3.7 1.62 18.2648
124.19999999999999 -3.78 1.62 200.0
124.19999999999999 -3.8 1.62 200.0
124.19999999999999 -3.86 1.62 200.0
21.41664 -4.28 1.62 28.6944
21.41664 -4.34 1.62 28.6944
21.41664 -4.36 1.62 28.6944
15.15888 -4.5 1.62 18.2648
28.29636 -5.6 1.62 40.1606
28.29636 -5.86 1.62 40.1606
17.592840000000002 5.54 1.6 22.3214
124.19999999999999 5.02 1.6 200.0
17.592840000000002 4.92 1.6 22.3214
17.592840000000002 4.9 1.6 22.3214
17.592840000000002 4.88 1.6 22.3214
17.592840000000002 4.16 1.6 22.3214
17.592840000000002 4.14 1.6 22.3214
17.592840000000002 3.88 1.6 22.3214
17.592840000000002 3.62 1.6 22.3214
8.358006 2.88 1.6 6.93001
8.358006 2.86 1.6 6.93001
8.358006 2.42 1.6 6.93001
8.358006 2.4 1.6 6.93001
8.358006 2.34 1.6 6.93001
8.358006 2.3 1.6 6.93001
124.19999999999999 -1.04 1.6 200.0
21.41664 -1.54 1.6 28.6944
44.33376 -3.46 1.6 66.8896
17.592840000000002 -3.62 1.6 22.3214
124.19999999999999 -3.8 1.6 200.0
124.19999999999999 -3.86 1.6 200.0
124.19999999999999 -3.88 1.6 200.0
21.41664 -4.08 1.6 28.6944
44.33376 -4.2 1.6 66.8896
21.41664 -4.26 1.6 28.6944
21.41664 -4.34 1.6 28.6944
28.29636 -5.6 1.6 40.1606
28.29636 -5.86 1.6 40.1606
17.592840000000002 5.54 1.58 22.3214
21.41664 5.48 1.58 28.6944
21.41664 5.44 1.58 28.6944
17.592840000000002 4.94 1.58 22.3214
17.592840000000002 4.92 1.58 22.3214
17.592840000000002 4.9 1.58 22.3214
17.592840000000002 4.88 1.58 22.3214
17.592840000000002 4.5 1.58 22.3214
17.592840000000002 4.32 1.58 22.3214
17.592840000000002 4.16 1.58 22.3214
17.592840000000002 4.14 1.58 22.3214
17.592840000000002 3.88 1.58 22.3214
17.592840000000002 3.62 1.58 22.3214
44.33376 3.46 1.58 66.8896
8.358006 2.9 1.58 6.93001
8.358006 2.88 1.58 6.93001
8.358006 2.4 1.58 6.93001
8.358006 2.38 1.58 6.93001
8.358006 2.32 1.58 6.93001
8.358006 2.28 1.58 6.93001
21.41664 0.96 1.58 28.6944
21.41664 0.94 1.58 28.6944
124.19999999999999 -1.04 1.58 200.0
21.41664 -1.54 1.58 28.6944
124.19999999999999 -3.14 1.58 200.0
21.41664 -3.34 1.58 28.6944
44.33376 -3.4 1.58 66.8896
124.19999999999999 -3.78 1.58 200.0
124.19999999999999 -3.8 1.58 200.0
124.19999999999999 -3.86 1.58 200.0
124.19999999999999 -3.88 1.58 200.0
21.41664 -4.08 1.58 28.6944
21.41664 -4.32 1.58 28.6944
15.15888 -4.54 1.58 18.2648
28.29636 -4.82 1.58 40.1606
28.29636 -5.6 1.58 40.1606
17.592840000000002 5.74 1.56 22.3214
124.19999999999999 5.06 1.56 200.0
124.19999999999999 5.04 1.56 200.0
17.592840000000002 4.94 1.56 22.3214
17.592840000000002 4.92 1.56 22.3214
17.592840000000002 4.5 1.56 22.3214
17.592840000000002 4.3 1.56 22.3214
17.592840000000002 4.14 1.56 22.3214
17.592840000000002 3.88 1.56 22.3214
17.592840000000002 3.62 1.56 22.3214
8.358006 2.92 1.56 6.93001
8.358006 2.9 1.56 6.93001
8.358006 2.38 1.56 6.93001
8.358006 2.36 1.56 6.93001
8.358006 2.3 1.56 6.93001
8.358006 2.26 1.56 6.93001
21.41664 0.96 1.56 28.6944
21.41664 -1.54 1.56 28.6944
124.19999999999999 -3.14 1.56 200.0
44.33376 -3.2 1.56 66.8896
21.41664 -3.34 1.56 28.6944
21.41664 -3.66 1.56 28.6944
124.19999999999999 -3.78 1.56 200.0
124.19999999999999 -3.8 1.56 200.0
124.19999999999999 -3.86 1.56 200.0
124.19999999999999 -3.88 1.56 200.0
28.29636 -4.02 1.56 40.1606
28.29636 -4.04 1.56 40.1606
28.29636 -5.6 1.56 40.1606
28.29636 -5.86 1.56 40.1606
17.592840000000002 5.74 1.54 22.3214
17.592840000000002 4.94 1.54 22.3214
17.592840000000002 4.3 1.54 22.3214
17.592840000000002 3.88 1.54 22.3214
17.592840000000002 3.62 1.54 22.3214
8.358006 3.06 1.54 6.93001
8.358006 2.94 1.54 6.93001
8.358006 2.92 1.54 6.93001
8.358006 2.36 1.54 6.93001
8.358006 2.34 1.54 6.93001
8.358006 2.28 1.54 6.93001
8.358006 2.26 1.54 6.93001
8.358006 2.24 1.54 6.93001
21.41664 0.96 1.54 28.6944
12.23748 -1.54 1.54 13.3958
44.33376 -3.58 1.54 66.8896
21.41664 -3.64 1.54 28.6944
21.41664 -3.66 1.54 28.6944
124.19999999999999 -3.78 1.54 200.0
124.19999999999999 -3.8 1.54 200.0
124.19999999999999 -3.86 1.54 200.0
124.19999999999999 -3.88 1.54 200.0
28.29636 -4.02 1.54 40.1606
21.41664 -4.12 1.54 28.6944
21.41664 -4.22 1.54 28.6944
21.41664 -4.24 1.54 28.6944
21.41664 -4.26 1.54 28.6944
17.592840000000002 -4.4 1.54 22.3214
15.15888 -4.5 1.54 18.2648
28.29636 -4.78 1.54 40.1606
28.29636 -5.6 1.54 40.1606
28.29636 -5.86 1.54 40.1606
17.592840000000002 5.74 1.52 22.3214
21.41664 5.3 1.52 28.6944
21.41664 5.26 1.52 28.6944
17.592840000000002 4.94 1.52 22.3214
17.592840000000002 4.92 1.52 22.3214
21.41664 3.9 1.52 28.6944
17.592840000000002 3.62 1.52 22.3214
17.592840000000002 3.36 1.52 22.3214
8.358006 3.06 1.52 6.93001
8.358006 2.94 1.52 6.93001
8.358006 2.34 1.52 6.93001
8.358006 2.32 1.52 6.93001
8.358006 2.24 1.52 6.93001
28.29636 1.06 1.52 40.1606
21.41664 0.98 1.52 28.6944
12.23748 -1.5 1.52 13.3958
11.29218 -1.54 1.52 11.8203
21.41664 -3.66 1.52 28.6944
124.19999999999999 -3.78 1.52 200.0
124.19999999999999 -3.8 1.52 200.0
124.19999999999999 -3.86 1.52 200.0
124.19999999999999 -3.88 1.52 200.0
21.41664 -4.1 1.52 28.6944
21.41664 -4.26 1.52 28.6944
17.592840000000002 -4.4 1.52 22.3214
28.29636 -4.78 1.52 40.1606
28.29636 -5.86 1.52 40.1606
17.592840000000002 5.86 1.5 22.3214
17.592840000000002 5.74 1.5 22.3214
21.41664 5.3 1.5 28.6944
21.41664 5.26 1.5 28.6944
21.41664 5.24 1.5 28.6944
44.33376 5.0 1.5 66.8896
17.592840000000002 4.94 1.5 22.3214
17.592840000000002 4.92 1.5 22.3214
21.41664 4.18 1.5 28.6944
21.41664 4.16 1.5 28.6944
21.41664 3.92 1.5 28.6944
21.41664 3.9 1.5 28.6944
21.41664 3.86 1.5 28.6944
13.4736 3.44 1.5 15.456
17.592840000000002 3.36 1.5 22.3214
8.358006 3.06 1.5 6.93001
8.358006 2.96 1.5 6.93001
8.358006 2.32 1.5 6.93001
8.358006 2.22 1.5 6.93001
21.41664 1.04 1.5 28.6944
21.41664 1.0 1.5 28.6944
12.23748 -1.5 1.5 13.3958
11.29218 -1.54 1.5 11.8203
11.29218 -1.56 1.5 11.8203
44.33376 -3.6 1.5 66.8896
28.29636 -3.64 1.5 40.1606
21.41664 -3.72 1.5 28.6944
21.41664 -3.74 1.5 28.6944
124.19999999999999 -3.78 1.5 200.0
124.19999999999999 -3.88 1.5 200.0
28.29636 -4.06 1.5 40.1606
28.29636 -4.1 1.5 40.1606
28.29636 -4.26 1.5 40.1606
17.592840000000002 -4.38 1.5 22.3214
17.592840000000002 5.74 1.48 22.3214
21.41664 4.94 1.48 28.6944
17.592840000000002 4.92 1.48 22.3214
17.592840000000002 4.6 1.48 22.3214
17.592840000000002 4.58 1.48 22.3214
17.592840000000002 4.4 1.48 22.3214
17.592840000000002 4.38 1.48 22.3214
21.41664 4.18 1.48 28.6944
21.41664 4.16 1.48 28.6944
21.41664 3.9 1.48 28.6944
21.41664 3.86 1.48 28.6944
21.41664 3.84 1.48 28.6944
21.41664 3.82 1.48 28.6944
28.29636 3.54 1.48 40.1606
17.592840000000002 3.36 1.48 22.3214
8.358006 3.08 1.48 6.93001
8.358006 2.98 1.48 6.93001
8.358006 2.32 1.48 6.93001
8.358006 2.3 1.48 6.93001
8.358006 2.24 1.48 6.93001
8.358006 2.22 1.48 6.93001
21.41664 -1.24 1.48 28.6944
12.23748 -1.5 1.48 13.3958
11.29218 -1.56 1.48 11.8203
28.29636 -3.2 1.48 40.1606
124.19999999999999 -3.38 1.48 200.0
44.33376 -3.58 1.48 66.8896
21.41664 -3.72 1.48 28.6944
21.41664 -3.74 1.48 28.6944
124.19999999999999 -3.88 1.48 200.0
44.33376 -3.96 1.48 66.8896
28.29636 -4.02 1.48 40.1606
28.29636 -4.06 1.48 40.1606
28.29636 -4.2 1.48 40.1606
28.29636 -5.86 1.48 40.1606
17.592840000000002 5.74 1.46 22.3214
15.15888 5.38 1.46 18.2648
28.29636 4.98 1.46 40.1606
17.592840000000002 4.92 1.46 22.3214
44.33376 4.76 1.46 66.8896
17.592840000000002 4.6 1.46 22.3214
17.592840000000002 4.58 1.46 22.3214
17.592840000000002 4.4 1.46 22.3214
17.592840000000002 4.38 1.46 22.3214
21.41664 4.18 1.46 28.6944
21.41664 4.16 1.46 28.6944
21.41664 3.9 1.46 28.6944
21.41664 3.82 1.46 28.6944
124.19999999999999 3.76 1.46 200.0
21.41664 3.54 1.46 28.6944
17.592840000000002 3.36 1.46 22.3214
8.358006 3.08 1.46 6.93001
8.358006 2.98 1.46 6.93001
8.358006 2.56 1.46 6.93001
8.358006 2.3 1.46 6.93001
8.358006 2.2 1.46 6.93001
21.41664 -1.24 1.46 28.6944
21.41664 -1.46 1.46 28.6944
44.33376 -3.56 1.46 66.8896
