VERSION .7
FIELDS x y z rgb
SIZE 4 4 4 4
TYPE F F F F
COUNT 1 1 1 1
WIDTH 1344
HEIGHT 1
VIEWPOINT 0 0 0 1 0 0 0
POINTS 1344
DATA ascii
21.41664 -5.98 1.08 5000028.6944
28.29636 -6.12 1.08 5000040.1606
21.41664 -6.18 1.08 5000028.6944
17.592840000000002 -6.26 1.08 5000022.3214
17.592840000000002 2.28 1.06 5000022.3214
17.592840000000002 2.24 1.06 5000022.3214
17.592840000000002 2.22 1.06 5000022.3214
21.41664 -0.4 1.06 5000028.6944
124.19999999999999 -0.8 1.06 5000200.0
124.19999999999999 -0.82 1.06 5000200.0
21.41664 -1.0 1.06 5000028.6944
28.29636 -1.14 1.06 5000040.1606
17.592840000000002 -1.22 1.06 5000022.3214
21.41664 -1.82 1.06 5000028.6944
28.29636 -2.14 1.06 5000040.1606
124.19999999999999 -2.36 1.06 5000200.0
28.29636 -2.48 1.06 5000040.1606
28.29636 -2.54 1.06 5000040.1606
15.15888 -2.7 1.06 5000018.2648
15.15888 -2.72 1.06 5000018.2648
28.29636 -3.8 1.06 5000040.1606
21.41664 -3.86 1.06 5000028.6944
28.29636 -5.2 1.06 5000040.1606
28.29636 -5.92 1.06 5000040.1606
21.41664 -5.98 1.06 5000028.6944
28.29636 -6.12 1.06 5000040.1606
21.41664 -6.18 1.06 5000028.6944
21.41664 -6.2 1.06 5000028.6944
17.592840000000002 -6.26 1.06 5000022.3214
15.15888 5.36 1.04 5000018.2648
17.592840000000002 2.3 1.04 5000022.3214
17.592840000000002 2.28 1.04 5000022.3214
17.592840000000002 2.22 1.04 5000022.3214
21.41664 -0.4 1.04 5000028.6944
124.19999999999999 -0.82 1.04 5000200.0
21.41664 -1.0 1.04 5000028.6944
124.19999999999999 -1.14 1.04 5000200.0
21.41664 -1.22 1.04 5000028.6944
17.592840000000002 -1.3 1.04 5000022.3214
10.54584 -1.64 1.04 5000010.5764
8.665944 -1.9 1.04 5000007.44324
28.29636 -2.14 1.04 5000040.1606
21.41664 -2.54 1.04 5000028.6944
12.23748 -2.6 1.04 5000013.3958
15.15888 -2.7 1.04 5000018.2648
28.29636 -3.8 1.04 5000040.1606
28.29636 -5.92 1.04 5000040.1606
21.41664 -5.98 1.04 5000028.6944
28.29636 -6.12 1.04 5000040.1606
21.41664 -6.18 1.04 5000028.6944
21.41664 -6.2 1.04 5000028.6944
17.592840000000002 -6.26 1.04 5000022.3214
15.15888 5.38 1.02 5000018.2648
15.15888 5.36 1.02 5000018.2648
17.592840000000002 4.0 1.02 5000022.3214
17.592840000000002 2.3 1.02 5000022.3214
17.592840000000002 2.22 1.02 5000022.3214
21.41664 -0.4 1.02 5000028.6944
21.41664 -0.92 1.02 5000028.6944
21.41664 -1.0 1.02 5000028.6944
124.19999999999999 -1.14 1.02 5000200.0
21.41664 -1.22 1.02 5000028.6944
17.592840000000002 -1.3 1.02 5000022.3214
15.15888 -1.42 1.02 5000018.2648
28.29636 -2.14 1.02 5000040.1606
28.29636 -2.2 1.02 5000040.1606
21.41664 -2.28 1.02 5000028.6944
21.41664 -2.52 1.02 5000028.6944
15.15888 -2.7 1.02 5000018.2648
15.15888 -2.76 1.02 5000018.2648
28.29636 -3.8 1.02 5000040.1606
21.41664 -3.86 1.02 5000028.6944
28.29636 -5.92 1.02 5000040.1606
28.29636 -6.12 1.02 5000040.1606
21.41664 -6.18 1.02 5000028.6944
21.41664 -6.2 1.02 5000028.6944
15.15888 5.86 1.0 5000018.2648
15.15888 5.52 1.0 5000018.2648
15.15888 5.38 1.0 5000018.2648
15.15888 5.36 1.0 5000018.2648
17.592840000000002 3.54 1.0 5000022.3214
21.41664 -0.4 1.0 5000028.6944
124.19999999999999 -1.0 1.0 5000200.0
124.19999999999999 -1.14 1.0 5000200.0
21.41664 -1.22 1.0 5000028.6944
21.41664 -1.24 1.0 5000028.6944
17.592840000000002 -1.3 1.0 5000022.3214
28.29636 -2.14 1.0 5000040.1606
28.29636 -2.2 1.0 5000040.1606
44.33376 -2.4 1.0 5000066.8896
15.15888 -2.7 1.0 5000018.2648
15.15888 -2.72 1.0 5000018.2648
28.29636 -3.8 1.0 5000040.1606
28.29636 -4.72 1.0 5000040.1606
21.41664 -4.78 1.0 5000028.6944
28.29636 -5.2 1.0 5000040.1606
21.41664 -5.26 1.0 5000028.6944
15.15888 5.86 0.98 5000018.2648
15.15888 5.38 0.98 5000018.2648
17.592840000000002 4.0 0.98 5000022.3214
17.592840000000002 3.98 0.98 5000022.3214
17.592840000000002 3.52 0.98 5000022.3214
17.592840000000002 3.44 0.98 5000022.3214
21.41664 -0.4 0.98 5000028.6944
28.29636 -0.9 0.98 5000040.1606
28.29636 -0.92 0.98 5000040.1606
124.19999999999999 -1.0 0.98 5000200.0
124.19999999999999 -1.04 0.98 5000200.0
124.19999999999999 -1.14 0.98 5000200.0
21.41664 -1.22 0.98 5000028.6944
21.41664 -1.24 0.98 5000028.6944
28.29636 -2.14 0.98 5000040.1606
28.29636 -2.2 0.98 5000040.1606
44.33376 -2.4 0.98 5000066.8896
21.41664 -2.54 0.98 5000028.6944
21.41664 -2.56 0.98 5000028.6944
28.29636 -2.64 0.98 5000040.1606
15.15888 -2.7 0.98 5000018.2648
15.15888 -2.72 0.98 5000018.2648
28.29636 -3.8 0.98 5000040.1606
21.41664 -4.78 0.98 5000028.6944
28.29636 -5.2 0.98 5000040.1606
21.41664 -5.26 0.98 5000028.6944
15.15888 5.86 0.96 5000018.2648
15.15888 5.54 0.96 5000018.2648
15.15888 5.38 0.96 5000018.2648
17.592840000000002 4.0 0.96 5000022.3214
17.592840000000002 3.98 0.96 5000022.3214
17.592840000000002 3.0 0.96 5000022.3214
17.592840000000002 2.94 0.96 5000022.3214
17.592840000000002 2.92 0.96 5000022.3214
17.592840000000002 2.9 0.96 5000022.3214
21.41664 -0.4 0.96 5000028.6944
28.29636 -0.9 0.96 5000040.1606
28.29636 -0.92 0.96 5000040.1606
124.19999999999999 -1.04 0.96 5000200.0
124.19999999999999 -1.14 0.96 5000200.0
21.41664 -1.24 0.96 5000028.6944
21.41664 -1.26 0.96 5000028.6944
44.33376 -2.14 0.96 5000066.8896
44.33376 -2.32 0.96 5000066.8896
44.33376 -2.4 0.96 5000066.8896
44.33376 -2.42 0.96 5000066.8896
21.41664 -2.54 0.96 5000028.6944
28.29636 -2.64 0.96 5000040.1606
15.15888 -2.7 0.96 5000018.2648
15.15888 -2.72 0.96 5000018.2648
28.29636 -3.8 0.96 5000040.1606
21.41664 -4.78 0.96 5000028.6944
21.41664 -4.88 0.96 5000028.6944
28.29636 -5.2 0.96 5000040.1606
21.41664 -5.26 0.96 5000028.6944
28.29636 -5.66 0.96 5000040.1606
21.41664 -5.72 0.96 5000028.6944
28.29636 -6.12 0.96 5000040.1606
21.41664 -6.2 0.96 5000028.6944
15.15888 5.86 0.94 5000018.2648
15.15888 5.54 0.94 5000018.2648
15.15888 5.38 0.94 5000018.2648
17.592840000000002 4.0 0.94 5000022.3214
17.592840000000002 3.98 0.94 5000022.3214
17.592840000000002 2.9 0.94 5000022.3214
21.41664 -0.4 0.94 5000028.6944
28.29636 -0.92 0.94 5000040.1606
21.41664 -1.24 0.94 5000028.6944
28.29636 -2.04 0.94 5000040.1606
28.29636 -2.14 0.94 5000040.1606
28.29636 -2.26 0.94 5000040.1606
44.33376 -2.4 0.94 5000066.8896
44.33376 -2.42 0.94 5000066.8896
124.19999999999999 -2.5 0.94 5000200.0
21.41664 -2.54 0.94 5000028.6944
28.29636 -2.64 0.94 5000040.1606
15.15888 -2.7 0.94 5000018.2648
11.29218 -2.9 0.94 5000011.8203
28.29636 -3.52 0.94 5000040.1606
21.41664 -3.58 0.94 5000028.6944
28.29636 -3.8 0.94 5000040.1606
44.33376 -4.72 0.94 5000066.8896
21.41664 -4.88 0.94 5000028.6944
28.29636 -5.2 0.94 5000040.1606
44.33376 -5.54 0.94 5000066.8896
28.29636 -5.66 0.94 5000040.1606
21.41664 -5.72 0.94 5000028.6944
28.29636 -5.92 0.94 5000040.1606
21.41664 -5.98 0.94 5000028.6944
28.29636 -6.12 0.94 5000040.1606
21.41664 -6.2 0.94 5000028.6944
17.592840000000002 -6.26 0.94 5000022.3214
15.15888 5.86 0.92 5000018.2648
44.33376 5.72 0.92 5000066.8896
15.15888 5.54 0.92 5000018.2648
15.15888 5.38 0.92 5000018.2648
17.592840000000002 3.98 0.92 5000022.3214
44.33376 3.7 0.92 5000066.8896
17.592840000000002 3.56 0.92 5000022.3214
17.592840000000002 3.04 0.92 5000022.3214
21.41664 -0.4 0.92 5000028.6944
44.33376 -0.92 0.92 5000066.8896
44.33376 -0.94 0.92 5000066.8896
21.41664 -1.24 0.92 5000028.6944
21.41664 -1.26 0.92 5000028.6944
28.29636 -2.04 0.92 5000040.1606
28.29636 -2.14 0.92 5000040.1606
44.33376 -2.42 0.92 5000066.8896
124.19999999999999 -2.5 0.92 5000200.0
15.15888 -2.68 0.92 5000018.2648
11.29218 -2.9 0.92 5000011.8203
28.29636 -3.52 0.92 5000040.1606
21.41664 -3.58 0.92 5000028.6944
28.29636 -3.8 0.92 5000040.1606
21.41664 -4.88 0.92 5000028.6944
28.29636 -5.66 0.92 5000040.1606
21.41664 -5.72 0.92 5000028.6944
28.29636 -5.92 0.92 5000040.1606
21.41664 -5.98 0.92 5000028.6944
28.29636 -6.12 0.92 5000040.1606
21.41664 -6.2 0.92 5000028.6944
17.592840000000002 -6.26 0.92 5000022.3214
15.15888 5.86 0.9 5000018.2648
15.15888 5.54 0.9 5000018.2648
15.15888 5.38 0.9 5000018.2648
17.592840000000002 3.98 0.9 5000022.3214
44.33376 3.72 0.9 5000066.8896
17.592840000000002 3.42 0.9 5000022.3214
17.592840000000002 3.14 0.9 5000022.3214
17.592840000000002 3.04 0.9 5000022.3214
17.592840000000002 2.44 0.9 5000022.3214
44.33376 -0.92 0.9 5000066.8896
21.41664 -1.24 0.9 5000028.6944
21.41664 -1.26 0.9 5000028.6944
124.19999999999999 -1.88 0.9 5000200.0
124.19999999999999 -1.9 0.9 5000200.0
28.29636 -2.04 0.9 5000040.1606
44.33376 -2.14 0.9 5000066.8896
28.29636 -2.22 0.9 5000040.1606
124.19999999999999 -2.48 0.9 5000200.0
28.29636 -2.62 0.9 5000040.1606
15.15888 -2.68 0.9 5000018.2648
11.29218 -2.86 0.9 5000011.8203
11.29218 -2.88 0.9 5000011.8203
9.941628000000001 -3.02 0.9 5000009.56938
44.33376 -3.44 0.9 5000066.8896
28.29636 -3.5 0.9 5000040.1606
28.29636 -3.52 0.9 5000040.1606
21.41664 -3.56 0.9 5000028.6944
17.592840000000002 -3.58 0.9 5000022.3214
28.29636 -3.8 0.9 5000040.1606
21.41664 -3.86 0.9 5000028.6944
21.41664 -3.88 0.9 5000028.6944
21.41664 -4.88 0.9 5000028.6944
28.29636 -5.92 0.9 5000040.1606
21.41664 -5.98 0.9 5000028.6944
28.29636 -6.12 0.9 5000040.1606
28.29636 -6.14 0.9 5000040.1606
21.41664 -6.2 0.9 5000028.6944
17.592840000000002 -6.26 0.9 5000022.3214
28.29636 -6.44 0.9 5000040.1606
15.15888 5.86 0.88 5000018.2648
15.15888 5.54 0.88 5000018.2648
15.15888 5.48 0.88 5000018.2648
15.15888 5.38 0.88 5000018.2648
17.592840000000002 3.56 0.88 5000022.3214
17.592840000000002 3.14 0.88 5000022.3214
17.592840000000002 2.54 0.88 5000022.3214
17.592840000000002 2.52 0.88 5000022.3214
17.592840000000002 2.44 0.88 5000022.3214
17.592840000000002 2.18 0.88 5000022.3214
17.592840000000002 1.72 0.88 5000022.3214
44.33376 -0.92 0.88 5000066.8896
28.29636 -1.26 0.88 5000040.1606
21.41664 -1.32 0.88 5000028.6944
28.29636 -2.04 0.88 5000040.1606
44.33376 -2.14 0.88 5000066.8896
28.29636 -2.2 0.88 5000040.1606
28.29636 -2.22 0.88 5000040.1606
124.19999999999999 -2.48 0.88 5000200.0
21.41664 -2.54 0.88 5000028.6944
28.29636 -2.62 0.88 5000040.1606
124.19999999999999 -3.2 0.88 5000200.0
44.33376 -3.42 0.88 5000066.8896
44.33376 -3.44 0.88 5000066.8896
28.29636 -3.5 0.88 5000040.1606
28.29636 -3.52 0.88 5000040.1606
21.41664 -3.56 0.88 5000028.6944
17.592840000000002 -3.58 0.88 5000022.3214
28.29636 -3.8 0.88 5000040.1606
21.41664 -4.88 0.88 5000028.6944
28.29636 -5.06 0.88 5000040.1606
28.29636 -5.92 0.88 5000040.1606
21.41664 -5.98 0.88 5000028.6944
28.29636 -6.14 0.88 5000040.1606
21.41664 -6.2 0.88 5000028.6944
17.592840000000002 -6.26 0.88 5000022.3214
28.29636 -6.44 0.88 5000040.1606
21.41664 -6.52 0.88 5000028.6944
15.15888 5.86 0.86 5000018.2648
15.15888 5.54 0.86 5000018.2648
15.15888 5.52 0.86 5000018.2648
15.15888 5.38 0.86 5000018.2648
17.592840000000002 3.58 0.86 5000022.3214
17.592840000000002 3.56 0.86 5000022.3214
17.592840000000002 3.42 0.86 5000022.3214
17.592840000000002 3.14 0.86 5000022.3214
17.592840000000002 3.04 0.86 5000022.3214
17.592840000000002 2.88 0.86 5000022.3214
17.592840000000002 2.54 0.86 5000022.3214
17.592840000000002 2.52 0.86 5000022.3214
17.592840000000002 2.44 0.86 5000022.3214
17.592840000000002 2.18 0.86 5000022.3214
17.592840000000002 2.16 0.86 5000022.3214
21.41664 -0.38 0.86 5000028.6944
17.592840000000002 -0.78 0.86 5000022.3214
28.29636 -1.26 0.86 5000040.1606
21.41664 -1.34 0.86 5000028.6944
44.33376 -2.14 0.86 5000066.8896
28.29636 -2.2 0.86 5000040.1606
28.29636 -2.22 0.86 5000040.1606
28.29636 -2.46 0.86 5000040.1606
21.41664 -2.54 0.86 5000028.6944
124.19999999999999 -3.16 0.86 5000200.0
44.33376 -3.32 0.86 5000066.8896
28.29636 -3.34 0.86 5000040.1606
44.33376 -3.38 0.86 5000066.8896
44.33376 -3.42 0.86 5000066.8896
44.33376 -3.44 0.86 5000066.8896
28.29636 -3.5 0.86 5000040.1606
17.592840000000002 -3.58 0.86 5000022.3214
28.29636 -3.8 0.86 5000040.1606
44.33376 -4.72 0.86 5000066.8896
21.41664 -4.88 0.86 5000028.6944
28.29636 -5.02 0.86 5000040.1606
28.29636 -5.68 0.86 5000040.1606
28.29636 -5.92 0.86 5000040.1606
28.29636 -6.14 0.86 5000040.1606
21.41664 -6.2 0.86 5000028.6944
28.29636 -6.44 0.86 5000040.1606
21.41664 -6.52 0.86 5000028.6944
15.15888 5.86 0.84 5000018.2648
15.15888 5.54 0.84 5000018.2648
15.15888 5.38 0.84 5000018.2648
15.15888 4.62 0.84 5000018.2648
44.33376 3.82 0.84 5000066.8896
17.592840000000002 3.58 0.84 5000022.3214
17.592840000000002 3.54 0.84 5000022.3214
17.592840000000002 3.42 0.84 5000022.3214
17.592840000000002 3.14 0.84 5000022.3214
17.592840000000002 3.04 0.84 5000022.3214
17.592840000000002 2.88 0.84 5000022.3214
17.592840000000002 2.52 0.84 5000022.3214
17.592840000000002 2.44 0.84 5000022.3214
17.592840000000002 2.18 0.84 5000022.3214
17.592840000000002 2.16 0.84 5000022.3214
17.592840000000002 1.84 0.84 5000022.3214
21.41664 -0.38 0.84 5000028.6944
28.29636 -1.26 0.84 5000040.1606
21.41664 -1.34 0.84 5000028.6944
44.33376 -1.62 0.84 5000066.8896
28.29636 -1.88 0.84 5000040.1606
44.33376 -2.14 0.84 5000066.8896
28.29636 -2.2 0.84 5000040.1606
28.29636 -2.46 0.84 5000040.1606
21.41664 -2.54 0.84 5000028.6944
17.592840000000002 -2.62 0.84 5000022.3214
15.15888 -2.68 0.84 5000018.2648
17.592840000000002 -2.76 0.84 5000022.3214
12.23748 -2.88 0.84 5000013.3958
124.19999999999999 -3.16 0.84 5000200.0
124.19999999999999 -3.18 0.84 5000200.0
44.33376 -3.24 0.84 5000066.8896
44.33376 -3.32 0.84 5000066.8896
28.29636 -3.34 0.84 5000040.1606
44.33376 -3.38 0.84 5000066.8896
44.33376 -3.42 0.84 5000066.8896
44.33376 -3.44 0.84 5000066.8896
28.29636 -3.5 0.84 5000040.1606
28.29636 -3.8 0.84 5000040.1606
21.41664 -3.88 0.84 5000028.6944
21.41664 -4.88 0.84 5000028.6944
28.29636 -6.14 0.84 5000040.1606
28.29636 -6.44 0.84 5000040.1606
21.41664 -6.52 0.84 5000028.6944
15.15888 5.86 0.82 5000018.2648
44.33376 5.76 0.82 5000066.8896
15.15888 5.54 0.82 5000018.2648
15.15888 5.52 0.82 5000018.2648
15.15888 5.38 0.82 5000018.2648
15.15888 4.62 0.82 5000018.2648
17.592840000000002 3.68 0.82 5000022.3214
17.592840000000002 3.58 0.82 5000022.3214
17.592840000000002 3.54 0.82 5000022.3214
17.592840000000002 3.42 0.82 5000022.3214
17.592840000000002 3.14 0.82 5000022.3214
17.592840000000002 3.04 0.82 5000022.3214
17.592840000000002 2.88 0.82 5000022.3214
17.592840000000002 2.64 0.82 5000022.3214
17.592840000000002 2.52 0.82 5000022.3214
17.592840000000002 2.44 0.82 5000022.3214
17.592840000000002 2.18 0.82 5000022.3214
17.592840000000002 2.16 0.82 5000022.3214
17.592840000000002 1.84 0.82 5000022.3214
17.592840000000002 1.8 0.82 5000022.3214
21.41664 -0.38 0.82 5000028.6944
21.41664 -0.42 0.82 5000028.6944
12.23748 -0.62 0.82 5000013.3958
17.592840000000002 -0.8 0.82 5000022.3214
28.29636 -1.28 0.82 5000040.1606
21.41664 -1.34 0.82 5000028.6944
44.33376 -2.14 0.82 5000066.8896
28.29636 -2.2 0.82 5000040.1606
28.29636 -2.22 0.82 5000040.1606
28.29636 -2.46 0.82 5000040.1606
21.41664 -2.54 0.82 5000028.6944
17.592840000000002 -2.62 0.82 5000022.3214
21.41664 -2.84 0.82 5000028.6944
44.33376 -3.24 0.82 5000066.8896
44.33376 -3.28 0.82 5000066.8896
28.29636 -3.32 0.82 5000040.1606
44.33376 -3.38 0.82 5000066.8896
44.33376 -3.44 0.82 5000066.8896
28.29636 -3.8 0.82 5000040.1606
28.29636 -6.44 0.82 5000040.1606
21.41664 -6.52 0.82 5000028.6944
15.15888 5.86 0.8 5000018.2648
44.33376 5.76 0.8 5000066.8896
15.15888 5.54 0.8 5000018.2648
15.15888 5.52 0.8 5000018.2648
15.15888 5.38 0.8 5000018.2648
17.592840000000002 3.58 0.8 5000022.3214
17.592840000000002 3.54 0.8 5000022.3214
17.592840000000002 3.42 0.8 5000022.3214
17.592840000000002 3.14 0.8 5000022.3214
17.592840000000002 3.04 0.8 5000022.3214
17.592840000000002 2.88 0.8 5000022.3214
17.592840000000002 2.52 0.8 5000022.3214
17.592840000000002 2.44 0.8 5000022.3214
17.592840000000002 2.18 0.8 5000022.3214
17.592840000000002 2.16 0.8 5000022.3214
17.592840000000002 1.96 0.8 5000022.3214
17.592840000000002 1.84 0.8 5000022.3214
17.592840000000002 1.8 0.8 5000022.3214
17.592840000000002 1.72 0.8 5000022.3214
17.592840000000002 1.4 0.8 5000022.3214
21.41664 -0.38 0.8 5000028.6944
21.41664 -0.4 0.8 5000028.6944
21.41664 -0.7 0.8 5000028.6944
28.29636 -1.28 0.8 5000040.1606
21.41664 -1.34 0.8 5000028.6944
124.19999999999999 -1.94 0.8 5000200.0
44.33376 -2.14 0.8 5000066.8896
28.29636 -2.22 0.8 5000040.1606
28.29636 -2.46 0.8 5000040.1606
21.41664 -2.52 0.8 5000028.6944
17.592840000000002 -2.62 0.8 5000022.3214
21.41664 -2.78 0.8 5000028.6944
21.41664 -2.82 0.8 5000028.6944
44.33376 -3.24 0.8 5000066.8896
28.29636 -3.32 0.8 5000040.1606
28.29636 -3.34 0.8 5000040.1606
21.41664 -3.38 0.8 5000028.6944
44.33376 -3.44 0.8 5000066.8896
21.41664 -3.5 0.8 5000028.6944
28.29636 -3.8 0.8 5000040.1606
28.29636 -6.44 0.8 5000040.1606
21.41664 -6.52 0.8 5000028.6944
15.15888 5.86 0.78 5000018.2648
44.33376 5.76 0.78 5000066.8896
15.15888 5.38 0.78 5000018.2648
17.592840000000002 3.58 0.78 5000022.3214
17.592840000000002 3.54 0.78 5000022.3214
17.592840000000002 3.42 0.78 5000022.3214
17.592840000000002 3.14 0.78 5000022.3214
17.592840000000002 3.04 0.78 5000022.3214
17.592840000000002 2.88 0.78 5000022.3214
17.592840000000002 2.66 0.78 5000022.3214
17.592840000000002 2.52 0.78 5000022.3214
17.592840000000002 2.44 0.78 5000022.3214
17.592840000000002 2.18 0.78 5000022.3214
17.592840000000002 2.16 0.78 5000022.3214
17.592840000000002 1.96 0.78 5000022.3214
17.592840000000002 1.84 0.78 5000022.3214
17.592840000000002 1.72 0.78 5000022.3214
17.592840000000002 1.52 0.78 5000022.3214
17.592840000000002 1.5 0.78 5000022.3214
17.592840000000002 1.44 0.78 5000022.3214
17.592840000000002 1.4 0.78 5000022.3214
15.15888 1.02 0.78 5000018.2648
15.15888 -0.5 0.78 5000018.2648
28.29636 -1.28 0.78 5000040.1606
21.41664 -1.34 0.78 5000028.6944
44.33376 -1.64 0.78 5000066.8896
10.54584 -1.76 0.78 5000010.5764
124.19999999999999 -2.02 0.78 5000200.0
44.33376 -2.14 0.78 5000066.8896
28.29636 -2.22 0.78 5000040.1606
28.29636 -2.46 0.78 5000040.1606
21.41664 -2.52 0.78 5000028.6944
28.29636 -2.62 0.78 5000040.1606
21.41664 -2.76 0.78 5000028.6944
21.41664 -2.82 0.78 5000028.6944
44.33376 -3.24 0.78 5000066.8896
28.29636 -3.32 0.78 5000040.1606
21.41664 -3.38 0.78 5000028.6944
44.33376 -3.44 0.78 5000066.8896
21.41664 -3.5 0.78 5000028.6944
28.29636 -3.8 0.78 5000040.1606
21.41664 -3.88 0.78 5000028.6944
21.41664 -4.84 0.78 5000028.6944
21.41664 -4.88 0.78 5000028.6944
28.29636 -6.44 0.78 5000040.1606
21.41664 -6.5 0.78 5000028.6944
21.41664 -6.52 0.78 5000028.6944
15.15888 5.86 0.76 5000018.2648
15.15888 5.38 0.76 5000018.2648
15.15888 4.62 0.76 5000018.2648
17.592840000000002 3.58 0.76 5000022.3214
17.592840000000002 3.42 0.76 5000022.3214
17.592840000000002 3.16 0.76 5000022.3214
17.592840000000002 3.14 0.76 5000022.3214
17.592840000000002 3.04 0.76 5000022.3214
17.592840000000002 2.88 0.76 5000022.3214
17.592840000000002 2.66 0.76 5000022.3214
17.592840000000002 2.52 0.76 5000022.3214
17.592840000000002 2.44 0.76 5000022.3214
17.592840000000002 2.18 0.76 5000022.3214
17.592840000000002 2.16 0.76 5000022.3214
17.592840000000002 1.96 0.76 5000022.3214
17.592840000000002 1.84 0.76 5000022.3214
17.592840000000002 1.72 0.76 5000022.3214
17.592840000000002 1.52 0.76 5000022.3214
17.592840000000002 1.44 0.76 5000022.3214
17.592840000000002 1.4 0.76 5000022.3214
15.15888 1.02 0.76 5000018.2648
15.15888 0.98 0.76 5000018.2648
28.29636 -1.28 0.76 5000040.1606
21.41664 -1.34 0.76 5000028.6944
13.4736 -1.56 0.76 5000015.456
44.33376 -2.14 0.76 5000066.8896
28.29636 -2.2 0.76 5000040.1606
28.29636 -2.22 0.76 5000040.1606
28.29636 -2.48 0.76 5000040.1606
21.41664 -2.52 0.76 5000028.6944
124.19999999999999 -2.58 0.76 5000200.0
28.29636 -2.66 0.76 5000040.1606
28.29636 -2.72 0.76 5000040.1606
21.41664 -2.74 0.76 5000028.6944
21.41664 -2.8 0.76 5000028.6944
44.33376 -3.24 0.76 5000066.8896
28.29636 -3.32 0.76 5000040.1606
28.29636 -3.8 0.76 5000040.1606
21.41664 -3.88 0.76 5000028.6944
21.41664 -4.84 0.76 5000028.6944
21.41664 -4.88 0.76 5000028.6944
28.29636 -5.0 0.76 5000040.1606
21.41664 -5.06 0.76 5000028.6944
15.15888 -5.12 0.76 5000018.2648
44.33376 -5.54 0.76 5000066.8896
21.41664 -5.64 0.76 5000028.6944
28.29636 -6.44 0.76 5000040.1606
28.29636 -6.5 0.76 5000040.1606
15.15888 5.86 0.74 5000018.2648
15.15888 5.38 0.74 5000018.2648
17.592840000000002 3.58 0.74 5000022.3214
17.592840000000002 3.42 0.74 5000022.3214
17.592840000000002 3.16 0.74 5000022.3214
17.592840000000002 3.14 0.74 5000022.3214
17.592840000000002 3.04 0.74 5000022.3214
17.592840000000002 2.88 0.74 5000022.3214
17.592840000000002 2.66 0.74 5000022.3214
17.592840000000002 2.52 0.74 5000022.3214
17.592840000000002 2.44 0.74 5000022.3214
17.592840000000002 2.18 0.74 5000022.3214
17.592840000000002 2.16 0.74 5000022.3214
17.592840000000002 1.96 0.74 5000022.3214
17.592840000000002 1.84 0.74 5000022.3214
17.592840000000002 1.72 0.74 5000022.3214
17.592840000000002 1.52 0.74 5000022.3214
17.592840000000002 1.44 0.74 5000022.3214
17.592840000000002 1.4 0.74 5000022.3214
15.15888 1.02 0.74 5000018.2648
15.15888 0.98 0.74 5000018.2648
28.29636 -1.28 0.74 5000040.1606
21.41664 -1.34 0.74 5000028.6944
124.19999999999999 -2.0 0.74 5000200.0
44.33376 -2.14 0.74 5000066.8896
28.29636 -2.2 0.74 5000040.1606
28.29636 -2.22 0.74 5000040.1606
21.41664 -2.28 0.74 5000028.6944
7.459097999999999 -2.34 0.74 5000005.43183
124.19999999999999 -2.46 0.74 5000200.0
44.33376 -2.56 0.74 5000066.8896
28.29636 -2.66 0.74 5000040.1606
28.29636 -2.72 0.74 5000040.1606
21.41664 -2.8 0.74 5000028.6944
44.33376 -3.24 0.74 5000066.8896
28.29636 -3.32 0.74 5000040.1606
44.33376 -3.44 0.74 5000066.8896
28.29636 -3.8 0.74 5000040.1606
21.41664 -3.88 0.74 5000028.6944
21.41664 -4.88 0.74 5000028.6944
44.33376 -5.5 0.74 5000066.8896
44.33376 -5.52 0.74 5000066.8896
44.33376 -5.54 0.74 5000066.8896
21.41664 -5.64 0.74 5000028.6944
21.41664 -5.68 0.74 5000028.6944
28.29636 -6.44 0.74 5000040.1606
28.29636 -6.5 0.74 5000040.1606
28.29636 -6.52 0.74 5000040.1606
15.15888 5.86 0.72 5000018.2648
44.33376 5.74 0.72 5000066.8896
15.15888 5.38 0.72 5000018.2648
17.592840000000002 3.58 0.72 5000022.3214
17.592840000000002 3.56 0.72 5000022.3214
17.592840000000002 3.42 0.72 5000022.3214
17.592840000000002 3.16 0.72 5000022.3214
17.592840000000002 3.14 0.72 5000022.3214
17.592840000000002 3.04 0.72 5000022.3214
17.592840000000002 2.88 0.72 5000022.3214
17.592840000000002 2.66 0.72 5000022.3214
17.592840000000002 2.52 0.72 5000022.3214
17.592840000000002 2.44 0.72 5000022.3214
17.592840000000002 2.18 0.72 5000022.3214
17.592840000000002 2.16 0.72 5000022.3214
17.592840000000002 1.96 0.72 5000022.3214
17.592840000000002 1.84 0.72 5000022.3214
17.592840000000002 1.52 0.72 5000022.3214
17.592840000000002 1.44 0.72 5000022.3214
17.592840000000002 1.4 0.72 5000022.3214
17.592840000000002 1.02 0.72 5000022.3214
17.592840000000002 0.98 0.72 5000022.3214
17.592840000000002 0.58 0.72 5000022.3214
21.41664 0.22 0.72 5000028.6944
28.29636 -0.16 0.72 5000040.1606
15.15888 -0.22 0.72 5000018.2648
15.15888 -0.24 0.72 5000018.2648
12.23748 -0.36 0.72 5000013.3958
28.29636 -1.24 0.72 5000040.1606
44.33376 -1.7 0.72 5000066.8896
44.33376 -2.14 0.72 5000066.8896
28.29636 -2.22 0.72 5000040.1606
28.29636 -2.66 0.72 5000040.1606
28.29636 -2.72 0.72 5000040.1606
28.29636 -2.74 0.72 5000040.1606
15.15888 -2.86 0.72 5000018.2648
44.33376 -3.24 0.72 5000066.8896
28.29636 -3.32 0.72 5000040.1606
44.33376 -3.44 0.72 5000066.8896
28.29636 -3.8 0.72 5000040.1606
21.41664 -3.88 0.72 5000028.6944
44.33376 -4.72 0.72 5000066.8896
44.33376 -4.74 0.72 5000066.8896
28.29636 -4.82 0.72 5000040.1606
21.41664 -4.88 0.72 5000028.6944
28.29636 -6.5 0.72 5000040.1606
15.15888 5.86 0.7 5000018.2648
15.15888 5.38 0.7 5000018.2648
17.592840000000002 3.58 0.7 5000022.3214
17.592840000000002 3.56 0.7 5000022.3214
17.592840000000002 3.42 0.7 5000022.3214
17.592840000000002 3.14 0.7 5000022.3214
17.592840000000002 3.04 0.7 5000022.3214
17.592840000000002 2.88 0.7 5000022.3214
17.592840000000002 2.66 0.7 5000022.3214
17.592840000000002 2.52 0.7 5000022.3214
17.592840000000002 2.44 0.7 5000022.3214
17.592840000000002 2.18 0.7 5000022.3214
17.592840000000002 2.16 0.7 5000022.3214
28.29636 2.1 0.7 5000040.1606
17.592840000000002 1.96 0.7 5000022.3214
17.592840000000002 1.84 0.7 5000022.3214
17.592840000000002 1.4 0.7 5000022.3214
28.29636 1.08 0.7 5000040.1606
17.592840000000002 1.02 0.7 5000022.3214
17.592840000000002 0.98 0.7 5000022.3214
17.592840000000002 0.58 0.7 5000022.3214
21.41664 0.22 0.7 5000028.6944
21.41664 0.18 0.7 5000028.6944
28.29636 -0.16 0.7 5000040.1606
15.15888 -0.22 0.7 5000018.2648
15.15888 -0.24 0.7 5000018.2648
12.23748 -0.36 0.7 5000013.3958
12.23748 -0.38 0.7 5000013.3958
44.33376 -1.24 0.7 5000066.8896
28.29636 -1.3 0.7 5000040.1606
44.33376 -1.7 0.7 5000066.8896
44.33376 -2.14 0.7 5000066.8896
44.33376 -2.6 0.7 5000066.8896
28.29636 -2.66 0.7 5000040.1606
21.41664 -2.8 0.7 5000028.6944
44.33376 -3.24 0.7 5000066.8896
28.29636 -3.32 0.7 5000040.1606
44.33376 -3.44 0.7 5000066.8896
28.29636 -3.8 0.7 5000040.1606
21.41664 -3.88 0.7 5000028.6944
44.33376 -4.72 0.7 5000066.8896
44.33376 -4.74 0.7 5000066.8896
28.29636 -4.8 0.7 5000040.1606
28.29636 -4.82 0.7 5000040.1606
21.41664 -4.88 0.7 5000028.6944
15.15888 5.86 0.68 5000018.2648
15.15888 5.38 0.68 5000018.2648
17.592840000000002 3.58 0.68 5000022.3214
17.592840000000002 3.42 0.68 5000022.3214
17.592840000000002 3.04 0.68 5000022.3214
17.592840000000002 2.88 0.68 5000022.3214
17.592840000000002 2.66 0.68 5000022.3214
17.592840000000002 2.52 0.68 5000022.3214
17.592840000000002 2.44 0.68 5000022.3214
17.592840000000002 2.18 0.68 5000022.3214
17.592840000000002 2.16 0.68 5000022.3214
28.29636 2.1 0.68 5000040.1606
17.592840000000002 1.96 0.68 5000022.3214
17.592840000000002 1.84 0.68 5000022.3214
17.592840000000002 1.52 0.68 5000022.3214
17.592840000000002 1.44 0.68 5000022.3214
17.592840000000002 1.4 0.68 5000022.3214
28.29636 1.08 0.68 5000040.1606
15.15888 1.06 0.68 5000018.2648
17.592840000000002 1.02 0.68 5000022.3214
17.592840000000002 0.98 0.68 5000022.3214
13.4736 0.74 0.68 5000015.456
17.592840000000002 0.58 0.68 5000022.3214
13.4736 0.48 0.68 5000015.456
21.41664 0.22 0.68 5000028.6944
21.41664 0.18 0.68 5000028.6944
28.29636 -0.06 0.68 5000040.1606
21.41664 -0.1 0.68 5000028.6944
28.29636 -0.14 0.68 5000040.1606
28.29636 -0.16 0.68 5000040.1606
15.15888 -0.24 0.68 5000018.2648
12.23748 -0.36 0.68 5000013.3958
12.23748 -0.38 0.68 5000013.3958
44.33376 -1.22 0.68 5000066.8896
28.29636 -1.3 0.68 5000040.1606
44.33376 -1.7 0.68 5000066.8896
21.41664 -2.2 0.68 5000028.6944
44.33376 -2.6 0.68 5000066.8896
28.29636 -2.66 0.68 5000040.1606
21.41664 -2.68 0.68 5000028.6944
21.41664 -2.8 0.68 5000028.6944
44.33376 -3.24 0.68 5000066.8896
28.29636 -3.32 0.68 5000040.1606
44.33376 -3.44 0.68 5000066.8896
28.29636 -3.8 0.68 5000040.1606
21.41664 -3.88 0.68 5000028.6944
21.41664 -4.24 0.68 5000028.6944
124.19999999999999 -4.66 0.68 5000200.0
44.33376 -4.72 0.68 5000066.8896
44.33376 -4.74 0.68 5000066.8896
28.29636 -4.8 0.68 5000040.1606
28.29636 -4.82 0.68 5000040.1606
21.41664 -4.88 0.68 5000028.6944
15.15888 5.86 0.66 5000018.2648
15.15888 5.38 0.66 5000018.2648
124.19999999999999 3.66 0.66 5000200.0
17.592840000000002 3.58 0.66 5000022.3214
17.592840000000002 3.42 0.66 5000022.3214
17.592840000000002 3.04 0.66 5000022.3214
17.592840000000002 2.88 0.66 5000022.3214
17.592840000000002 2.66 0.66 5000022.3214
17.592840000000002 2.64 0.66 5000022.3214
17.592840000000002 2.52 0.66 5000022.3214
17.592840000000002 2.44 0.66 5000022.3214
17.592840000000002 2.18 0.66 5000022.3214
17.592840000000002 2.16 0.66 5000022.3214
17.592840000000002 1.96 0.66 5000022.3214
15.15888 1.9 0.66 5000018.2648
17.592840000000002 1.84 0.66 5000022.3214
17.592840000000002 1.72 0.66 5000022.3214
17.592840000000002 1.52 0.66 5000022.3214
17.592840000000002 1.44 0.66 5000022.3214
17.592840000000002 1.4 0.66 5000022.3214
17.592840000000002 1.32 0.66 5000022.3214
17.592840000000002 1.28 0.66 5000022.3214
17.592840000000002 1.02 0.66 5000022.3214
17.592840000000002 0.98 0.66 5000022.3214
13.4736 0.74 0.66 5000015.456
17.592840000000002 0.62 0.66 5000022.3214
17.592840000000002 0.58 0.66 5000022.3214
28.29636 -0.06 0.66 5000040.1606
28.29636 -0.14 0.66 5000040.1606
28.29636 -0.16 0.66 5000040.1606
15.15888 -0.24 0.66 5000018.2648
12.23748 -0.36 0.66 5000013.3958
28.29636 -1.3 0.66 5000040.1606
21.41664 -1.36 0.66 5000028.6944
44.33376 -2.6 0.66 5000066.8896
21.41664 -2.68 0.66 5000028.6944
44.33376 -3.24 0.66 5000066.8896
28.29636 -3.32 0.66 5000040.1606
28.29636 -3.34 0.66 5000040.1606
44.33376 -3.4 0.66 5000066.8896
44.33376 -3.44 0.66 5000066.8896
28.29636 -3.8 0.66 5000040.1606
21.41664 -3.88 0.66 5000028.6944
21.41664 -4.22 0.66 5000028.6944
44.33376 -4.72 0.66 5000066.8896
44.33376 -4.74 0.66 5000066.8896
28.29636 -4.82 0.66 5000040.1606
21.41664 -4.88 0.66 5000028.6944
21.41664 -5.36 0.66 5000028.6944
15.15888 5.86 0.64 5000018.2648
44.33376 5.56 0.64 5000066.8896
15.15888 5.38 0.64 5000018.2648
17.592840000000002 3.58 0.64 5000022.3214
17.592840000000002 3.42 0.64 5000022.3214
17.592840000000002 3.04 0.64 5000022.3214
17.592840000000002 2.88 0.64 5000022.3214
17.592840000000002 2.52 0.64 5000022.3214
17.592840000000002 2.44 0.64 5000022.3214
17.592840000000002 2.18 0.64 5000022.3214
17.592840000000002 2.16 0.64 5000022.3214
17.592840000000002 1.96 0.64 5000022.3214
17.592840000000002 1.84 0.64 5000022.3214
17.592840000000002 1.72 0.64 5000022.3214
17.592840000000002 1.52 0.64 5000022.3214
17.592840000000002 1.5 0.64 5000022.3214
17.592840000000002 1.44 0.64 5000022.3214
17.592840000000002 1.4 0.64 5000022.3214
17.592840000000002 1.28 0.64 5000022.3214
28.29636 1.08 0.64 5000040.1606
17.592840000000002 1.02 0.64 5000022.3214
17.592840000000002 0.98 0.64 5000022.3214
17.592840000000002 0.62 0.64 5000022.3214
17.592840000000002 0.58 0.64 5000022.3214
13.4736 0.48 0.64 5000015.456
15.15888 0.22 0.64 5000018.2648
12.23748 0.12 0.64 5000013.3958
28.29636 -0.06 0.64 5000040.1606
21.41664 -0.14 0.64 5000028.6944
28.29636 -0.18 0.64 5000040.1606
15.15888 -0.24 0.64 5000018.2648
12.23748 -0.36 0.64 5000013.3958
21.41664 -1.36 0.64 5000028.6944
21.41664 -2.22 0.64 5000028.6944
124.19999999999999 -2.44 0.64 5000200.0
44.33376 -2.52 0.64 5000066.8896
44.33376 -2.54 0.64 5000066.8896
28.29636 -2.6 0.64 5000040.1606
21.41664 -2.68 0.64 5000028.6944
44.33376 -3.24 0.64 5000066.8896
44.33376 -3.4 0.64 5000066.8896
21.41664 -3.44 0.64 5000028.6944
28.29636 -3.8 0.64 5000040.1606
44.33376 -4.72 0.64 5000066.8896
44.33376 -4.74 0.64 5000066.8896
28.29636 -4.8 0.64 5000040.1606
28.29636 -4.82 0.64 5000040.1606
21.41664 -4.88 0.64 5000028.6944
21.41664 -5.08 0.64 5000028.6944
28.29636 -5.3 0.64 5000040.1606
21.41664 -5.36 0.64 5000028.6944
28.29636 -5.7 0.64 5000040.1606
15.15888 5.86 0.62 5000018.2648
44.33376 5.58 0.62 5000066.8896
15.15888 5.38 0.62 5000018.2648
17.592840000000002 3.58 0.62 5000022.3214
17.592840000000002 3.42 0.62 5000022.3214
17.592840000000002 3.04 0.62 5000022.3214
17.592840000000002 2.88 0.62 5000022.3214
17.592840000000002 2.54 0.62 5000022.3214
17.592840000000002 2.52 0.62 5000022.3214
17.592840000000002 2.44 0.62 5000022.3214
17.592840000000002 2.18 0.62 5000022.3214
17.592840000000002 2.16 0.62 5000022.3214
17.592840000000002 1.84 0.62 5000022.3214
17.592840000000002 1.76 0.62 5000022.3214
17.592840000000002 1.72 0.62 5000022.3214
17.592840000000002 1.52 0.62 5000022.3214
17.592840000000002 1.5 0.62 5000022.3214
17.592840000000002 1.44 0.62 5000022.3214
17.592840000000002 1.4 0.62 5000022.3214
17.592840000000002 1.28 0.62 5000022.3214
17.592840000000002 1.08 0.62 5000022.3214
17.592840000000002 1.02 0.62 5000022.3214
17.592840000000002 0.98 0.62 5000022.3214
17.592840000000002 0.62 0.62 5000022.3214
17.592840000000002 0.58 0.62 5000022.3214
13.4736 0.48 0.62 5000015.456
28.29636 0.28 0.62 5000040.1606
15.15888 0.22 0.62 5000018.2648
12.23748 0.12 0.62 5000013.3958
28.29636 -0.06 0.62 5000040.1606
28.29636 -0.14 0.62 5000040.1606
28.29636 -0.18 0.62 5000040.1606
15.15888 -0.24 0.62 5000018.2648
12.23748 -0.36 0.62 5000013.3958
21.41664 -1.32 0.62 5000028.6944
28.29636 -2.14 0.62 5000040.1606
28.29636 -2.22 0.62 5000040.1606
124.19999999999999 -2.44 0.62 5000200.0
28.29636 -2.6 0.62 5000040.1606
21.41664 -2.68 0.62 5000028.6944
44.33376 -3.24 0.62 5000066.8896
21.41664 -3.4 0.62 5000028.6944
15.15888 -3.58 0.62 5000018.2648
28.29636 -3.8 0.62 5000040.1606
21.41664 -3.88 0.62 5000028.6944
44.33376 -4.72 0.62 5000066.8896
44.33376 -4.74 0.62 5000066.8896
21.41664 -4.88 0.62 5000028.6944
21.41664 -5.08 0.62 5000028.6944
28.29636 -5.3 0.62 5000040.1606
21.41664 -5.38 0.62 5000028.6944
15.15888 5.86 0.6 5000018.2648
15.15888 5.38 0.6 5000018.2648
44.33376 3.7 0.6 5000066.8896
17.592840000000002 3.58 0.6 5000022.3214
17.592840000000002 3.42 0.6 5000022.3214
17.592840000000002 3.04 0.6 5000022.3214
17.592840000000002 2.88 0.6 5000022.3214
17.592840000000002 2.54 0.6 5000022.3214
17.592840000000002 2.52 0.6 5000022.3214
17.592840000000002 2.44 0.6 5000022.3214
17.592840000000002 2.18 0.6 5000022.3214
17.592840000000002 2.16 0.6 5000022.3214
17.592840000000002 1.86 0.6 5000022.3214
17.592840000000002 1.84 0.6 5000022.3214
17.592840000000002 1.76 0.6 5000022.3214
17.592840000000002 1.72 0.6 5000022.3214
17.592840000000002 1.4 0.6 5000022.3214
17.592840000000002 1.32 0.6 5000022.3214
17.592840000000002 1.08 0.6 5000022.3214
17.592840000000002 1.06 0.6 5000022.3214
17.592840000000002 1.02 0.6 5000022.3214
17.592840000000002 0.98 0.6 5000022.3214
28.29636 0.7 0.6 5000040.1606
28.29636 0.68 0.6 5000040.1606
17.592840000000002 0.58 0.6 5000022.3214
13.4736 0.48 0.6 5000015.456
11.29218 0.34 0.6 5000011.8203
15.15888 0.22 0.6 5000018.2648
12.23748 0.12 0.6 5000013.3958
28.29636 -0.06 0.6 5000040.1606
124.19999999999999 -0.14 0.6 5000200.0
124.19999999999999 -0.18 0.6 5000200.0
15.15888 -0.24 0.6 5000018.2648
12.23748 -0.36 0.6 5000013.3958
21.41664 -1.32 0.6 5000028.6944
44.33376 -2.14 0.6 5000066.8896
28.29636 -2.22 0.6 5000040.1606
124.19999999999999 -2.44 0.6 5000200.0
28.29636 -2.6 0.6 5000040.1606
21.41664 -2.82 0.6 5000028.6944
44.33376 -3.24 0.6 5000066.8896
28.29636 -3.32 0.6 5000040.1606
21.41664 -3.4 0.6 5000028.6944
21.41664 -3.44 0.6 5000028.6944
21.41664 -3.48 0.6 5000028.6944
17.592840000000002 -3.52 0.6 5000022.3214
21.41664 -3.56 0.6 5000028.6944
28.29636 -3.8 0.6 5000040.1606
28.29636 -3.82 0.6 5000040.1606
21.41664 -3.88 0.6 5000028.6944
21.41664 -4.16 0.6 5000028.6944
21.41664 -5.06 0.6 5000028.6944
21.41664 -5.08 0.6 5000028.6944
21.41664 -5.38 0.6 5000028.6944
21.41664 -6.0 0.6 5000028.6944
28.29636 -6.2 0.6 5000040.1606
15.15888 5.86 0.58 5000018.2648
15.15888 5.38 0.58 5000018.2648
17.592840000000002 3.58 0.58 5000022.3214
17.592840000000002 3.04 0.58 5000022.3214
17.592840000000002 2.88 0.58 5000022.3214
17.592840000000002 2.54 0.58 5000022.3214
17.592840000000002 2.52 0.58 5000022.3214
17.592840000000002 2.44 0.58 5000022.3214
17.592840000000002 2.18 0.58 5000022.3214
17.592840000000002 2.16 0.58 5000022.3214
17.592840000000002 1.86 0.58 5000022.3214
17.592840000000002 1.84 0.58 5000022.3214
17.592840000000002 1.76 0.58 5000022.3214
17.592840000000002 1.72 0.58 5000022.3214
17.592840000000002 1.42 0.58 5000022.3214
17.592840000000002 1.4 0.58 5000022.3214
17.592840000000002 1.32 0.58 5000022.3214
17.592840000000002 1.28 0.58 5000022.3214
17.592840000000002 0.98 0.58 5000022.3214
13.4736 0.88 0.58 5000015.456
28.29636 0.74 0.58 5000040.1606
28.29636 0.7 0.58 5000040.1606
28.29636 0.68 0.58 5000040.1606
17.592840000000002 0.62 0.58 5000022.3214
17.592840000000002 0.58 0.58 5000022.3214
13.4736 0.48 0.58 5000015.456
11.29218 0.34 0.58 5000011.8203
28.29636 0.28 0.58 5000040.1606
15.15888 0.22 0.58 5000018.2648
124.19999999999999 0.06 0.58 5000200.0
28.29636 -0.06 0.58 5000040.1606
21.41664 -0.14 0.58 5000028.6944
124.19999999999999 -0.18 0.58 5000200.0
15.15888 -0.24 0.58 5000018.2648
12.23748 -0.36 0.58 5000013.3958
21.41664 -1.32 0.58 5000028.6944
21.41664 -1.84 0.58 5000028.6944
44.33376 -2.14 0.58 5000066.8896
28.29636 -2.22 0.58 5000040.1606
124.19999999999999 -2.44 0.58 5000200.0
28.29636 -2.6 0.58 5000040.1606
21.41664 -2.68 0.58 5000028.6944
44.33376 -3.24 0.58 5000066.8896
28.29636 -3.32 0.58 5000040.1606
28.29636 -3.34 0.58 5000040.1606
21.41664 -3.4 0.58 5000028.6944
21.41664 -3.48 0.58 5000028.6944
17.592840000000002 -3.5 0.58 5000022.3214
17.592840000000002 -3.52 0.58 5000022.3214
21.41664 -3.88 0.58 5000028.6944
21.41664 -4.14 0.58 5000028.6944
21.41664 -4.16 0.58 5000028.6944
21.41664 -4.84 0.58 5000028.6944
44.33376 -4.9 0.58 5000066.8896
21.41664 -4.96 0.58 5000028.6944
21.41664 -5.08 0.58 5000028.6944
124.19999999999999 -5.14 0.58 5000200.0
124.19999999999999 -5.18 0.58 5000200.0
44.33376 -5.28 0.58 5000066.8896
28.29636 -5.54 0.58 5000040.1606
21.41664 -5.6 0.58 5000028.6944
28.29636 -5.94 0.58 5000040.1606
21.41664 -6.0 0.58 5000028.6944
28.29636 -6.2 0.58 5000040.1606
15.15888 5.86 0.56 5000018.2648
44.33376 5.54 0.56 5000066.8896
15.15888 5.38 0.56 5000018.2648
17.592840000000002 3.58 0.56 5000022.3214
17.592840000000002 3.04 0.56 5000022.3214
13.4736 2.94 0.56 5000015.456
17.592840000000002 2.88 0.56 5000022.3214
44.33376 2.62 0.56 5000066.8896
17.592840000000002 2.54 0.56 5000022.3214
17.592840000000002 2.52 0.56 5000022.3214
17.592840000000002 2.44 0.56 5000022.3214
17.592840000000002 2.16 0.56 5000022.3214
17.592840000000002 1.86 0.56 5000022.3214
17.592840000000002 1.84 0.56 5000022.3214
17.592840000000002 1.76 0.56 5000022.3214
17.592840000000002 1.72 0.56 5000022.3214
17.592840000000002 1.42 0.56 5000022.3214
17.592840000000002 1.4 0.56 5000022.3214
13.4736 1.32 0.56 5000015.456
13.4736 1.28 0.56 5000015.456
17.592840000000002 1.0 0.56 5000022.3214
17.592840000000002 0.98 0.56 5000022.3214
13.4736 0.9 0.56 5000015.456
13.4736 0.88 0.56 5000015.456
28.29636 0.7 0.56 5000040.1606
28.29636 0.68 0.56 5000040.1606
17.592840000000002 0.58 0.56 5000022.3214
13.4736 0.48 0.56 5000015.456
28.29636 0.28 0.56 5000040.1606
17.592840000000002 0.22 0.56 5000022.3214
28.29636 -0.06 0.56 5000040.1606
21.41664 -0.14 0.56 5000028.6944
124.19999999999999 -0.18 0.56 5000200.0
15.15888 -0.24 0.56 5000018.2648
12.23748 -0.36 0.56 5000013.3958
21.41664 -1.32 0.56 5000028.6944
21.41664 -1.34 0.56 5000028.6944
124.19999999999999 -2.02 0.56 5000200.0
44.33376 -2.14 0.56 5000066.8896
28.29636 -2.22 0.56 5000040.1606
28.29636 -2.6 0.56 5000040.1606
44.33376 -3.24 0.56 5000066.8896
28.29636 -3.32 0.56 5000040.1606
28.29636 -3.34 0.56 5000040.1606
21.41664 -3.38 0.56 5000028.6944
21.41664 -3.4 0.56 5000028.6944
21.41664 -3.44 0.56 5000028.6944
28.29636 -3.82 0.56 5000040.1606
21.41664 -3.88 0.56 5000028.6944
21.41664 -4.14 0.56 5000028.6944
44.33376 -4.78 0.56 5000066.8896
44.33376 -4.8 0.56 5000066.8896
21.41664 -4.84 0.56 5000028.6944
21.41664 -4.96 0.56 5000028.6944
44.33376 -5.42 0.56 5000066.8896
44.33376 -5.44 0.56 5000066.8896
28.29636 -5.5 0.56 5000040.1606
28.29636 -5.54 0.56 5000040.1606
21.41664 -5.6 0.56 5000028.6944
28.29636 -5.94 0.56 5000040.1606
21.41664 -6.0 0.56 5000028.6944
28.29636 -6.14 0.56 5000040.1606
15.15888 5.86 0.54 5000018.2648
15.15888 5.38 0.54 5000018.2648
44.33376 3.7 0.54 5000066.8896
17.592840000000002 3.58 0.54 5000022.3214
17.592840000000002 3.04 0.54 5000022.3214
13.4736 2.94 0.54 5000015.456
17.592840000000002 2.88 0.54 5000022.3214
17.592840000000002 2.54 0.54 5000022.3214
17.592840000000002 2.52 0.54 5000022.3214
17.592840000000002 2.16 0.54 5000022.3214
17.592840000000002 1.86 0.54 5000022.3214
17.592840000000002 1.84 0.54 5000022.3214
17.592840000000002 1.76 0.54 5000022.3214
17.592840000000002 1.72 0.54 5000022.3214
17.592840000000002 1.42 0.54 5000022.3214
17.592840000000002 1.4 0.54 5000022.3214
13.4736 1.32 0.54 5000015.456
13.4736 1.28 0.54 5000015.456
17.592840000000002 1.0 0.54 5000022.3214
17.592840000000002 0.98 0.54 5000022.3214
13.4736 0.9 0.54 5000015.456
13.4736 0.88 0.54 5000015.456
17.592840000000002 0.58 0.54 5000022.3214
13.4736 0.48 0.54 5000015.456
10.54584 0.28 0.54 5000010.5764
17.592840000000002 0.22 0.54 5000022.3214
124.19999999999999 0.1 0.54 5000200.0
124.19999999999999 0.06 0.54 5000200.0
21.41664 -0.1 0.54 5000028.6944
21.41664 -0.14 0.54 5000028.6944
124.19999999999999 -0.18 0.54 5000200.0
12.23748 -0.36 0.54 5000013.3958
21.41664 -1.32 0.54 5000028.6944
21.41664 -1.34 0.54 5000028.6944
124.19999999999999 -2.0 0.54 5000200.0
124.19999999999999 -2.02 0.54 5000200.0
44.33376 -2.14 0.54 5000066.8896
28.29636 -2.22 0.54 5000040.1606
28.29636 -2.6 0.54 5000040.1606
21.41664 -2.68 0.54 5000028.6944
44.33376 -3.24 0.54 5000066.8896
28.29636 -3.32 0.54 5000040.1606
28.29636 -3.82 0.54 5000040.1606
21.41664 -3.88 0.54 5000028.6944
21.41664 -4.14 0.54 5000028.6944
44.33376 -5.4 0.54 5000066.8896
44.33376 -5.42 0.54 5000066.8896
28.29636 -5.54 0.54 5000040.1606
21.41664 -5.6 0.54 5000028.6944
21.41664 -5.62 0.54 5000028.6944
21.41664 -5.66 0.54 5000028.6944
28.29636 -5.94 0.54 5000040.1606
21.41664 -6.0 0.54 5000028.6944
28.29636 -6.14 0.54 5000040.1606
21.41664 -6.2 0.54 5000028.6944
15.15888 5.86 0.52 5000018.2648
124.19999999999999 5.62 0.52 5000200.0
15.15888 5.38 0.52 5000018.2648
17.592840000000002 3.58 0.52 5000022.3214
17.592840000000002 3.04 0.52 5000022.3214
13.4736 2.94 0.52 5000015.456
17.592840000000002 2.88 0.52 5000022.3214
17.592840000000002 2.54 0.52 5000022.3214
17.592840000000002 2.52 0.52 5000022.3214
17.592840000000002 2.16 0.52 5000022.3214
17.592840000000002 1.86 0.52 5000022.3214
17.592840000000002 1.84 0.52 5000022.3214
13.4736 1.76 0.52 5000015.456
13.4736 1.72 0.52 5000015.456
17.592840000000002 1.42 0.52 5000022.3214
17.592840000000002 1.4 0.52 5000022.3214
13.4736 1.32 0.52 5000015.456
13.4736 1.28 0.52 5000015.456
17.592840000000002 1.0 0.52 5000022.3214
17.592840000000002 0.98 0.52 5000022.3214
13.4736 0.9 0.52 5000015.456
13.4736 0.88 0.52 5000015.456
17.592840000000002 0.58 0.52 5000022.3214
13.4736 0.48 0.52 5000015.456
124.19999999999999 0.42 0.52 5000200.0
10.54584 0.28 0.52 5000010.5764
21.41664 0.22 0.52 5000028.6944
21.41664 0.2 0.52 5000028.6944
124.19999999999999 0.1 0.52 5000200.0
124.19999999999999 0.06 0.52 5000200.0
124.19999999999999 0.04 0.52 5000200.0
21.41664 -0.1 0.52 5000028.6944
21.41664 -0.14 0.52 5000028.6944
124.19999999999999 -0.18 0.52 5000200.0
12.23748 -0.36 0.52 5000013.3958
124.19999999999999 -1.14 0.52 5000200.0
21.41664 -1.34 0.52 5000028.6944
44.33376 -2.14 0.52 5000066.8896
28.29636 -2.22 0.52 5000040.1606
28.29636 -2.6 0.52 5000040.1606
21.41664 -2.68 0.52 5000028.6944
28.29636 -3.56 0.52 5000040.1606
28.29636 -3.8 0.52 5000040.1606
28.29636 -3.82 0.52 5000040.1606
21.41664 -3.88 0.52 5000028.6944
28.29636 -5.54 0.52 5000040.1606
21.41664 -5.6 0.52 5000028.6944
21.41664 -5.62 0.52 5000028.6944
28.29636 -5.94 0.52 5000040.1606
21.41664 -6.0 0.52 5000028.6944
28.29636 -6.14 0.52 5000040.1606
21.41664 -6.2 0.52 5000028.6944
15.15888 5.86 0.5 5000018.2648
124.19999999999999 5.62 0.5 5000200.0
15.15888 5.38 0.5 5000018.2648
17.592840000000002 3.58 0.5 5000022.3214
17.592840000000002 3.04 0.5 5000022.3214
13.4736 2.94 0.5 5000015.456
17.592840000000002 2.88 0.5 5000022.3214
17.592840000000002 2.54 0.5 5000022.3214
17.592840000000002 2.52 0.5 5000022.3214
17.592840000000002 2.16 0.5 5000022.3214
17.592840000000002 1.86 0.5 5000022.3214
17.592840000000002 1.84 0.5 5000022.3214
13.4736 1.76 0.5 5000015.456
13.4736 1.72 0.5 5000015.456
17.592840000000002 1.42 0.5 5000022.3214
17.592840000000002 1.4 0.5 5000022.3214
13.4736 1.32 0.5 5000015.456
17.592840000000002 1.0 0.5 5000022.3214
17.592840000000002 0.98 0.5 5000022.3214
13.4736 0.9 0.5 5000015.456
13.4736 0.88 0.5 5000015.456
17.592840000000002 0.58 0.5 5000022.3214
13.4736 0.48 0.5 5000015.456
10.54584 0.28 0.5 5000010.5764
21.41664 0.22 0.5 5000028.6944
21.41664 0.2 0.5 5000028.6944
124.19999999999999 0.1 0.5 5000200.0
124.19999999999999 0.06 0.5 5000200.0
124.19999999999999 0.04 0.5 5000200.0
21.41664 -0.1 0.5 5000028.6944
21.41664 -0.14 0.5 5000028.6944
124.19999999999999 -0.18 0.5 5000200.0
12.23748 -0.36 0.5 5000013.3958
9.941628000000001 -0.78 0.5 5000009.56938
21.41664 -1.34 0.5 5000028.6944
44.33376 -2.14 0.5 5000066.8896
124.19999999999999 -2.46 0.5 5000200.0
44.33376 -2.54 0.5 5000066.8896
28.29636 -2.6 0.5 5000040.1606
28.29636 -3.56 0.5 5000040.1606
28.29636 -3.6 0.5 5000040.1606
28.29636 -3.82 0.5 5000040.1606
21.41664 -3.88 0.5 5000028.6944
21.41664 -4.1 0.5 5000028.6944
28.29636 -5.94 0.5 5000040.1606
21.41664 -6.0 0.5 5000028.6944
28.29636 -6.14 0.5 5000040.1606
21.41664 -6.2 0.5 5000028.6944
15.15888 5.86 0.48 5000018.2648
15.15888 5.4 0.48 5000018.2648
15.15888 5.38 0.48 5000018.2648
17.592840000000002 3.58 0.48 5000022.3214
17.592840000000002 3.04 0.48 5000022.3214
13.4736 2.94 0.48 5000015.456
17.592840000000002 2.88 0.48 5000022.3214
44.33376 2.62 0.48 5000066.8896
17.592840000000002 2.54 0.48 5000022.3214
17.592840000000002 2.52 0.48 5000022.3214
17.592840000000002 2.16 0.48 5000022.3214
17.592840000000002 1.86 0.48 5000022.3214
17.592840000000002 1.84 0.48 5000022.3214
13.4736 1.76 0.48 5000015.456
17.592840000000002 1.42 0.48 5000022.3214
17.592840000000002 1.4 0.48 5000022.3214
13.4736 1.32 0.48 5000015.456
17.592840000000002 0.98 0.48 5000022.3214
13.4736 0.9 0.48 5000015.456
13.4736 0.88 0.48 5000015.456
17.592840000000002 0.58 0.48 5000022.3214
13.4736 0.48 0.48 5000015.456
124.19999999999999 0.42 0.48 5000200.0
10.54584 0.28 0.48 5000010.5764
21.41664 0.22 0.48 5000028.6944
21.41664 0.2 0.48 5000028.6944
124.19999999999999 0.1 0.48 5000200.0
124.19999999999999 0.06 0.48 5000200.0
124.19999999999999 0.04 0.48 5000200.0
21.41664 -0.1 0.48 5000028.6944
21.41664 -0.14 0.48 5000028.6944
124.19999999999999 -0.18 0.48 5000200.0
12.23748 -0.36 0.48 5000013.3958
12.23748 -0.38 0.48 5000013.3958
10.54584 -0.48 0.48 5000010.5764
9.941628000000001 -0.78 0.48 5000009.56938
9.023147999999999 -0.92 0.48 5000008.03858
124.19999999999999 -1.14 0.48 5000200.0
21.41664 -1.34 0.48 5000028.6944
44.33376 -2.14 0.48 5000066.8896
28.29636 -2.22 0.48 5000040.1606
124.19999999999999 -2.46 0.48 5000200.0
44.33376 -2.52 0.48 5000066.8896
28.29636 -2.6 0.48 5000040.1606
17.592840000000002 -2.66 0.48 5000022.3214
28.29636 -3.6 0.48 5000040.1606
28.29636 -3.8 0.48 5000040.1606
28.29636 -3.82 0.48 5000040.1606
21.41664 -3.88 0.48 5000028.6944
21.41664 -4.1 0.48 5000028.6944
124.19999999999999 -5.88 0.48 5000200.0
28.29636 -5.94 0.48 5000040.1606
21.41664 -6.0 0.48 5000028.6944
28.29636 -6.14 0.48 5000040.1606
21.41664 -6.2 0.48 5000028.6944
15.15888 5.86 0.46 5000018.2648
15.15888 5.4 0.46 5000018.2648
15.15888 5.38 0.46 5000018.2648
17.592840000000002 3.58 0.46 5000022.3214
17.592840000000002 3.04 0.46 5000022.3214
13.4736 2.94 0.46 5000015.456
17.592840000000002 2.88 0.46 5000022.3214
17.592840000000002 2.54 0.46 5000022.3214
17.592840000000002 2.52 0.46 5000022.3214
17.592840000000002 2.16 0.46 5000022.3214
17.592840000000002 1.86 0.46 5000022.3214
17.592840000000002 1.84 0.46 5000022.3214
13.4736 1.76 0.46 5000015.456
17.592840000000002 1.42 0.46 5000022.3214
17.592840000000002 1.4 0.46 5000022.3214
13.4736 1.32 0.46 5000015.456
17.592840000000002 0.98 0.46 5000022.3214
13.4736 0.9 0.46 5000015.456
13.4736 0.88 0.46 5000015.456
124.19999999999999 0.8 0.46 5000200.0
9.941628000000001 0.66 0.46 5000009.56938
17.592840000000002 0.58 0.46 5000022.3214
13.4736 0.48 0.46 5000015.456
124.19999999999999 0.42 0.46 5000200.0
21.41664 0.22 0.46 5000028.6944
21.41664 0.2 0.46 5000028.6944
124.19999999999999 0.1 0.46 5000200.0
124.19999999999999 0.06 0.46 5000200.0
124.19999999999999 0.04 0.46 5000200.0
21.41664 -0.1 0.46 5000028.6944
21.41664 -0.14 0.46 5000028.6944
124.19999999999999 -0.18 0.46 5000200.0
12.23748 -0.36 0.46 5000013.3958
12.23748 -0.38 0.46 5000013.3958
9.941628000000001 -0.78 0.46 5000009.56938
9.023147999999999 -0.92 0.46 5000008.03858
21.41664 -1.34 0.46 5000028.6944
21.41664 -1.36 0.46 5000028.6944
21.41664 -1.4 0.46 5000028.6944
124.19999999999999 -2.0 0.46 5000200.0
44.33376 -2.14 0.46 5000066.8896
28.29636 -2.22 0.46 5000040.1606
124.19999999999999 -2.46 0.46 5000200.0
44.33376 -2.54 0.46 5000066.8896
28.29636 -2.6 0.46 5000040.1606
17.592840000000002 -2.66 0.46 5000022.3214
28.29636 -3.82 0.46 5000040.1606
21.41664 -3.88 0.46 5000028.6944
