VERSION .7
FIELDS x y z rgb
SIZE 4 4 4 4
TYPE F F F F
COUNT 1 1 1 1
WIDTH 1398
HEIGHT 1
VIEWPOINT 0 0 0 1 0 0 0
POINTS 1398
DATA ascii
13.4736 1.82 -0.16 5000015.456
13.4736 1.72 -0.16 5000015.456
17.592840000000002 1.18 -0.16 5000022.3214
124.19999999999999 -0.16 -0.16 5000200.0
124.19999999999999 -0.2 -0.16 5000200.0
21.41664 -0.38 -0.16 5000028.6944
15.15888 -0.48 -0.16 5000018.2648
17.592840000000002 -0.54 -0.16 5000022.3214
21.41664 -0.94 -0.16 5000028.6944
44.33376 -2.0 -0.16 5000066.8896
21.41664 -2.08 -0.16 5000028.6944
28.29636 -2.32 -0.16 5000040.1606
28.29636 -2.34 -0.16 5000040.1606
44.33376 -2.92 -0.16 5000066.8896
21.41664 -3.06 -0.16 5000028.6944
44.33376 -3.12 -0.16 5000066.8896
21.41664 -3.18 -0.16 5000028.6944
28.29636 -3.48 -0.16 5000040.1606
44.33376 -4.36 -0.16 5000066.8896
44.33376 -4.4 -0.16 5000066.8896
44.33376 -4.42 -0.16 5000066.8896
28.29636 -4.5 -0.16 5000040.1606
21.41664 -4.56 -0.16 5000028.6944
21.41664 -4.58 -0.16 5000028.6944
28.29636 -4.66 -0.16 5000040.1606
21.41664 -4.72 -0.16 5000028.6944
21.41664 -4.74 -0.16 5000028.6944
21.41664 -4.76 -0.16 5000028.6944
15.15888 -4.78 -0.16 5000018.2648
21.41664 -4.84 -0.16 5000028.6944
21.41664 -4.88 -0.16 5000028.6944
28.29636 -6.3 -0.16 5000040.1606
21.41664 -6.34 -0.16 5000028.6944
21.41664 -6.36 -0.16 5000028.6944
13.4736 5.42 -0.18 5000015.456
13.4736 5.36 -0.18 5000015.456
13.4736 4.94 -0.18 5000015.456
17.592840000000002 4.68 -0.18 5000022.3214
13.4736 4.62 -0.18 5000015.456
15.15888 3.96 -0.18 5000018.2648
15.15888 3.82 -0.18 5000018.2648
15.15888 3.54 -0.18 5000018.2648
21.41664 3.44 -0.18 5000028.6944
21.41664 3.42 -0.18 5000028.6944
15.15888 3.36 -0.18 5000018.2648
15.15888 3.34 -0.18 5000018.2648
13.4736 3.1 -0.18 5000015.456
13.4736 3.08 -0.18 5000015.456
13.4736 3.0 -0.18 5000015.456
13.4736 2.98 -0.18 5000015.456
13.4736 2.94 -0.18 5000015.456
13.4736 2.44 -0.18 5000015.456
13.4736 2.42 -0.18 5000015.456
13.4736 2.24 -0.18 5000015.456
15.15888 1.88 -0.18 5000018.2648
13.4736 1.82 -0.18 5000015.456
13.4736 1.8 -0.18 5000015.456
13.4736 1.78 -0.18 5000015.456
13.4736 1.7 -0.18 5000015.456
17.592840000000002 1.18 -0.18 5000022.3214
124.19999999999999 -0.16 -0.18 5000200.0
124.19999999999999 -0.2 -0.18 5000200.0
21.41664 -0.36 -0.18 5000028.6944
21.41664 -0.38 -0.18 5000028.6944
15.15888 -0.48 -0.18 5000018.2648
21.41664 -0.96 -0.18 5000028.6944
124.19999999999999 -0.98 -0.18 5000200.0
17.592840000000002 -1.28 -0.18 5000022.3214
12.23748 -1.46 -0.18 5000013.3958
44.33376 -2.0 -0.18 5000066.8896
28.29636 -2.04 -0.18 5000040.1606
28.29636 -2.34 -0.18 5000040.1606
44.33376 -2.92 -0.18 5000066.8896
21.41664 -3.02 -0.18 5000028.6944
21.41664 -3.06 -0.18 5000028.6944
44.33376 -3.12 -0.18 5000066.8896
21.41664 -3.18 -0.18 5000028.6944
28.29636 -3.48 -0.18 5000040.1606
44.33376 -4.4 -0.18 5000066.8896
44.33376 -4.42 -0.18 5000066.8896
28.29636 -4.48 -0.18 5000040.1606
28.29636 -4.5 -0.18 5000040.1606
21.41664 -4.56 -0.18 5000028.6944
21.41664 -4.58 -0.18 5000028.6944
28.29636 -4.66 -0.18 5000040.1606
21.41664 -4.72 -0.18 5000028.6944
28.29636 -5.42 -0.18 5000040.1606
28.29636 -6.04 -0.18 5000040.1606
28.29636 -6.06 -0.18 5000040.1606
21.41664 -6.12 -0.18 5000028.6944
21.41664 -6.14 -0.18 5000028.6944
21.41664 -6.16 -0.18 5000028.6944
13.4736 5.42 -0.2 5000015.456
13.4736 5.36 -0.2 5000015.456
13.4736 5.3 -0.2 5000015.456
13.4736 4.98 -0.2 5000015.456
15.15888 3.96 -0.2 5000018.2648
15.15888 3.82 -0.2 5000018.2648
15.15888 3.54 -0.2 5000018.2648
15.15888 3.52 -0.2 5000018.2648
15.15888 3.36 -0.2 5000018.2648
13.4736 3.1 -0.2 5000015.456
13.4736 2.98 -0.2 5000015.456
13.4736 2.44 -0.2 5000015.456
13.4736 2.42 -0.2 5000015.456
13.4736 2.24 -0.2 5000015.456
17.592840000000002 1.88 -0.2 5000022.3214
13.4736 1.8 -0.2 5000015.456
13.4736 1.78 -0.2 5000015.456
13.4736 1.76 -0.2 5000015.456
13.4736 1.68 -0.2 5000015.456
17.592840000000002 1.18 -0.2 5000022.3214
21.41664 -0.16 -0.2 5000028.6944
17.592840000000002 -0.2 -0.2 5000022.3214
21.41664 -0.36 -0.2 5000028.6944
21.41664 -0.38 -0.2 5000028.6944
124.19999999999999 -0.98 -0.2 5000200.0
28.29636 -1.18 -0.2 5000040.1606
28.29636 -1.22 -0.2 5000040.1606
21.41664 -1.3 -0.2 5000028.6944
12.23748 -1.46 -0.2 5000013.3958
9.941628000000001 -1.68 -0.2 5000009.56938
44.33376 -2.02 -0.2 5000066.8896
21.41664 -2.08 -0.2 5000028.6944
7.459097999999999 -2.18 -0.2 5000005.43183
7.2919860000000005 -2.24 -0.2 5000005.15331
28.29636 -2.34 -0.2 5000040.1606
44.33376 -2.92 -0.2 5000066.8896
21.41664 -3.02 -0.2 5000028.6944
21.41664 -3.06 -0.2 5000028.6944
44.33376 -3.12 -0.2 5000066.8896
21.41664 -3.18 -0.2 5000028.6944
17.592840000000002 -3.26 -0.2 5000022.3214
28.29636 -3.48 -0.2 5000040.1606
21.41664 -3.54 -0.2 5000028.6944
44.33376 -5.32 -0.2 5000066.8896
28.29636 -5.42 -0.2 5000040.1606
28.29636 -5.98 -0.2 5000040.1606
28.29636 -6.04 -0.2 5000040.1606
21.41664 -6.1 -0.2 5000028.6944
21.41664 -6.12 -0.2 5000028.6944
13.4736 5.42 -0.22 5000015.456
13.4736 5.36 -0.22 5000015.456
13.4736 5.3 -0.22 5000015.456
13.4736 5.0 -0.22 5000015.456
13.4736 4.98 -0.22 5000015.456
13.4736 4.9 -0.22 5000015.456
15.15888 4.72 -0.22 5000018.2648
13.4736 4.6 -0.22 5000015.456
13.4736 4.58 -0.22 5000015.456
15.15888 4.56 -0.22 5000018.2648
15.15888 4.54 -0.22 5000018.2648
15.15888 4.06 -0.22 5000018.2648
15.15888 3.96 -0.22 5000018.2648
15.15888 3.82 -0.22 5000018.2648
15.15888 3.52 -0.22 5000018.2648
15.15888 3.36 -0.22 5000018.2648
13.4736 3.1 -0.22 5000015.456
13.4736 2.98 -0.22 5000015.456
12.23748 2.44 -0.22 5000013.3958
12.23748 2.42 -0.22 5000013.3958
13.4736 2.24 -0.22 5000015.456
124.19999999999999 2.16 -0.22 5000200.0
124.19999999999999 2.14 -0.22 5000200.0
17.592840000000002 1.86 -0.22 5000022.3214
13.4736 1.78 -0.22 5000015.456
13.4736 1.76 -0.22 5000015.456
13.4736 1.74 -0.22 5000015.456
13.4736 1.66 -0.22 5000015.456
17.592840000000002 1.18 -0.22 5000022.3214
17.592840000000002 -0.16 -0.22 5000022.3214
17.592840000000002 -0.2 -0.22 5000022.3214
21.41664 -0.36 -0.22 5000028.6944
21.41664 -0.38 -0.22 5000028.6944
15.15888 -0.52 -0.22 5000018.2648
28.29636 -1.18 -0.22 5000040.1606
28.29636 -1.2 -0.22 5000040.1606
9.941628000000001 -1.68 -0.22 5000009.56938
124.19999999999999 -1.86 -0.22 5000200.0
44.33376 -1.96 -0.22 5000066.8896
21.41664 -2.08 -0.22 5000028.6944
28.29636 -2.34 -0.22 5000040.1606
21.41664 -3.06 -0.22 5000028.6944
21.41664 -3.18 -0.22 5000028.6944
28.29636 -3.48 -0.22 5000040.1606
21.41664 -3.54 -0.22 5000028.6944
28.29636 -5.44 -0.22 5000040.1606
28.29636 -6.02 -0.22 5000040.1606
28.29636 -6.04 -0.22 5000040.1606
21.41664 -6.1 -0.22 5000028.6944
13.4736 5.42 -0.24 5000015.456
13.4736 5.36 -0.24 5000015.456
10.54584 5.22 -0.24 5000010.5764
13.4736 5.0 -0.24 5000015.456
13.4736 4.9 -0.24 5000015.456
13.4736 4.72 -0.24 5000015.456
12.23748 4.66 -0.24 5000013.3958
13.4736 4.6 -0.24 5000015.456
15.15888 4.58 -0.24 5000018.2648
15.15888 4.56 -0.24 5000018.2648
15.15888 4.54 -0.24 5000018.2648
15.15888 4.08 -0.24 5000018.2648
15.15888 3.82 -0.24 5000018.2648
15.15888 3.52 -0.24 5000018.2648
15.15888 3.5 -0.24 5000018.2648
15.15888 3.36 -0.24 5000018.2648
15.15888 3.3 -0.24 5000018.2648
13.4736 3.1 -0.24 5000015.456
13.4736 2.98 -0.24 5000015.456
12.23748 2.44 -0.24 5000013.3958
12.23748 2.42 -0.24 5000013.3958
13.4736 2.24 -0.24 5000015.456
13.4736 1.76 -0.24 5000015.456
13.4736 1.74 -0.24 5000015.456
13.4736 1.72 -0.24 5000015.456
13.4736 1.64 -0.24 5000015.456
17.592840000000002 -0.14 -0.24 5000022.3214
17.592840000000002 -0.16 -0.24 5000022.3214
21.41664 -0.18 -0.24 5000028.6944
17.592840000000002 -0.2 -0.24 5000022.3214
21.41664 -0.36 -0.24 5000028.6944
21.41664 -0.38 -0.24 5000028.6944
28.29636 -1.14 -0.24 5000040.1606
28.29636 -1.2 -0.24 5000040.1606
21.41664 -1.28 -0.24 5000028.6944
21.41664 -1.3 -0.24 5000028.6944
15.15888 -1.46 -0.24 5000018.2648
28.29636 -2.34 -0.24 5000040.1606
21.41664 -3.06 -0.24 5000028.6944
44.33376 -3.12 -0.24 5000066.8896
21.41664 -3.18 -0.24 5000028.6944
28.29636 -3.48 -0.24 5000040.1606
21.41664 -3.54 -0.24 5000028.6944
21.41664 -4.98 -0.24 5000028.6944
28.29636 -6.0 -0.24 5000040.1606
28.29636 -6.02 -0.24 5000040.1606
28.29636 -6.04 -0.24 5000040.1606
21.41664 -6.1 -0.24 5000028.6944
28.29636 -6.26 -0.24 5000040.1606
13.4736 5.44 -0.26 5000015.456
13.4736 5.42 -0.26 5000015.456
13.4736 5.36 -0.26 5000015.456
13.4736 5.0 -0.26 5000015.456
13.4736 4.9 -0.26 5000015.456
13.4736 4.72 -0.26 5000015.456
15.15888 3.82 -0.26 5000018.2648
15.15888 3.5 -0.26 5000018.2648
15.15888 3.36 -0.26 5000018.2648
15.15888 3.3 -0.26 5000018.2648
13.4736 3.1 -0.26 5000015.456
13.4736 2.94 -0.26 5000015.456
12.23748 2.44 -0.26 5000013.3958
12.23748 2.42 -0.26 5000013.3958
17.592840000000002 2.36 -0.26 5000022.3214
13.4736 2.24 -0.26 5000015.456
13.4736 1.74 -0.26 5000015.456
13.4736 1.72 -0.26 5000015.456
13.4736 1.7 -0.26 5000015.456
13.4736 1.62 -0.26 5000015.456
17.592840000000002 -0.2 -0.26 5000022.3214
124.19999999999999 -0.22 -0.26 5000200.0
44.33376 -0.26 -0.26 5000066.8896
44.33376 -0.28 -0.26 5000066.8896
21.41664 -0.38 -0.26 5000028.6944
44.33376 -1.2 -0.26 5000066.8896
28.29636 -1.26 -0.26 5000040.1606
21.41664 -1.32 -0.26 5000028.6944
21.41664 -1.34 -0.26 5000028.6944
44.33376 -2.24 -0.26 5000066.8896
28.29636 -2.34 -0.26 5000040.1606
21.41664 -3.06 -0.26 5000028.6944
17.592840000000002 -3.26 -0.26 5000022.3214
28.29636 -3.48 -0.26 5000040.1606
21.41664 -3.54 -0.26 5000028.6944
28.29636 -4.4 -0.26 5000040.1606
28.29636 -4.92 -0.26 5000040.1606
21.41664 -4.98 -0.26 5000028.6944
28.29636 -5.48 -0.26 5000040.1606
28.29636 -5.54 -0.26 5000040.1606
28.29636 -6.0 -0.26 5000040.1606
21.41664 -6.08 -0.26 5000028.6944
28.29636 -6.26 -0.26 5000040.1606
13.4736 5.44 -0.28 5000015.456
13.4736 5.42 -0.28 5000015.456
13.4736 5.36 -0.28 5000015.456
13.4736 5.14 -0.28 5000015.456
13.4736 5.1 -0.28 5000015.456
13.4736 4.6 -0.28 5000015.456
13.4736 4.2 -0.28 5000015.456
13.4736 4.18 -0.28 5000015.456
13.4736 4.16 -0.28 5000015.456
15.15888 4.08 -0.28 5000018.2648
15.15888 3.98 -0.28 5000018.2648
15.15888 3.96 -0.28 5000018.2648
15.15888 3.36 -0.28 5000018.2648
15.15888 3.3 -0.28 5000018.2648
13.4736 2.96 -0.28 5000015.456
13.4736 2.94 -0.28 5000015.456
12.23748 2.44 -0.28 5000013.3958
12.23748 2.42 -0.28 5000013.3958
17.592840000000002 2.36 -0.28 5000022.3214
21.41664 2.34 -0.28 5000028.6944
13.4736 2.22 -0.28 5000015.456
13.4736 1.8 -0.28 5000015.456
13.4736 1.72 -0.28 5000015.456
13.4736 1.7 -0.28 5000015.456
13.4736 1.68 -0.28 5000015.456
13.4736 1.6 -0.28 5000015.456
44.33376 1.52 -0.28 5000066.8896
28.29636 1.48 -0.28 5000040.1606
28.29636 1.46 -0.28 5000040.1606
17.592840000000002 1.38 -0.28 5000022.3214
17.592840000000002 1.36 -0.28 5000022.3214
17.592840000000002 1.06 -0.28 5000022.3214
17.592840000000002 1.04 -0.28 5000022.3214
21.41664 -0.38 -0.28 5000028.6944
44.33376 -1.2 -0.28 5000066.8896
21.41664 -1.34 -0.28 5000028.6944
21.41664 -1.36 -0.28 5000028.6944
15.15888 -1.46 -0.28 5000018.2648
15.15888 -1.48 -0.28 5000018.2648
12.23748 -1.66 -0.28 5000013.3958
28.29636 -2.34 -0.28 5000040.1606
21.41664 -3.06 -0.28 5000028.6944
21.41664 -3.18 -0.28 5000028.6944
28.29636 -3.48 -0.28 5000040.1606
21.41664 -3.54 -0.28 5000028.6944
21.41664 -3.56 -0.28 5000028.6944
28.29636 -5.5 -0.28 5000040.1606
28.29636 -6.0 -0.28 5000040.1606
13.4736 5.44 -0.3 5000015.456
13.4736 5.42 -0.3 5000015.456
13.4736 5.36 -0.3 5000015.456
13.4736 5.16 -0.3 5000015.456
13.4736 5.14 -0.3 5000015.456
15.15888 4.6 -0.3 5000018.2648
15.15888 4.08 -0.3 5000018.2648
15.15888 3.72 -0.3 5000018.2648
15.15888 3.58 -0.3 5000018.2648
15.15888 3.52 -0.3 5000018.2648
15.15888 3.36 -0.3 5000018.2648
15.15888 3.3 -0.3 5000018.2648
13.4736 3.1 -0.3 5000015.456
13.4736 2.94 -0.3 5000015.456
12.23748 2.44 -0.3 5000013.3958
12.23748 2.42 -0.3 5000013.3958
21.41664 2.32 -0.3 5000028.6944
21.41664 2.3 -0.3 5000028.6944
13.4736 2.22 -0.3 5000015.456
13.4736 2.2 -0.3 5000015.456
13.4736 1.68 -0.3 5000015.456
13.4736 1.66 -0.3 5000015.456
13.4736 1.58 -0.3 5000015.456
28.29636 1.52 -0.3 5000040.1606
28.29636 1.5 -0.3 5000040.1606
28.29636 1.48 -0.3 5000040.1606
28.29636 1.46 -0.3 5000040.1606
17.592840000000002 1.38 -0.3 5000022.3214
17.592840000000002 1.36 -0.3 5000022.3214
28.29636 1.16 -0.3 5000040.1606
17.592840000000002 1.06 -0.3 5000022.3214
17.592840000000002 1.04 -0.3 5000022.3214
17.592840000000002 0.28 -0.3 5000022.3214
17.592840000000002 0.26 -0.3 5000022.3214
21.41664 -0.3 -0.3 5000028.6944
44.33376 -1.2 -0.3 5000066.8896
44.33376 -1.26 -0.3 5000066.8896
21.41664 -1.38 -0.3 5000028.6944
21.41664 -1.4 -0.3 5000028.6944
15.15888 -1.5 -0.3 5000018.2648
12.23748 -1.66 -0.3 5000013.3958
10.54584 -1.9 -0.3 5000010.5764
28.29636 -2.34 -0.3 5000040.1606
28.29636 -2.36 -0.3 5000040.1606
44.33376 -2.9 -0.3 5000066.8896
44.33376 -2.92 -0.3 5000066.8896
21.41664 -3.06 -0.3 5000028.6944
44.33376 -3.12 -0.3 5000066.8896
21.41664 -3.18 -0.3 5000028.6944
17.592840000000002 -3.26 -0.3 5000022.3214
28.29636 -3.48 -0.3 5000040.1606
21.41664 -3.54 -0.3 5000028.6944
28.29636 -5.5 -0.3 5000040.1606
21.41664 -5.56 -0.3 5000028.6944
28.29636 -5.98 -0.3 5000040.1606
28.29636 -6.0 -0.3 5000040.1606
13.4736 5.44 -0.32 5000015.456
13.4736 5.42 -0.32 5000015.456
13.4736 5.16 -0.32 5000015.456
13.4736 5.14 -0.32 5000015.456
13.4736 4.72 -0.32 5000015.456
15.15888 4.52 -0.32 5000018.2648
15.15888 3.58 -0.32 5000018.2648
15.15888 3.52 -0.32 5000018.2648
15.15888 3.5 -0.32 5000018.2648
15.15888 3.36 -0.32 5000018.2648
15.15888 3.3 -0.32 5000018.2648
13.4736 3.1 -0.32 5000015.456
13.4736 2.94 -0.32 5000015.456
13.4736 2.44 -0.32 5000015.456
13.4736 2.42 -0.32 5000015.456
21.41664 2.3 -0.32 5000028.6944
13.4736 2.22 -0.32 5000015.456
13.4736 2.18 -0.32 5000015.456
13.4736 2.14 -0.32 5000015.456
13.4736 1.66 -0.32 5000015.456
13.4736 1.64 -0.32 5000015.456
13.4736 1.56 -0.32 5000015.456
28.29636 1.5 -0.32 5000040.1606
28.29636 1.48 -0.32 5000040.1606
28.29636 1.46 -0.32 5000040.1606
28.29636 1.44 -0.32 5000040.1606
17.592840000000002 1.38 -0.32 5000022.3214
17.592840000000002 1.36 -0.32 5000022.3214
28.29636 1.16 -0.32 5000040.1606
28.29636 1.14 -0.32 5000040.1606
17.592840000000002 1.06 -0.32 5000022.3214
17.592840000000002 1.04 -0.32 5000022.3214
21.41664 0.4 -0.32 5000028.6944
21.41664 0.38 -0.32 5000028.6944
21.41664 0.36 -0.32 5000028.6944
17.592840000000002 0.34 -0.32 5000022.3214
17.592840000000002 0.32 -0.32 5000022.3214
17.592840000000002 0.3 -0.32 5000022.3214
17.592840000000002 0.28 -0.32 5000022.3214
17.592840000000002 0.26 -0.32 5000022.3214
17.592840000000002 -0.06 -0.32 5000022.3214
17.592840000000002 -0.1 -0.32 5000022.3214
17.592840000000002 -0.3 -0.32 5000022.3214
21.41664 -1.42 -0.32 5000028.6944
21.41664 -1.44 -0.32 5000028.6944
21.41664 -1.52 -0.32 5000028.6944
15.15888 -1.54 -0.32 5000018.2648
12.23748 -1.66 -0.32 5000013.3958
28.29636 -2.4 -0.32 5000040.1606
44.33376 -2.9 -0.32 5000066.8896
21.41664 -3.06 -0.32 5000028.6944
17.592840000000002 -3.26 -0.32 5000022.3214
28.29636 -3.48 -0.32 5000040.1606
21.41664 -3.54 -0.32 5000028.6944
21.41664 -3.56 -0.32 5000028.6944
28.29636 -5.5 -0.32 5000040.1606
21.41664 -5.56 -0.32 5000028.6944
28.29636 -5.98 -0.32 5000040.1606
28.29636 -6.0 -0.32 5000040.1606
13.4736 5.44 -0.34 5000015.456
13.4736 5.42 -0.34 5000015.456
15.15888 5.36 -0.34 5000018.2648
13.4736 5.34 -0.34 5000015.456
13.4736 5.32 -0.34 5000015.456
17.592840000000002 5.24 -0.34 5000022.3214
17.592840000000002 5.22 -0.34 5000022.3214
13.4736 5.16 -0.34 5000015.456
13.4736 5.14 -0.34 5000015.456
13.4736 4.72 -0.34 5000015.456
15.15888 4.54 -0.34 5000018.2648
15.15888 4.52 -0.34 5000018.2648
15.15888 3.74 -0.34 5000018.2648
15.15888 3.7 -0.34 5000018.2648
15.15888 3.58 -0.34 5000018.2648
15.15888 3.5 -0.34 5000018.2648
15.15888 3.36 -0.34 5000018.2648
15.15888 3.3 -0.34 5000018.2648
13.4736 3.1 -0.34 5000015.456
13.4736 3.04 -0.34 5000015.456
13.4736 2.94 -0.34 5000015.456
13.4736 2.44 -0.34 5000015.456
13.4736 2.42 -0.34 5000015.456
13.4736 2.22 -0.34 5000015.456
13.4736 2.18 -0.34 5000015.456
15.15888 2.16 -0.34 5000018.2648
13.4736 2.12 -0.34 5000015.456
13.4736 1.64 -0.34 5000015.456
13.4736 1.62 -0.34 5000015.456
13.4736 1.54 -0.34 5000015.456
28.29636 1.46 -0.34 5000040.1606
28.29636 1.44 -0.34 5000040.1606
17.592840000000002 1.38 -0.34 5000022.3214
17.592840000000002 1.36 -0.34 5000022.3214
9.023147999999999 1.24 -0.34 5000008.03858
28.29636 1.14 -0.34 5000040.1606
17.592840000000002 1.06 -0.34 5000022.3214
17.592840000000002 1.04 -0.34 5000022.3214
21.41664 0.42 -0.34 5000028.6944
21.41664 0.4 -0.34 5000028.6944
21.41664 0.38 -0.34 5000028.6944
17.592840000000002 0.32 -0.34 5000022.3214
17.592840000000002 0.3 -0.34 5000022.3214
21.41664 0.02 -0.34 5000028.6944
21.41664 0.0 -0.34 5000028.6944
17.592840000000002 -0.06 -0.34 5000022.3214
8.089788 -0.2 -0.34 5000006.48298
17.592840000000002 -0.3 -0.34 5000022.3214
17.592840000000002 -0.32 -0.34 5000022.3214
17.592840000000002 -1.2 -0.34 5000022.3214
124.19999999999999 -1.26 -0.34 5000200.0
21.41664 -1.46 -0.34 5000028.6944
21.41664 -1.48 -0.34 5000028.6944
21.41664 -1.58 -0.34 5000028.6944
15.15888 -1.66 -0.34 5000018.2648
21.41664 -2.26 -0.34 5000028.6944
28.29636 -2.44 -0.34 5000040.1606
21.41664 -2.5 -0.34 5000028.6944
44.33376 -2.9 -0.34 5000066.8896
44.33376 -2.92 -0.34 5000066.8896
21.41664 -3.02 -0.34 5000028.6944
21.41664 -3.06 -0.34 5000028.6944
21.41664 -3.16 -0.34 5000028.6944
28.29636 -3.48 -0.34 5000040.1606
21.41664 -3.54 -0.34 5000028.6944
21.41664 -3.56 -0.34 5000028.6944
15.15888 -3.72 -0.34 5000018.2648
28.29636 -5.5 -0.34 5000040.1606
28.29636 -5.98 -0.34 5000040.1606
28.29636 -6.0 -0.34 5000040.1606
13.4736 5.44 -0.36 5000015.456
13.4736 5.42 -0.36 5000015.456
15.15888 5.36 -0.36 5000018.2648
15.15888 5.32 -0.36 5000018.2648
13.4736 5.3 -0.36 5000015.456
13.4736 5.16 -0.36 5000015.456
13.4736 4.72 -0.36 5000015.456
15.15888 4.52 -0.36 5000018.2648
15.15888 4.34 -0.36 5000018.2648
15.15888 3.7 -0.36 5000018.2648
15.15888 3.68 -0.36 5000018.2648
15.15888 3.5 -0.36 5000018.2648
15.15888 3.48 -0.36 5000018.2648
15.15888 3.3 -0.36 5000018.2648
13.4736 3.1 -0.36 5000015.456
13.4736 3.04 -0.36 5000015.456
13.4736 3.02 -0.36 5000015.456
13.4736 2.44 -0.36 5000015.456
13.4736 2.42 -0.36 5000015.456
13.4736 2.22 -0.36 5000015.456
13.4736 2.12 -0.36 5000015.456
13.4736 2.1 -0.36 5000015.456
13.4736 1.62 -0.36 5000015.456
13.4736 1.6 -0.36 5000015.456
13.4736 1.54 -0.36 5000015.456
13.4736 1.52 -0.36 5000015.456
17.592840000000002 0.48 -0.36 5000022.3214
17.592840000000002 0.46 -0.36 5000022.3214
17.592840000000002 -0.32 -0.36 5000022.3214
17.592840000000002 -1.2 -0.36 5000022.3214
21.41664 -1.5 -0.36 5000028.6944
21.41664 -1.6 -0.36 5000028.6944
15.15888 -1.62 -0.36 5000018.2648
15.15888 -1.74 -0.36 5000018.2648
12.23748 -1.8 -0.36 5000013.3958
21.41664 -2.26 -0.36 5000028.6944
21.41664 -2.48 -0.36 5000028.6944
21.41664 -2.5 -0.36 5000028.6944
44.33376 -2.9 -0.36 5000066.8896
21.41664 -3.04 -0.36 5000028.6944
28.29636 -3.48 -0.36 5000040.1606
21.41664 -3.56 -0.36 5000028.6944
15.15888 -3.72 -0.36 5000018.2648
15.15888 -3.74 -0.36 5000018.2648
28.29636 -5.5 -0.36 5000040.1606
21.41664 -5.56 -0.36 5000028.6944
28.29636 -5.8 -0.36 5000040.1606
28.29636 -5.98 -0.36 5000040.1606
28.29636 -6.0 -0.36 5000040.1606
13.4736 5.42 -0.38 5000015.456
13.4736 5.2 -0.38 5000015.456
13.4736 5.18 -0.38 5000015.456
13.4736 4.74 -0.38 5000015.456
13.4736 4.72 -0.38 5000015.456
15.15888 4.52 -0.38 5000018.2648
12.23748 4.44 -0.38 5000013.3958
15.15888 4.34 -0.38 5000018.2648
12.23748 4.26 -0.38 5000013.3958
15.15888 4.16 -0.38 5000018.2648
15.15888 3.68 -0.38 5000018.2648
15.15888 3.58 -0.38 5000018.2648
15.15888 3.48 -0.38 5000018.2648
15.15888 3.34 -0.38 5000018.2648
15.15888 3.3 -0.38 5000018.2648
13.4736 3.1 -0.38 5000015.456
13.4736 3.02 -0.38 5000015.456
13.4736 2.44 -0.38 5000015.456
13.4736 2.42 -0.38 5000015.456
13.4736 2.22 -0.38 5000015.456
13.4736 2.2 -0.38 5000015.456
13.4736 2.08 -0.38 5000015.456
13.4736 2.06 -0.38 5000015.456
13.4736 1.6 -0.38 5000015.456
13.4736 1.58 -0.38 5000015.456
17.592840000000002 0.52 -0.38 5000022.3214
17.592840000000002 0.5 -0.38 5000022.3214
17.592840000000002 0.48 -0.38 5000022.3214
17.592840000000002 -1.2 -0.38 5000022.3214
21.41664 -1.54 -0.38 5000028.6944
21.41664 -1.56 -0.38 5000028.6944
17.592840000000002 -1.64 -0.38 5000022.3214
15.15888 -1.66 -0.38 5000018.2648
12.23748 -1.8 -0.38 5000013.3958
21.41664 -2.52 -0.38 5000028.6944
28.29636 -3.48 -0.38 5000040.1606
28.29636 -3.5 -0.38 5000040.1606
21.41664 -3.56 -0.38 5000028.6944
28.29636 -5.5 -0.38 5000040.1606
21.41664 -5.56 -0.38 5000028.6944
28.29636 -5.8 -0.38 5000040.1606
28.29636 -5.98 -0.38 5000040.1606
28.29636 -6.0 -0.38 5000040.1606
28.29636 -6.04 -0.38 5000040.1606
21.41664 -6.06 -0.38 5000028.6944
13.4736 5.42 -0.4 5000015.456
13.4736 5.22 -0.4 5000015.456
13.4736 5.2 -0.4 5000015.456
13.4736 4.74 -0.4 5000015.456
13.4736 4.72 -0.4 5000015.456
15.15888 4.36 -0.4 5000018.2648
15.15888 4.34 -0.4 5000018.2648
12.23748 4.26 -0.4 5000013.3958
15.15888 4.16 -0.4 5000018.2648
15.15888 3.84 -0.4 5000018.2648
15.15888 3.58 -0.4 5000018.2648
15.15888 3.44 -0.4 5000018.2648
15.15888 3.34 -0.4 5000018.2648
15.15888 3.3 -0.4 5000018.2648
13.4736 3.1 -0.4 5000015.456
13.4736 2.44 -0.4 5000015.456
13.4736 2.42 -0.4 5000015.456
13.4736 2.22 -0.4 5000015.456
13.4736 2.2 -0.4 5000015.456
17.592840000000002 2.14 -0.4 5000022.3214
13.4736 2.06 -0.4 5000015.456
13.4736 2.04 -0.4 5000015.456
13.4736 1.58 -0.4 5000015.456
17.592840000000002 0.56 -0.4 5000022.3214
17.592840000000002 0.54 -0.4 5000022.3214
17.592840000000002 0.32 -0.4 5000022.3214
17.592840000000002 0.3 -0.4 5000022.3214
17.592840000000002 -1.2 -0.4 5000022.3214
21.41664 -1.56 -0.4 5000028.6944
21.41664 -1.58 -0.4 5000028.6944
15.15888 -1.68 -0.4 5000018.2648
12.23748 -1.8 -0.4 5000013.3958
10.54584 -2.04 -0.4 5000010.5764
28.29636 -3.24 -0.4 5000040.1606
28.29636 -3.48 -0.4 5000040.1606
28.29636 -3.5 -0.4 5000040.1606
21.41664 -3.56 -0.4 5000028.6944
28.29636 -5.5 -0.4 5000040.1606
21.41664 -5.56 -0.4 5000028.6944
28.29636 -5.8 -0.4 5000040.1606
28.29636 -5.98 -0.4 5000040.1606
28.29636 -6.0 -0.4 5000040.1606
13.4736 5.42 -0.42 5000015.456
13.4736 5.24 -0.42 5000015.456
13.4736 5.22 -0.42 5000015.456
13.4736 4.74 -0.42 5000015.456
13.4736 4.72 -0.42 5000015.456
15.15888 4.36 -0.42 5000018.2648
15.15888 4.34 -0.42 5000018.2648
15.15888 4.32 -0.42 5000018.2648
15.15888 4.16 -0.42 5000018.2648
15.15888 4.12 -0.42 5000018.2648
15.15888 4.08 -0.42 5000018.2648
15.15888 4.04 -0.42 5000018.2648
15.15888 3.84 -0.42 5000018.2648
15.15888 3.42 -0.42 5000018.2648
15.15888 3.34 -0.42 5000018.2648
15.15888 3.3 -0.42 5000018.2648
13.4736 3.1 -0.42 5000015.456
13.4736 3.0 -0.42 5000015.456
13.4736 2.98 -0.42 5000015.456
13.4736 2.44 -0.42 5000015.456
13.4736 2.42 -0.42 5000015.456
13.4736 2.22 -0.42 5000015.456
13.4736 2.2 -0.42 5000015.456
17.592840000000002 2.12 -0.42 5000022.3214
13.4736 2.04 -0.42 5000015.456
13.4736 2.02 -0.42 5000015.456
13.4736 1.52 -0.42 5000015.456
13.4736 1.48 -0.42 5000015.456
13.4736 1.46 -0.42 5000015.456
17.592840000000002 0.6 -0.42 5000022.3214
17.592840000000002 0.58 -0.42 5000022.3214
17.592840000000002 0.36 -0.42 5000022.3214
17.592840000000002 0.32 -0.42 5000022.3214
17.592840000000002 -0.14 -0.42 5000022.3214
17.592840000000002 -0.36 -0.42 5000022.3214
21.41664 -0.7 -0.42 5000028.6944
17.592840000000002 -1.28 -0.42 5000022.3214
21.41664 -1.6 -0.42 5000028.6944
21.41664 -1.62 -0.42 5000028.6944
17.592840000000002 -1.66 -0.42 5000022.3214
15.15888 -1.68 -0.42 5000018.2648
21.41664 -2.68 -0.42 5000028.6944
28.29636 -3.24 -0.42 5000040.1606
28.29636 -3.28 -0.42 5000040.1606
28.29636 -3.48 -0.42 5000040.1606
28.29636 -3.5 -0.42 5000040.1606
21.41664 -3.56 -0.42 5000028.6944
28.29636 -5.5 -0.42 5000040.1606
21.41664 -5.56 -0.42 5000028.6944
28.29636 -5.8 -0.42 5000040.1606
28.29636 -5.98 -0.42 5000040.1606
28.29636 -6.0 -0.42 5000040.1606
28.29636 -6.04 -0.42 5000040.1606
21.41664 -6.06 -0.42 5000028.6944
13.4736 5.42 -0.44 5000015.456
13.4736 5.26 -0.44 5000015.456
13.4736 4.74 -0.44 5000015.456
13.4736 4.72 -0.44 5000015.456
15.15888 4.34 -0.44 5000018.2648
15.15888 4.16 -0.44 5000018.2648
15.15888 4.04 -0.44 5000018.2648
15.15888 3.42 -0.44 5000018.2648
15.15888 3.4 -0.44 5000018.2648
15.15888 3.34 -0.44 5000018.2648
15.15888 3.3 -0.44 5000018.2648
13.4736 3.1 -0.44 5000015.456
13.4736 3.0 -0.44 5000015.456
13.4736 2.98 -0.44 5000015.456
13.4736 2.8 -0.44 5000015.456
13.4736 2.44 -0.44 5000015.456
13.4736 2.42 -0.44 5000015.456
13.4736 2.2 -0.44 5000015.456
13.4736 1.86 -0.44 5000015.456
13.4736 1.76 -0.44 5000015.456
13.4736 1.52 -0.44 5000015.456
13.4736 1.5 -0.44 5000015.456
13.4736 1.44 -0.44 5000015.456
28.29636 0.44 -0.44 5000040.1606
17.592840000000002 0.32 -0.44 5000022.3214
44.33376 0.26 -0.44 5000066.8896
17.592840000000002 -0.12 -0.44 5000022.3214
17.592840000000002 -0.14 -0.44 5000022.3214
21.41664 -0.66 -0.44 5000028.6944
21.41664 -0.7 -0.44 5000028.6944
21.41664 -0.72 -0.44 5000028.6944
44.33376 -1.02 -0.44 5000066.8896
17.592840000000002 -1.28 -0.44 5000022.3214
21.41664 -2.3 -0.44 5000028.6944
28.29636 -2.84 -0.44 5000040.1606
28.29636 -3.22 -0.44 5000040.1606
28.29636 -3.24 -0.44 5000040.1606
28.29636 -3.28 -0.44 5000040.1606
28.29636 -3.48 -0.44 5000040.1606
28.29636 -3.5 -0.44 5000040.1606
21.41664 -3.56 -0.44 5000028.6944
15.15888 -3.74 -0.44 5000018.2648
28.29636 -5.5 -0.44 5000040.1606
21.41664 -5.56 -0.44 5000028.6944
28.29636 -5.8 -0.44 5000040.1606
44.33376 -5.92 -0.44 5000066.8896
28.29636 -6.0 -0.44 5000040.1606
13.4736 5.42 -0.46 5000015.456
13.4736 5.28 -0.46 5000015.456
13.4736 5.26 -0.46 5000015.456
13.4736 4.74 -0.46 5000015.456
15.15888 4.34 -0.46 5000018.2648
15.15888 4.18 -0.46 5000018.2648
15.15888 4.16 -0.46 5000018.2648
15.15888 4.04 -0.46 5000018.2648
15.15888 3.58 -0.46 5000018.2648
15.15888 3.42 -0.46 5000018.2648
15.15888 3.4 -0.46 5000018.2648
15.15888 3.34 -0.46 5000018.2648
13.4736 3.12 -0.46 5000015.456
13.4736 3.1 -0.46 5000015.456
13.4736 3.0 -0.46 5000015.456
13.4736 2.98 -0.46 5000015.456
13.4736 2.8 -0.46 5000015.456
13.4736 2.76 -0.46 5000015.456
13.4736 2.74 -0.46 5000015.456
28.29636 2.66 -0.46 5000040.1606
28.29636 2.62 -0.46 5000040.1606
13.4736 2.44 -0.46 5000015.456
13.4736 2.42 -0.46 5000015.456
13.4736 2.2 -0.46 5000015.456
13.4736 2.18 -0.46 5000015.456
13.4736 1.76 -0.46 5000015.456
13.4736 1.52 -0.46 5000015.456
13.4736 1.5 -0.46 5000015.456
44.33376 0.66 -0.46 5000066.8896
44.33376 0.64 -0.46 5000066.8896
17.592840000000002 0.5 -0.46 5000022.3214
12.23748 0.34 -0.46 5000013.3958
12.23748 0.32 -0.46 5000013.3958
17.592840000000002 0.12 -0.46 5000022.3214
124.19999999999999 0.06 -0.46 5000200.0
17.592840000000002 -0.14 -0.46 5000022.3214
17.592840000000002 -0.16 -0.46 5000022.3214
124.19999999999999 -0.54 -0.46 5000200.0
21.41664 -0.72 -0.46 5000028.6944
44.33376 -1.02 -0.46 5000066.8896
17.592840000000002 -1.22 -0.46 5000022.3214
15.15888 -1.28 -0.46 5000018.2648
28.29636 -3.48 -0.46 5000040.1606
28.29636 -3.5 -0.46 5000040.1606
21.41664 -3.56 -0.46 5000028.6944
15.15888 -3.74 -0.46 5000018.2648
21.41664 -4.8 -0.46 5000028.6944
28.29636 -5.5 -0.46 5000040.1606
21.41664 -5.56 -0.46 5000028.6944
28.29636 -6.0 -0.46 5000040.1606
21.41664 -6.08 -0.46 5000028.6944
21.41664 -6.1 -0.46 5000028.6944
13.4736 5.42 -0.48 5000015.456
13.4736 5.36 -0.48 5000015.456
13.4736 5.3 -0.48 5000015.456
13.4736 5.28 -0.48 5000015.456
12.23748 4.82 -0.48 5000013.3958
13.4736 4.74 -0.48 5000015.456
15.15888 4.34 -0.48 5000018.2648
15.15888 4.18 -0.48 5000018.2648
15.15888 4.16 -0.48 5000018.2648
15.15888 3.58 -0.48 5000018.2648
15.15888 3.4 -0.48 5000018.2648
15.15888 3.34 -0.48 5000018.2648
13.4736 3.12 -0.48 5000015.456
13.4736 3.1 -0.48 5000015.456
10.54584 2.92 -0.48 5000010.5764
13.4736 2.8 -0.48 5000015.456
13.4736 2.76 -0.48 5000015.456
13.4736 2.74 -0.48 5000015.456
13.4736 2.44 -0.48 5000015.456
13.4736 2.42 -0.48 5000015.456
13.4736 2.18 -0.48 5000015.456
13.4736 1.76 -0.48 5000015.456
21.41664 1.66 -0.48 5000028.6944
13.4736 1.5 -0.48 5000015.456
13.4736 1.48 -0.48 5000015.456
11.29218 1.38 -0.48 5000011.8203
17.592840000000002 0.72 -0.48 5000022.3214
44.33376 0.7 -0.48 5000066.8896
44.33376 0.68 -0.48 5000066.8896
44.33376 0.66 -0.48 5000066.8896
17.592840000000002 0.52 -0.48 5000022.3214
17.592840000000002 0.5 -0.48 5000022.3214
12.23748 0.36 -0.48 5000013.3958
12.23748 0.34 -0.48 5000013.3958
12.23748 0.32 -0.48 5000013.3958
9.941628000000001 0.2 -0.48 5000009.56938
17.592840000000002 0.12 -0.48 5000022.3214
17.592840000000002 -0.16 -0.48 5000022.3214
44.33376 -0.4 -0.48 5000066.8896
124.19999999999999 -0.54 -0.48 5000200.0
124.19999999999999 -0.56 -0.48 5000200.0
124.19999999999999 -0.6 -0.48 5000200.0
21.41664 -0.7 -0.48 5000028.6944
21.41664 -0.72 -0.48 5000028.6944
21.41664 -0.74 -0.48 5000028.6944
17.592840000000002 -1.22 -0.48 5000022.3214
15.15888 -1.28 -0.48 5000018.2648
21.41664 -2.4 -0.48 5000028.6944
28.29636 -3.5 -0.48 5000040.1606
21.41664 -3.56 -0.48 5000028.6944
15.15888 -3.74 -0.48 5000018.2648
21.41664 -4.8 -0.48 5000028.6944
21.41664 -4.82 -0.48 5000028.6944
28.29636 -5.5 -0.48 5000040.1606
28.29636 -6.0 -0.48 5000040.1606
13.4736 5.42 -0.5 5000015.456
13.4736 5.4 -0.5 5000015.456
13.4736 5.36 -0.5 5000015.456
13.4736 5.34 -0.5 5000015.456
13.4736 5.3 -0.5 5000015.456
13.4736 5.28 -0.5 5000015.456
13.4736 5.12 -0.5 5000015.456
12.23748 4.82 -0.5 5000013.3958
13.4736 4.74 -0.5 5000015.456
13.4736 4.72 -0.5 5000015.456
15.15888 4.36 -0.5 5000018.2648
15.15888 4.34 -0.5 5000018.2648
12.23748 4.26 -0.5 5000013.3958
15.15888 4.18 -0.5 5000018.2648
15.15888 3.86 -0.5 5000018.2648
15.15888 3.58 -0.5 5000018.2648
15.15888 3.4 -0.5 5000018.2648
15.15888 3.34 -0.5 5000018.2648
13.4736 3.12 -0.5 5000015.456
13.4736 3.1 -0.5 5000015.456
13.4736 2.8 -0.5 5000015.456
13.4736 2.44 -0.5 5000015.456
13.4736 2.42 -0.5 5000015.456
13.4736 2.18 -0.5 5000015.456
13.4736 2.16 -0.5 5000015.456
13.4736 2.14 -0.5 5000015.456
13.4736 1.76 -0.5 5000015.456
13.4736 1.54 -0.5 5000015.456
13.4736 1.48 -0.5 5000015.456
13.4736 1.46 -0.5 5000015.456
13.4736 1.38 -0.5 5000015.456
11.29218 1.36 -0.5 5000011.8203
13.4736 1.34 -0.5 5000015.456
17.592840000000002 0.74 -0.5 5000022.3214
17.592840000000002 0.72 -0.5 5000022.3214
44.33376 0.68 -0.5 5000066.8896
28.29636 0.62 -0.5 5000040.1606
17.592840000000002 0.56 -0.5 5000022.3214
17.592840000000002 0.52 -0.5 5000022.3214
12.23748 0.36 -0.5 5000013.3958
12.23748 0.34 -0.5 5000013.3958
12.23748 0.32 -0.5 5000013.3958
44.33376 -0.4 -0.5 5000066.8896
124.19999999999999 -0.56 -0.5 5000200.0
21.41664 -0.74 -0.5 5000028.6944
21.41664 -0.76 -0.5 5000028.6944
17.592840000000002 -1.22 -0.5 5000022.3214
15.15888 -1.28 -0.5 5000018.2648
21.41664 -1.6 -0.5 5000028.6944
21.41664 -2.22 -0.5 5000028.6944
21.41664 -2.66 -0.5 5000028.6944
28.29636 -3.5 -0.5 5000040.1606
21.41664 -3.56 -0.5 5000028.6944
15.15888 -3.74 -0.5 5000018.2648
21.41664 -4.3 -0.5 5000028.6944
21.41664 -4.82 -0.5 5000028.6944
21.41664 -4.84 -0.5 5000028.6944
17.592840000000002 -4.88 -0.5 5000022.3214
28.29636 -5.5 -0.5 5000040.1606
21.41664 -5.56 -0.5 5000028.6944
21.41664 -6.06 -0.5 5000028.6944
13.4736 5.3 -0.52 5000015.456
13.4736 5.28 -0.52 5000015.456
13.4736 4.74 -0.52 5000015.456
13.4736 4.72 -0.52 5000015.456
15.15888 4.36 -0.52 5000018.2648
15.15888 4.34 -0.52 5000018.2648
15.15888 3.4 -0.52 5000018.2648
28.29636 3.26 -0.52 5000040.1606
28.29636 3.22 -0.52 5000040.1606
13.4736 3.12 -0.52 5000015.456
13.4736 3.1 -0.52 5000015.456
13.4736 3.04 -0.52 5000015.456
13.4736 3.02 -0.52 5000015.456
13.4736 2.44 -0.52 5000015.456
13.4736 2.42 -0.52 5000015.456
13.4736 2.14 -0.52 5000015.456
13.4736 2.12 -0.52 5000015.456
13.4736 2.1 -0.52 5000015.456
13.4736 1.76 -0.52 5000015.456
13.4736 1.58 -0.52 5000015.456
13.4736 1.56 -0.52 5000015.456
13.4736 1.54 -0.52 5000015.456
13.4736 1.46 -0.52 5000015.456
13.4736 1.44 -0.52 5000015.456
13.4736 1.34 -0.52 5000015.456
13.4736 1.3 -0.52 5000015.456
13.4736 1.28 -0.52 5000015.456
17.592840000000002 0.76 -0.52 5000022.3214
17.592840000000002 0.74 -0.52 5000022.3214
17.592840000000002 0.7 -0.52 5000022.3214
28.29636 0.64 -0.52 5000040.1606
28.29636 0.62 -0.52 5000040.1606
17.592840000000002 0.58 -0.52 5000022.3214
17.592840000000002 0.52 -0.52 5000022.3214
12.23748 0.36 -0.52 5000013.3958
17.592840000000002 -0.16 -0.52 5000022.3214
17.592840000000002 -0.2 -0.52 5000022.3214
21.41664 -0.36 -0.52 5000028.6944
17.592840000000002 -0.4 -0.52 5000022.3214
124.19999999999999 -0.52 -0.52 5000200.0
44.33376 -0.56 -0.52 5000066.8896
21.41664 -0.74 -0.52 5000028.6944
21.41664 -0.76 -0.52 5000028.6944
17.592840000000002 -1.22 -0.52 5000022.3214
15.15888 -1.28 -0.52 5000018.2648
21.41664 -1.6 -0.52 5000028.6944
21.41664 -2.9 -0.52 5000028.6944
28.29636 -3.5 -0.52 5000040.1606
21.41664 -3.56 -0.52 5000028.6944
15.15888 -3.74 -0.52 5000018.2648
21.41664 -4.3 -0.52 5000028.6944
21.41664 -4.32 -0.52 5000028.6944
21.41664 -4.76 -0.52 5000028.6944
21.41664 -4.8 -0.52 5000028.6944
21.41664 -4.82 -0.52 5000028.6944
17.592840000000002 -4.88 -0.52 5000022.3214
28.29636 -5.5 -0.52 5000040.1606
15.15888 3.4 -0.54 5000018.2648
15.15888 3.38 -0.54 5000018.2648
13.4736 3.12 -0.54 5000015.456
13.4736 3.1 -0.54 5000015.456
13.4736 3.04 -0.54 5000015.456
13.4736 3.02 -0.54 5000015.456
13.4736 2.44 -0.54 5000015.456
13.4736 2.42 -0.54 5000015.456
13.4736 2.08 -0.54 5000015.456
13.4736 2.06 -0.54 5000015.456
13.4736 2.04 -0.54 5000015.456
13.4736 1.76 -0.54 5000015.456
13.4736 1.58 -0.54 5000015.456
13.4736 1.44 -0.54 5000015.456
13.4736 1.42 -0.54 5000015.456
13.4736 1.26 -0.54 5000015.456
13.4736 1.24 -0.54 5000015.456
13.4736 1.22 -0.54 5000015.456
17.592840000000002 0.78 -0.54 5000022.3214
17.592840000000002 0.76 -0.54 5000022.3214
28.29636 0.64 -0.54 5000040.1606
17.592840000000002 0.54 -0.54 5000022.3214
17.592840000000002 0.52 -0.54 5000022.3214
12.23748 0.36 -0.54 5000013.3958
12.23748 0.34 -0.54 5000013.3958
12.23748 0.3 -0.54 5000013.3958
15.15888 0.28 -0.54 5000018.2648
15.15888 0.24 -0.54 5000018.2648
17.592840000000002 -0.36 -0.54 5000022.3214
17.592840000000002 -0.4 -0.54 5000022.3214
13.4736 -0.52 -0.54 5000015.456
17.592840000000002 -0.58 -0.54 5000022.3214
21.41664 -0.74 -0.54 5000028.6944
21.41664 -0.78 -0.54 5000028.6944
15.15888 -0.9 -0.54 5000018.2648
17.592840000000002 -1.22 -0.54 5000022.3214
44.33376 -1.48 -0.54 5000066.8896
21.41664 -2.46 -0.54 5000028.6944
124.19999999999999 -3.3 -0.54 5000200.0
124.19999999999999 -3.32 -0.54 5000200.0
28.29636 -3.5 -0.54 5000040.1606
21.41664 -3.56 -0.54 5000028.6944
15.15888 -3.74 -0.54 5000018.2648
21.41664 -4.26 -0.54 5000028.6944
21.41664 -4.3 -0.54 5000028.6944
21.41664 -4.32 -0.54 5000028.6944
21.41664 -4.76 -0.54 5000028.6944
21.41664 -4.8 -0.54 5000028.6944
21.41664 -4.82 -0.54 5000028.6944
28.29636 -5.5 -0.54 5000040.1606
21.41664 -5.9 -0.54 5000028.6944
11.29218 5.84 -0.56 5000011.8203
13.4736 3.12 -0.56 5000015.456
13.4736 3.1 -0.56 5000015.456
13.4736 3.02 -0.56 5000015.456
13.4736 2.44 -0.56 5000015.456
13.4736 2.42 -0.56 5000015.456
13.4736 2.04 -0.56 5000015.456
13.4736 2.02 -0.56 5000015.456
13.4736 2.0 -0.56 5000015.456
13.4736 1.98 -0.56 5000015.456
13.4736 1.74 -0.56 5000015.456
13.4736 1.58 -0.56 5000015.456
17.592840000000002 1.52 -0.56 5000022.3214
13.4736 1.44 -0.56 5000015.456
13.4736 1.42 -0.56 5000015.456
13.4736 1.4 -0.56 5000015.456
13.4736 1.34 -0.56 5000015.456
13.4736 1.22 -0.56 5000015.456
13.4736 1.2 -0.56 5000015.456
13.4736 1.18 -0.56 5000015.456
124.19999999999999 1.04 -0.56 5000200.0
124.19999999999999 1.02 -0.56 5000200.0
124.19999999999999 1.0 -0.56 5000200.0
17.592840000000002 0.8 -0.56 5000022.3214
17.592840000000002 0.78 -0.56 5000022.3214
28.29636 0.64 -0.56 5000040.1606
28.29636 0.6 -0.56 5000040.1606
17.592840000000002 0.54 -0.56 5000022.3214
17.592840000000002 0.52 -0.56 5000022.3214
12.23748 0.36 -0.56 5000013.3958
12.23748 0.34 -0.56 5000013.3958
17.592840000000002 -0.34 -0.56 5000022.3214
17.592840000000002 -0.4 -0.56 5000022.3214
13.4736 -0.52 -0.56 5000015.456
17.592840000000002 -0.58 -0.56 5000022.3214
21.41664 -0.8 -0.56 5000028.6944
15.15888 -0.9 -0.56 5000018.2648
15.15888 -0.92 -0.56 5000018.2648
17.592840000000002 -1.22 -0.56 5000022.3214
124.19999999999999 -1.4 -0.56 5000200.0
124.19999999999999 -1.42 -0.56 5000200.0
44.33376 -1.46 -0.56 5000066.8896
44.33376 -1.48 -0.56 5000066.8896
17.592840000000002 -1.66 -0.56 5000022.3214
8.089788 -2.38 -0.56 5000006.48298
124.19999999999999 -3.32 -0.56 5000200.0
124.19999999999999 -3.34 -0.56 5000200.0
124.19999999999999 -3.36 -0.56 5000200.0
44.33376 -3.38 -0.56 5000066.8896
28.29636 -3.5 -0.56 5000040.1606
21.41664 -3.54 -0.56 5000028.6944
21.41664 -3.56 -0.56 5000028.6944
15.15888 -3.74 -0.56 5000018.2648
21.41664 -4.3 -0.56 5000028.6944
21.41664 -4.32 -0.56 5000028.6944
21.41664 -4.76 -0.56 5000028.6944
21.41664 -4.8 -0.56 5000028.6944
21.41664 -4.82 -0.56 5000028.6944
28.29636 -5.5 -0.56 5000040.1606
11.29218 5.86 -0.58 5000011.8203
11.29218 5.84 -0.58 5000011.8203
13.4736 3.12 -0.58 5000015.456
13.4736 3.1 -0.58 5000015.456
13.4736 2.44 -0.58 5000015.456
13.4736 2.42 -0.58 5000015.456
13.4736 1.98 -0.58 5000015.456
13.4736 1.96 -0.58 5000015.456
13.4736 1.94 -0.58 5000015.456
13.4736 1.92 -0.58 5000015.456
13.4736 1.74 -0.58 5000015.456
17.592840000000002 1.5 -0.58 5000022.3214
13.4736 1.42 -0.58 5000015.456
13.4736 1.4 -0.58 5000015.456
13.4736 1.18 -0.58 5000015.456
13.4736 1.16 -0.58 5000015.456
13.4736 1.14 -0.58 5000015.456
17.592840000000002 0.82 -0.58 5000022.3214
17.592840000000002 0.8 -0.58 5000022.3214
28.29636 0.6 -0.58 5000040.1606
17.592840000000002 0.54 -0.58 5000022.3214
124.19999999999999 0.46 -0.58 5000200.0
17.592840000000002 -0.34 -0.58 5000022.3214
17.592840000000002 -0.38 -0.58 5000022.3214
17.592840000000002 -0.4 -0.58 5000022.3214
13.4736 -0.52 -0.58 5000015.456
17.592840000000002 -0.58 -0.58 5000022.3214
21.41664 -0.82 -0.58 5000028.6944
15.15888 -0.9 -0.58 5000018.2648
15.15888 -0.92 -0.58 5000018.2648
44.33376 -1.16 -0.58 5000066.8896
17.592840000000002 -1.22 -0.58 5000022.3214
44.33376 -1.48 -0.58 5000066.8896
17.592840000000002 -1.66 -0.58 5000022.3214
8.089788 -2.38 -0.58 5000006.48298
8.089788 -2.4 -0.58 5000006.48298
28.29636 -2.82 -0.58 5000040.1606
21.41664 -2.9 -0.58 5000028.6944
21.41664 -3.08 -0.58 5000028.6944
44.33376 -3.38 -0.58 5000066.8896
44.33376 -3.4 -0.58 5000066.8896
28.29636 -3.5 -0.58 5000040.1606
21.41664 -3.56 -0.58 5000028.6944
15.15888 -3.74 -0.58 5000018.2648
21.41664 -4.32 -0.58 5000028.6944
21.41664 -4.34 -0.58 5000028.6944
21.41664 -4.8 -0.58 5000028.6944
21.41664 -5.4 -0.58 5000028.6944
28.29636 -5.54 -0.58 5000040.1606
11.29218 5.9 -0.6 5000011.8203
11.29218 5.88 -0.6 5000011.8203
13.4736 2.54 -0.6 5000015.456
13.4736 2.5 -0.6 5000015.456
13.4736 2.48 -0.6 5000015.456
13.4736 2.44 -0.6 5000015.456
13.4736 2.42 -0.6 5000015.456
13.4736 1.92 -0.6 5000015.456
13.4736 1.9 -0.6 5000015.456
13.4736 1.88 -0.6 5000015.456
13.4736 1.86 -0.6 5000015.456
13.4736 1.4 -0.6 5000015.456
13.4736 1.38 -0.6 5000015.456
28.29636 1.28 -0.6 5000040.1606
28.29636 1.26 -0.6 5000040.1606
13.4736 1.14 -0.6 5000015.456
13.4736 1.12 -0.6 5000015.456
13.4736 1.1 -0.6 5000015.456
17.592840000000002 0.84 -0.6 5000022.3214
17.592840000000002 0.82 -0.6 5000022.3214
17.592840000000002 0.74 -0.6 5000022.3214
44.33376 0.68 -0.6 5000066.8896
17.592840000000002 0.54 -0.6 5000022.3214
124.19999999999999 0.48 -0.6 5000200.0
124.19999999999999 0.46 -0.6 5000200.0
12.23748 0.32 -0.6 5000013.3958
17.592840000000002 0.26 -0.6 5000022.3214
15.15888 0.2 -0.6 5000018.2648
7.004394 -0.24 -0.6 5000004.67399
17.592840000000002 -0.38 -0.6 5000022.3214
17.592840000000002 -0.4 -0.6 5000022.3214
17.592840000000002 -0.42 -0.6 5000022.3214
28.29636 -0.46 -0.6 5000040.1606
13.4736 -0.52 -0.6 5000015.456
13.4736 -0.54 -0.6 5000015.456
17.592840000000002 -0.58 -0.6 5000022.3214
21.41664 -0.82 -0.6 5000028.6944
21.41664 -0.84 -0.6 5000028.6944
17.592840000000002 -1.22 -0.6 5000022.3214
17.592840000000002 -1.3 -0.6 5000022.3214
17.592840000000002 -1.32 -0.6 5000022.3214
17.592840000000002 -1.66 -0.6 5000022.3214
17.592840000000002 -1.68 -0.6 5000022.3214
21.41664 -2.9 -0.6 5000028.6944
28.29636 -3.5 -0.6 5000040.1606
21.41664 -3.54 -0.6 5000028.6944
21.41664 -3.56 -0.6 5000028.6944
21.41664 -4.12 -0.6 5000028.6944
21.41664 -4.32 -0.6 5000028.6944
21.41664 -4.34 -0.6 5000028.6944
21.41664 -4.6 -0.6 5000028.6944
28.29636 -4.72 -0.6 5000040.1606
21.41664 -4.8 -0.6 5000028.6944
21.41664 -5.4 -0.6 5000028.6944
21.41664 -6.3 -0.6 5000028.6944
11.29218 5.9 -0.62 5000011.8203
11.29218 5.88 -0.62 5000011.8203
13.4736 2.5 -0.62 5000015.456
13.4736 2.48 -0.62 5000015.456
13.4736 2.44 -0.62 5000015.456
12.23748 2.42 -0.62 5000013.3958
13.4736 1.38 -0.62 5000015.456
13.4736 1.36 -0.62 5000015.456
28.29636 1.26 -0.62 5000040.1606
13.4736 1.1 -0.62 5000015.456
13.4736 1.08 -0.62 5000015.456
17.592840000000002 0.84 -0.62 5000022.3214
17.592840000000002 0.74 -0.62 5000022.3214
28.29636 0.7 -0.62 5000040.1606
44.33376 0.68 -0.62 5000066.8896
17.592840000000002 0.54 -0.62 5000022.3214
124.19999999999999 0.46 -0.62 5000200.0
21.41664 0.32 -0.62 5000028.6944
17.592840000000002 0.26 -0.62 5000022.3214
17.592840000000002 -0.4 -0.62 5000022.3214
17.592840000000002 -0.42 -0.62 5000022.3214
17.592840000000002 -0.46 -0.62 5000022.3214
13.4736 -0.54 -0.62 5000015.456
17.592840000000002 -0.58 -0.62 5000022.3214
21.41664 -0.84 -0.62 5000028.6944
28.29636 -1.04 -0.62 5000040.1606
44.33376 -1.12 -0.62 5000066.8896
17.592840000000002 -1.3 -0.62 5000022.3214
124.19999999999999 -1.38 -0.62 5000200.0
17.592840000000002 -1.66 -0.62 5000022.3214
17.592840000000002 -1.68 -0.62 5000022.3214
21.41664 -2.92 -0.62 5000028.6944
17.592840000000002 -2.98 -0.62 5000022.3214
28.29636 -3.24 -0.62 5000040.1606
21.41664 -3.32 -0.62 5000028.6944
28.29636 -3.5 -0.62 5000040.1606
21.41664 -3.56 -0.62 5000028.6944
21.41664 -4.12 -0.62 5000028.6944
21.41664 -4.34 -0.62 5000028.6944
124.19999999999999 -4.5 -0.62 5000200.0
21.41664 -4.6 -0.62 5000028.6944
21.41664 -4.62 -0.62 5000028.6944
28.29636 -4.7 -0.62 5000040.1606
28.29636 -4.72 -0.62 5000040.1606
21.41664 -4.8 -0.62 5000028.6944
21.41664 -5.4 -0.62 5000028.6944
21.41664 -5.42 -0.62 5000028.6944
28.29636 -6.2 -0.62 5000040.1606
21.41664 -6.3 -0.62 5000028.6944
11.29218 5.9 -0.64 5000011.8203
11.29218 5.88 -0.64 5000011.8203
13.4736 2.5 -0.64 5000015.456
13.4736 2.48 -0.64 5000015.456
13.4736 2.44 -0.64 5000015.456
12.23748 2.42 -0.64 5000013.3958
21.41664 2.36 -0.64 5000028.6944
21.41664 2.34 -0.64 5000028.6944
13.4736 2.14 -0.64 5000015.456
13.4736 2.12 -0.64 5000015.456
13.4736 1.66 -0.64 5000015.456
13.4736 1.64 -0.64 5000015.456
13.4736 1.62 -0.64 5000015.456
21.41664 1.54 -0.64 5000028.6944
21.41664 1.52 -0.64 5000028.6944
21.41664 1.5 -0.64 5000028.6944
13.4736 1.36 -0.64 5000015.456
13.4736 1.34 -0.64 5000015.456
28.29636 1.26 -0.64 5000040.1606
28.29636 1.24 -0.64 5000040.1606
9.941628000000001 1.2 -0.64 5000009.56938
13.4736 1.08 -0.64 5000015.456
13.4736 1.06 -0.64 5000015.456
17.592840000000002 0.86 -0.64 5000022.3214
17.592840000000002 0.84 -0.64 5000022.3214
17.592840000000002 0.76 -0.64 5000022.3214
17.592840000000002 0.74 -0.64 5000022.3214
28.29636 0.7 -0.64 5000040.1606
44.33376 0.66 -0.64 5000066.8896
12.23748 0.6 -0.64 5000013.3958
17.592840000000002 0.54 -0.64 5000022.3214
124.19999999999999 0.48 -0.64 5000200.0
17.592840000000002 0.32 -0.64 5000022.3214
17.592840000000002 0.26 -0.64 5000022.3214
17.592840000000002 -0.42 -0.64 5000022.3214
17.592840000000002 -0.46 -0.64 5000022.3214
13.4736 -0.54 -0.64 5000015.456
21.41664 -0.84 -0.64 5000028.6944
28.29636 -0.92 -0.64 5000040.1606
17.592840000000002 -1.0 -0.64 5000022.3214
17.592840000000002 -1.02 -0.64 5000022.3214
44.33376 -1.12 -0.64 5000066.8896
17.592840000000002 -1.3 -0.64 5000022.3214
17.592840000000002 -1.66 -0.64 5000022.3214
17.592840000000002 -1.68 -0.64 5000022.3214
21.41664 -2.68 -0.64 5000028.6944
21.41664 -2.92 -0.64 5000028.6944
17.592840000000002 -2.98 -0.64 5000022.3214
21.41664 -3.3 -0.64 5000028.6944
21.41664 -3.32 -0.64 5000028.6944
21.41664 -3.6 -0.64 5000028.6944
21.41664 -3.62 -0.64 5000028.6944
21.41664 -3.94 -0.64 5000028.6944
21.41664 -4.12 -0.64 5000028.6944
21.41664 -4.34 -0.64 5000028.6944
21.41664 -4.6 -0.64 5000028.6944
21.41664 -4.62 -0.64 5000028.6944
28.29636 -4.72 -0.64 5000040.1606
28.29636 -4.74 -0.64 5000040.1606
21.41664 -4.8 -0.64 5000028.6944
21.41664 -5.4 -0.64 5000028.6944
21.41664 -5.42 -0.64 5000028.6944
21.41664 -6.3 -0.64 5000028.6944
11.29218 5.9 -0.66 5000011.8203
11.29218 5.88 -0.66 5000011.8203
13.4736 2.5 -0.66 5000015.456
13.4736 2.48 -0.66 5000015.456
12.23748 2.42 -0.66 5000013.3958
13.4736 2.12 -0.66 5000015.456
13.4736 2.1 -0.66 5000015.456
13.4736 1.6 -0.66 5000015.456
13.4736 1.34 -0.66 5000015.456
13.4736 1.32 -0.66 5000015.456
9.941628000000001 1.18 -0.66 5000009.56938
9.941628000000001 1.16 -0.66 5000009.56938
13.4736 1.08 -0.66 5000015.456
13.4736 1.06 -0.66 5000015.456
28.29636 0.98 -0.66 5000040.1606
17.592840000000002 0.88 -0.66 5000022.3214
17.592840000000002 0.76 -0.66 5000022.3214
17.592840000000002 0.74 -0.66 5000022.3214
28.29636 0.7 -0.66 5000040.1606
44.33376 0.66 -0.66 5000066.8896
12.23748 0.6 -0.66 5000013.3958
17.592840000000002 0.56 -0.66 5000022.3214
17.592840000000002 0.54 -0.66 5000022.3214
44.33376 0.5 -0.66 5000066.8896
44.33376 0.48 -0.66 5000066.8896
17.592840000000002 0.32 -0.66 5000022.3214
17.592840000000002 0.26 -0.66 5000022.3214
17.592840000000002 -0.42 -0.66 5000022.3214
17.592840000000002 -0.44 -0.66 5000022.3214
17.592840000000002 -0.46 -0.66 5000022.3214
13.4736 -0.54 -0.66 5000015.456
17.592840000000002 -0.6 -0.66 5000022.3214
28.29636 -0.9 -0.66 5000040.1606
17.592840000000002 -1.0 -0.66 5000022.3214
17.592840000000002 -1.02 -0.66 5000022.3214
44.33376 -1.12 -0.66 5000066.8896
17.592840000000002 -1.32 -0.66 5000022.3214
124.19999999999999 -1.4 -0.66 5000200.0
17.592840000000002 -1.66 -0.66 5000022.3214
17.592840000000002 -1.68 -0.66 5000022.3214
21.41664 -2.92 -0.66 5000028.6944
21.41664 -3.3 -0.66 5000028.6944
21.41664 -3.84 -0.66 5000028.6944
21.41664 -3.94 -0.66 5000028.6944
21.41664 -4.34 -0.66 5000028.6944
21.41664 -4.6 -0.66 5000028.6944
21.41664 -4.62 -0.66 5000028.6944
21.41664 -4.8 -0.66 5000028.6944
21.41664 -5.4 -0.66 5000028.6944
28.29636 -6.18 -0.66 5000040.1606
21.41664 -6.3 -0.66 5000028.6944
11.29218 5.88 -0.68 5000011.8203
13.4736 2.44 -0.68 5000015.456
12.23748 2.42 -0.68 5000013.3958
9.941628000000001 2.24 -0.68 5000009.56938
9.941628000000001 2.22 -0.68 5000009.56938
13.4736 2.1 -0.68 5000015.456
13.4736 1.32 -0.68 5000015.456
13.4736 1.06 -0.68 5000015.456
13.4736 1.04 -0.68 5000015.456
17.592840000000002 0.88 -0.68 5000022.3214
17.592840000000002 0.86 -0.68 5000022.3214
17.592840000000002 0.76 -0.68 5000022.3214
12.23748 0.6 -0.68 5000013.3958
17.592840000000002 0.58 -0.68 5000022.3214
17.592840000000002 0.56 -0.68 5000022.3214
11.29218 0.38 -0.68 5000011.8203
11.29218 0.36 -0.68 5000011.8203
17.592840000000002 0.32 -0.68 5000022.3214
15.15888 0.26 -0.68 5000018.2648
17.592840000000002 -0.42 -0.68 5000022.3214
17.592840000000002 -0.44 -0.68 5000022.3214
28.29636 -0.48 -0.68 5000040.1606
13.4736 -0.54 -0.68 5000015.456
17.592840000000002 -0.6 -0.68 5000022.3214
21.41664 -0.9 -0.68 5000028.6944
15.15888 -0.98 -0.68 5000018.2648
15.15888 -1.0 -0.68 5000018.2648
15.15888 -1.02 -0.68 5000018.2648
9.941628000000001 -1.3 -0.68 5000009.56938
124.19999999999999 -1.42 -0.68 5000200.0
44.33376 -1.52 -0.68 5000066.8896
17.592840000000002 -1.68 -0.68 5000022.3214
17.592840000000002 -1.7 -0.68 5000022.3214
21.41664 -3.06 -0.68 5000028.6944
21.41664 -3.64 -0.68 5000028.6944
15.15888 -3.76 -0.68 5000018.2648
21.41664 -3.86 -0.68 5000028.6944
21.41664 -3.94 -0.68 5000028.6944
21.41664 -4.16 -0.68 5000028.6944
21.41664 -4.34 -0.68 5000028.6944
21.41664 -4.62 -0.68 5000028.6944
21.41664 -4.8 -0.68 5000028.6944
21.41664 -6.3 -0.68 5000028.6944
11.29218 5.88 -0.7 5000011.8203
