VERSION .7
FIELDS x y z rgb
SIZE 4 4 4 4
TYPE F F F F
COUNT 1 1 1 1
WIDTH 829
HEIGHT 1
VIEWPOINT 0 0 0 1 0 0 0
POINTS 829
DATA ascii
10.744046666666666 -9.266666666666667 3.1666666666666665 5000022.3214
10.744046666666666 -9.3 3.1666666666666665 5000022.3214
10.95648 -9.833333333333334 3.1666666666666665 5000028.6944
10.744046666666666 -9.966666666666667 3.1666666666666665 5000022.3214
10.216099333333334 -10.166666666666666 3.1666666666666665 5000006.48298
11.338686666666668 -11.966666666666667 3.1666666666666665 5000040.1606
11.338686666666668 -12.066666666666666 3.1666666666666665 5000040.1606
10.95648 -12.133333333333333 3.1666666666666665 5000028.6944
10.744046666666666 -12.266666666666667 3.1666666666666665 5000022.3214
10.744046666666666 -12.366666666666667 3.1666666666666665 5000022.3214
12.229653333333333 -12.766666666666667 3.1666666666666665 5000066.8896
11.338686666666668 -12.9 3.1666666666666665 5000040.1606
10.95648 -13.033333333333333 3.1666666666666665 5000028.6944
11.338686666666668 -13.966666666666667 3.1666666666666665 5000040.1606
11.338686666666668 -14.433333333333334 3.1666666666666665 5000040.1606
11.338686666666668 -14.6 3.1666666666666665 5000040.1606
11.338686666666668 -15.166666666666666 3.1666666666666665 5000040.1606
11.338686666666668 -16.2 3.1666666666666665 5000040.1606
11.338686666666668 -16.266666666666666 3.1666666666666665 5000040.1606
11.338686666666668 -16.7 3.1666666666666665 5000040.1606
11.338686666666668 -16.8 3.1666666666666665 5000040.1606
11.338686666666668 -16.833333333333332 3.1666666666666665 5000040.1606
10.5152 1.7666666666666666 3.1333333333333333 5000015.456
10.5152 1.7333333333333334 3.1333333333333333 5000015.456
10.608826666666667 0.8333333333333334 3.1333333333333333 5000018.2648
10.608826666666667 0.5 3.1333333333333333 5000018.2648
10.744046666666666 -0.6 3.1333333333333333 5000022.3214
10.608826666666667 -0.6333333333333333 3.1333333333333333 5000018.2648
10.608826666666667 -0.6666666666666666 3.1333333333333333 5000018.2648
10.5152 -0.9666666666666667 3.1333333333333333 5000015.456
11.338686666666668 -3.2 3.1333333333333333 5000040.1606
11.338686666666668 -3.2666666666666666 3.1333333333333333 5000040.1606
10.95648 -3.6666666666666665 3.1333333333333333 5000028.6944
10.95648 -4.233333333333333 3.1333333333333333 5000028.6944
10.95648 -4.266666666666667 3.1333333333333333 5000028.6944
10.95648 -5.466666666666667 3.1333333333333333 5000028.6944
10.95648 -5.633333333333334 3.1333333333333333 5000028.6944
10.95648 -5.866666666666666 3.1333333333333333 5000028.6944
11.338686666666668 -5.966666666666667 3.1333333333333333 5000040.1606
10.95648 -6.033333333333333 3.1333333333333333 5000028.6944
10.95648 -6.066666666666666 3.1333333333333333 5000028.6944
10.95648 -6.666666666666667 3.1333333333333333 5000028.6944
10.608826666666667 -7.1 3.1333333333333333 5000018.2648
11.338686666666668 -8.433333333333334 3.1333333333333333 5000040.1606
11.338686666666668 -8.466666666666667 3.1333333333333333 5000040.1606
10.95648 -8.566666666666666 3.1333333333333333 5000028.6944
10.744046666666666 -8.666666666666666 3.1333333333333333 5000022.3214
10.744046666666666 -8.7 3.1333333333333333 5000022.3214
10.95648 -8.833333333333334 3.1333333333333333 5000028.6944
10.95648 -8.866666666666667 3.1333333333333333 5000028.6944
10.744046666666666 -8.966666666666667 3.1333333333333333 5000022.3214
10.95648 -9.133333333333333 3.1333333333333333 5000028.6944
10.744046666666666 -9.266666666666667 3.1333333333333333 5000022.3214
10.744046666666666 -9.3 3.1333333333333333 5000022.3214
11.338686666666668 -9.833333333333334 3.1333333333333333 5000040.1606
10.95648 -10.433333333333334 3.1333333333333333 5000028.6944
10.95648 -10.466666666666667 3.1333333333333333 5000028.6944
11.338686666666668 -11.9 3.1333333333333333 5000040.1606
11.338686666666668 -11.966666666666667 3.1333333333333333 5000040.1606
11.338686666666668 -12.066666666666666 3.1333333333333333 5000040.1606
10.95648 -12.133333333333333 3.1333333333333333 5000028.6944
11.338686666666668 -12.2 3.1333333333333333 5000040.1606
12.229653333333333 -12.766666666666667 3.1333333333333333 5000066.8896
11.338686666666668 -12.9 3.1333333333333333 5000040.1606
10.95648 -13.033333333333333 3.1333333333333333 5000028.6944
11.338686666666668 -13.966666666666667 3.1333333333333333 5000040.1606
11.338686666666668 -14.433333333333334 3.1333333333333333 5000040.1606
11.338686666666668 -14.6 3.1333333333333333 5000040.1606
11.338686666666668 -15.166666666666666 3.1333333333333333 5000040.1606
12.229653333333333 -16.1 3.1333333333333333 5000066.8896
12.229653333333333 -16.166666666666668 3.1333333333333333 5000066.8896
11.338686666666668 -16.266666666666666 3.1333333333333333 5000040.1606
11.338686666666668 -16.3 3.1333333333333333 5000040.1606
11.338686666666668 -16.7 3.1333333333333333 5000040.1606
11.338686666666668 -16.833333333333332 3.1333333333333333 5000040.1606
10.5152 1.7666666666666666 3.1 5000015.456
10.5152 1.7333333333333334 3.1 5000015.456
10.608826666666667 0.8333333333333334 3.1 5000018.2648
10.608826666666667 0.5 3.1 5000018.2648
10.608826666666667 -0.6666666666666666 3.1 5000018.2648
10.5152 -0.9333333333333333 3.1 5000015.456
10.5152 -0.9666666666666667 3.1 5000015.456
10.744046666666666 -1.3333333333333333 3.1 5000022.3214
11.338686666666668 -3.1666666666666665 3.1 5000040.1606
11.338686666666668 -3.3 3.1 5000040.1606
10.95648 -3.6666666666666665 3.1 5000028.6944
10.95648 -4.233333333333333 3.1 5000028.6944
10.95648 -4.266666666666667 3.1 5000028.6944
10.95648 -5.633333333333334 3.1 5000028.6944
10.95648 -5.866666666666666 3.1 5000028.6944
11.338686666666668 -5.966666666666667 3.1 5000040.1606
10.95648 -6.066666666666666 3.1 5000028.6944
10.95648 -6.666666666666667 3.1 5000028.6944
10.608826666666667 -6.8 3.1 5000018.2648
11.338686666666668 -8.433333333333334 3.1 5000040.1606
11.338686666666668 -8.466666666666667 3.1 5000040.1606
10.95648 -8.566666666666666 3.1 5000028.6944
10.744046666666666 -8.666666666666666 3.1 5000022.3214
10.744046666666666 -8.7 3.1 5000022.3214
10.95648 -8.833333333333334 3.1 5000028.6944
10.95648 -8.866666666666667 3.1 5000028.6944
10.744046666666666 -8.966666666666667 3.1 5000022.3214
10.95648 -9.1 3.1 5000028.6944
10.95648 -9.133333333333333 3.1 5000028.6944
10.744046666666666 -9.266666666666667 3.1 5000022.3214
10.744046666666666 -9.3 3.1 5000022.3214
11.338686666666668 -9.833333333333334 3.1 5000040.1606
10.95648 -9.966666666666667 3.1 5000028.6944
10.95648 -11.5 3.1 5000028.6944
12.229653333333333 -11.9 3.1 5000066.8896
11.338686666666668 -11.966666666666667 3.1 5000040.1606
10.95648 -12.0 3.1 5000028.6944
11.338686666666668 -12.066666666666666 3.1 5000040.1606
10.95648 -12.133333333333333 3.1 5000028.6944
11.338686666666668 -12.2 3.1 5000040.1606
12.229653333333333 -12.766666666666667 3.1 5000066.8896
11.338686666666668 -12.9 3.1 5000040.1606
10.95648 -13.033333333333333 3.1 5000028.6944
11.338686666666668 -13.966666666666667 3.1 5000040.1606
11.338686666666668 -14.433333333333334 3.1 5000040.1606
11.338686666666668 -14.6 3.1 5000040.1606
11.338686666666668 -15.166666666666666 3.1 5000040.1606
11.338686666666668 -15.633333333333333 3.1 5000040.1606
12.229653333333333 -16.1 3.1 5000066.8896
12.229653333333333 -16.166666666666668 3.1 5000066.8896
11.338686666666668 -16.266666666666666 3.1 5000040.1606
11.338686666666668 -16.3 3.1 5000040.1606
11.338686666666668 -16.7 3.1 5000040.1606
11.338686666666668 -16.8 3.1 5000040.1606
11.338686666666668 -16.833333333333332 3.1 5000040.1606
10.5152 1.7666666666666666 3.066666666666667 5000015.456
10.5152 1.7333333333333334 3.066666666666667 5000015.456
10.608826666666667 0.8333333333333334 3.066666666666667 5000018.2648
10.608826666666667 0.4666666666666667 3.066666666666667 5000018.2648
10.744046666666666 -1.3333333333333333 3.066666666666667 5000022.3214
10.95648 -3.6666666666666665 3.066666666666667 5000028.6944
10.95648 -4.233333333333333 3.066666666666667 5000028.6944
10.95648 -4.266666666666667 3.066666666666667 5000028.6944
10.95648 -5.633333333333334 3.066666666666667 5000028.6944
10.95648 -5.866666666666666 3.066666666666667 5000028.6944
11.338686666666668 -5.966666666666667 3.066666666666667 5000040.1606
10.95648 -6.066666666666666 3.066666666666667 5000028.6944
10.95648 -6.666666666666667 3.066666666666667 5000028.6944
10.608826666666667 -7.1 3.066666666666667 5000018.2648
11.338686666666668 -8.433333333333334 3.066666666666667 5000040.1606
11.338686666666668 -8.466666666666667 3.066666666666667 5000040.1606
10.95648 -8.566666666666666 3.066666666666667 5000028.6944
10.95648 -8.6 3.066666666666667 5000028.6944
10.95648 -8.666666666666666 3.066666666666667 5000028.6944
10.744046666666666 -8.7 3.066666666666667 5000022.3214
10.95648 -8.833333333333334 3.066666666666667 5000028.6944
10.95648 -8.866666666666667 3.066666666666667 5000028.6944
10.744046666666666 -8.966666666666667 3.066666666666667 5000022.3214
10.608826666666667 -9.1 3.066666666666667 5000018.2648
10.608826666666667 -9.133333333333333 3.066666666666667 5000018.2648
10.608826666666667 -9.166666666666666 3.066666666666667 5000018.2648
10.744046666666666 -9.266666666666667 3.066666666666667 5000022.3214
10.744046666666666 -9.3 3.066666666666667 5000022.3214
11.338686666666668 -9.833333333333334 3.066666666666667 5000040.1606
10.95648 -9.966666666666667 3.066666666666667 5000028.6944
10.95648 -10.9 3.066666666666667 5000028.6944
10.744046666666666 -11.033333333333333 3.066666666666667 5000022.3214
10.95648 -11.5 3.066666666666667 5000028.6944
10.95648 -11.6 3.066666666666667 5000028.6944
10.95648 -11.633333333333333 3.066666666666667 5000028.6944
11.338686666666668 -11.9 3.066666666666667 5000040.1606
10.95648 -12.133333333333333 3.066666666666667 5000028.6944
12.229653333333333 -12.766666666666667 3.066666666666667 5000066.8896
11.338686666666668 -12.9 3.066666666666667 5000040.1606
10.95648 -13.033333333333333 3.066666666666667 5000028.6944
11.338686666666668 -13.966666666666667 3.066666666666667 5000040.1606
11.338686666666668 -14.0 3.066666666666667 5000040.1606
11.338686666666668 -14.433333333333334 3.066666666666667 5000040.1606
11.338686666666668 -14.6 3.066666666666667 5000040.1606
12.229653333333333 -16.1 3.066666666666667 5000066.8896
12.229653333333333 -16.166666666666668 3.066666666666667 5000066.8896
12.229653333333333 -16.2 3.066666666666667 5000066.8896
11.338686666666668 -16.266666666666666 3.066666666666667 5000040.1606
11.338686666666668 -16.3 3.066666666666667 5000040.1606
11.338686666666668 -16.7 3.066666666666667 5000040.1606
11.338686666666668 -16.833333333333332 3.066666666666667 5000040.1606
11.338686666666668 -17.033333333333335 3.066666666666667 5000040.1606
10.5152 1.7666666666666666 3.033333333333333 5000015.456
10.5152 1.7333333333333334 3.033333333333333 5000015.456
10.608826666666667 0.8333333333333334 3.033333333333333 5000018.2648
10.608826666666667 0.4666666666666667 3.033333333333333 5000018.2648
10.744046666666666 -0.7666666666666667 3.033333333333333 5000022.3214
10.744046666666666 -1.3333333333333333 3.033333333333333 5000022.3214
10.744046666666666 -1.4 3.033333333333333 5000022.3214
10.744046666666666 -1.4333333333333333 3.033333333333333 5000022.3214
10.744046666666666 -1.4666666666666666 3.033333333333333 5000022.3214
10.744046666666666 -1.5 3.033333333333333 5000022.3214
10.95648 -3.5 3.033333333333333 5000028.6944
10.95648 -3.6666666666666665 3.033333333333333 5000028.6944
10.95648 -4.266666666666667 3.033333333333333 5000028.6944
10.95648 -5.633333333333334 3.033333333333333 5000028.6944
10.95648 -5.866666666666666 3.033333333333333 5000028.6944
11.338686666666668 -5.966666666666667 3.033333333333333 5000040.1606
10.95648 -6.066666666666666 3.033333333333333 5000028.6944
10.95648 -6.666666666666667 3.033333333333333 5000028.6944
10.608826666666667 -6.8 3.033333333333333 5000018.2648
10.608826666666667 -7.1 3.033333333333333 5000018.2648
11.338686666666668 -8.433333333333334 3.033333333333333 5000040.1606
11.338686666666668 -8.466666666666667 3.033333333333333 5000040.1606
10.95648 -8.566666666666666 3.033333333333333 5000028.6944
10.95648 -8.6 3.033333333333333 5000028.6944
10.95648 -8.666666666666666 3.033333333333333 5000028.6944
12.229653333333333 -8.7 3.033333333333333 5000066.8896
10.95648 -8.833333333333334 3.033333333333333 5000028.6944
10.95648 -8.866666666666667 3.033333333333333 5000028.6944
10.95648 -8.9 3.033333333333333 5000028.6944
10.744046666666666 -8.966666666666667 3.033333333333333 5000022.3214
10.608826666666667 -9.1 3.033333333333333 5000018.2648
10.608826666666667 -9.133333333333333 3.033333333333333 5000018.2648
10.608826666666667 -9.166666666666666 3.033333333333333 5000018.2648
10.744046666666666 -9.266666666666667 3.033333333333333 5000022.3214
10.744046666666666 -9.3 3.033333333333333 5000022.3214
11.338686666666668 -9.833333333333334 3.033333333333333 5000040.1606
10.95648 -9.966666666666667 3.033333333333333 5000028.6944
10.95648 -10.2 3.033333333333333 5000028.6944
10.95648 -10.266666666666667 3.033333333333333 5000028.6944
10.95648 -11.666666666666666 3.033333333333333 5000028.6944
11.338686666666668 -12.3 3.033333333333333 5000040.1606
12.229653333333333 -12.766666666666667 3.033333333333333 5000066.8896
11.338686666666668 -12.9 3.033333333333333 5000040.1606
10.95648 -13.033333333333333 3.033333333333333 5000028.6944
11.338686666666668 -13.966666666666667 3.033333333333333 5000040.1606
11.338686666666668 -14.0 3.033333333333333 5000040.1606
11.338686666666668 -14.433333333333334 3.033333333333333 5000040.1606
11.338686666666668 -14.566666666666666 3.033333333333333 5000040.1606
11.338686666666668 -16.7 3.033333333333333 5000040.1606
11.338686666666668 -16.833333333333332 3.033333333333333 5000040.1606
11.338686666666668 -17.033333333333335 3.033333333333333 5000040.1606
10.5152 1.7666666666666666 3.0 5000015.456
10.5152 1.7333333333333334 3.0 5000015.456
10.608826666666667 0.8333333333333334 3.0 5000018.2648
10.744046666666666 -0.7666666666666667 3.0 5000022.3214
10.744046666666666 -0.8 3.0 5000022.3214
10.5152 -0.9333333333333333 3.0 5000015.456
10.5152 -0.9666666666666667 3.0 5000015.456
10.744046666666666 -1.3333333333333333 3.0 5000022.3214
10.744046666666666 -1.4 3.0 5000022.3214
10.744046666666666 -1.4666666666666666 3.0 5000022.3214
10.744046666666666 -1.5 3.0 5000022.3214
10.744046666666666 -1.5333333333333334 3.0 5000022.3214
10.95648 -3.533333333333333 3.0 5000028.6944
10.95648 -3.566666666666667 3.0 5000028.6944
10.95648 -3.6 3.0 5000028.6944
10.95648 -3.6666666666666665 3.0 5000028.6944
10.95648 -3.7333333333333334 3.0 5000028.6944
10.95648 -3.8333333333333335 3.0 5000028.6944
10.744046666666666 -3.8666666666666667 3.0 5000022.3214
10.95648 -3.933333333333333 3.0 5000028.6944
10.95648 -4.266666666666667 3.0 5000028.6944
10.95648 -5.633333333333334 3.0 5000028.6944
10.95648 -5.866666666666666 3.0 5000028.6944
11.338686666666668 -5.966666666666667 3.0 5000040.1606
10.95648 -6.066666666666666 3.0 5000028.6944
10.95648 -6.666666666666667 3.0 5000028.6944
10.608826666666667 -7.1 3.0 5000018.2648
10.95648 -8.566666666666666 3.0 5000028.6944
10.95648 -8.6 3.0 5000028.6944
10.95648 -8.866666666666667 3.0 5000028.6944
10.744046666666666 -9.266666666666667 3.0 5000022.3214
10.744046666666666 -9.3 3.0 5000022.3214
10.95648 -10.2 3.0 5000028.6944
11.338686666666668 -11.166666666666666 3.0 5000040.1606
10.95648 -11.2 3.0 5000028.6944
10.95648 -11.233333333333333 3.0 5000028.6944
10.95648 -11.266666666666667 3.0 5000028.6944
10.95648 -11.3 3.0 5000028.6944
10.95648 -11.333333333333334 3.0 5000028.6944
11.338686666666668 -12.266666666666667 3.0 5000040.1606
10.95648 -12.4 3.0 5000028.6944
11.338686666666668 -12.533333333333333 3.0 5000040.1606
12.229653333333333 -12.766666666666667 3.0 5000066.8896
11.338686666666668 -12.933333333333334 3.0 5000040.1606
10.95648 -13.033333333333333 3.0 5000028.6944
11.338686666666668 -14.0 3.0 5000040.1606
11.338686666666668 -14.433333333333334 3.0 5000040.1606
11.338686666666668 -14.5 3.0 5000040.1606
11.338686666666668 -14.533333333333333 3.0 5000040.1606
11.338686666666668 -14.566666666666666 3.0 5000040.1606
11.338686666666668 -14.666666666666666 3.0 5000040.1606
11.338686666666668 -15.5 3.0 5000040.1606
11.338686666666668 -16.7 3.0 5000040.1606
11.338686666666668 -16.766666666666666 3.0 5000040.1606
10.5152 1.7333333333333334 2.966666666666667 5000015.456
10.608826666666667 1.6666666666666667 2.966666666666667 5000018.2648
10.608826666666667 1.6333333333333333 2.966666666666667 5000018.2648
10.608826666666667 0.8666666666666667 2.966666666666667 5000018.2648
10.608826666666667 0.8333333333333334 2.966666666666667 5000018.2648
10.608826666666667 0.4 2.966666666666667 5000018.2648
10.744046666666666 -0.8333333333333334 2.966666666666667 5000022.3214
10.744046666666666 -1.5333333333333334 2.966666666666667 5000022.3214
10.744046666666666 -1.5666666666666667 2.966666666666667 5000022.3214
11.338686666666668 -3.433333333333333 2.966666666666667 5000040.1606
11.338686666666668 -3.466666666666667 2.966666666666667 5000040.1606
10.95648 -3.566666666666667 2.966666666666667 5000028.6944
10.95648 -3.6333333333333333 2.966666666666667 5000028.6944
10.95648 -3.6666666666666665 2.966666666666667 5000028.6944
10.95648 -3.7333333333333334 2.966666666666667 5000028.6944
10.744046666666666 -3.8666666666666667 2.966666666666667 5000022.3214
10.95648 -3.933333333333333 2.966666666666667 5000028.6944
10.95648 -4.266666666666667 2.966666666666667 5000028.6944
10.95648 -5.633333333333334 2.966666666666667 5000028.6944
10.95648 -5.866666666666666 2.966666666666667 5000028.6944
11.338686666666668 -5.966666666666667 2.966666666666667 5000040.1606
10.95648 -6.066666666666666 2.966666666666667 5000028.6944
10.95648 -6.666666666666667 2.966666666666667 5000028.6944
10.446526666666667 -7.066666666666666 2.966666666666667 5000013.3958
10.744046666666666 -9.266666666666667 2.966666666666667 5000022.3214
12.229653333333333 -9.966666666666667 2.966666666666667 5000066.8896
12.229653333333333 -10.033333333333333 2.966666666666667 5000066.8896
12.229653333333333 -10.066666666666666 2.966666666666667 5000066.8896
10.95648 -10.2 2.966666666666667 5000028.6944
11.338686666666668 -11.133333333333333 2.966666666666667 5000040.1606
10.95648 -11.2 2.966666666666667 5000028.6944
10.95648 -11.233333333333333 2.966666666666667 5000028.6944
11.338686666666668 -12.266666666666667 2.966666666666667 5000040.1606
11.338686666666668 -12.533333333333333 2.966666666666667 5000040.1606
11.338686666666668 -12.933333333333334 2.966666666666667 5000040.1606
10.95648 -13.033333333333333 2.966666666666667 5000028.6944
11.338686666666668 -14.0 2.966666666666667 5000040.1606
11.338686666666668 -14.4 2.966666666666667 5000040.1606
11.338686666666668 -14.5 2.966666666666667 5000040.1606
11.338686666666668 -15.2 2.966666666666667 5000040.1606
11.338686666666668 -16.7 2.966666666666667 5000040.1606
11.338686666666668 -16.766666666666666 2.966666666666667 5000040.1606
10.608826666666667 1.6333333333333333 2.933333333333333 5000018.2648
10.608826666666667 1.6 2.933333333333333 5000018.2648
10.608826666666667 1.5666666666666667 2.933333333333333 5000018.2648
10.608826666666667 1.5333333333333334 2.933333333333333 5000018.2648
10.608826666666667 0.8666666666666667 2.933333333333333 5000018.2648
10.608826666666667 0.8333333333333334 2.933333333333333 5000018.2648
10.608826666666667 0.4 2.933333333333333 5000018.2648
10.608826666666667 0.03333333333333333 2.933333333333333 5000018.2648
10.608826666666667 -0.8666666666666667 2.933333333333333 5000018.2648
10.744046666666666 -1.5666666666666667 2.933333333333333 5000022.3214
10.744046666666666 -1.6 2.933333333333333 5000022.3214
10.744046666666666 -1.6333333333333333 2.933333333333333 5000022.3214
10.95648 -4.266666666666667 2.933333333333333 5000028.6944
10.95648 -5.633333333333334 2.933333333333333 5000028.6944
10.95648 -5.7 2.933333333333333 5000028.6944
10.95648 -5.866666666666666 2.933333333333333 5000028.6944
10.95648 -5.966666666666667 2.933333333333333 5000028.6944
10.95648 -6.066666666666666 2.933333333333333 5000028.6944
10.95648 -6.666666666666667 2.933333333333333 5000028.6944
10.608826666666667 -6.833333333333333 2.933333333333333 5000018.2648
10.446526666666667 -7.066666666666666 2.933333333333333 5000013.3958
11.338686666666668 -11.1 2.933333333333333 5000040.1606
11.338686666666668 -11.133333333333333 2.933333333333333 5000040.1606
10.95648 -11.2 2.933333333333333 5000028.6944
11.338686666666668 -12.5 2.933333333333333 5000040.1606
12.229653333333333 -12.766666666666667 2.933333333333333 5000066.8896
11.338686666666668 -12.933333333333334 2.933333333333333 5000040.1606
10.95648 -13.033333333333333 2.933333333333333 5000028.6944
10.95648 -13.133333333333333 2.933333333333333 5000028.6944
10.95648 -13.166666666666666 2.933333333333333 5000028.6944
11.338686666666668 -15.2 2.933333333333333 5000040.1606
11.338686666666668 -16.466666666666665 2.933333333333333 5000040.1606
11.338686666666668 -16.7 2.933333333333333 5000040.1606
11.338686666666668 -17.033333333333335 2.933333333333333 5000040.1606
10.608826666666667 1.5333333333333334 2.9 5000018.2648
10.608826666666667 1.5 2.9 5000018.2648
10.608826666666667 1.4666666666666666 2.9 5000018.2648
10.608826666666667 1.4333333333333333 2.9 5000018.2648
10.608826666666667 0.8333333333333334 2.9 5000018.2648
10.608826666666667 -0.8666666666666667 2.9 5000018.2648
10.744046666666666 -1.6333333333333333 2.9 5000022.3214
10.744046666666666 -1.6666666666666667 2.9 5000022.3214
10.744046666666666 -1.7 2.9 5000022.3214
10.95648 -4.266666666666667 2.9 5000028.6944
10.95648 -5.633333333333334 2.9 5000028.6944
10.95648 -5.7 2.9 5000028.6944
10.95648 -5.866666666666666 2.9 5000028.6944
10.95648 -5.9 2.9 5000028.6944
10.95648 -5.966666666666667 2.9 5000028.6944
10.95648 -6.066666666666666 2.9 5000028.6944
10.95648 -6.666666666666667 2.9 5000028.6944
10.446526666666667 -7.066666666666666 2.9 5000013.3958
10.95648 -9.333333333333334 2.9 5000028.6944
10.95648 -9.8 2.9 5000028.6944
12.229653333333333 -10.1 2.9 5000066.8896
11.338686666666668 -11.1 2.9 5000040.1606
10.95648 -11.2 2.9 5000028.6944
10.5152 -11.5 2.9 5000015.456
10.5152 -11.566666666666666 2.9 5000015.456
10.5152 -11.6 2.9 5000015.456
11.338686666666668 -12.433333333333334 2.9 5000040.1606
11.338686666666668 -12.5 2.9 5000040.1606
16.666666666666668 -12.666666666666666 2.9 5000200.0
12.229653333333333 -12.766666666666667 2.9 5000066.8896
11.338686666666668 -12.866666666666667 2.9 5000040.1606
11.338686666666668 -12.933333333333334 2.9 5000040.1606
10.95648 -13.033333333333333 2.9 5000028.6944
10.95648 -13.133333333333333 2.9 5000028.6944
10.95648 -13.166666666666666 2.9 5000028.6944
11.338686666666668 -14.0 2.9 5000040.1606
11.338686666666668 -16.466666666666665 2.9 5000040.1606
11.338686666666668 -16.833333333333332 2.9 5000040.1606
11.338686666666668 -16.9 2.9 5000040.1606
11.338686666666668 -17.033333333333335 2.9 5000040.1606
10.608826666666667 1.4 2.8666666666666667 5000018.2648
10.608826666666667 1.3666666666666667 2.8666666666666667 5000018.2648
10.608826666666667 1.3333333333333333 2.8666666666666667 5000018.2648
10.608826666666667 1.3 2.8666666666666667 5000018.2648
10.608826666666667 0.8333333333333334 2.8666666666666667 5000018.2648
10.744046666666666 -1.7 2.8666666666666667 5000022.3214
10.744046666666666 -1.7333333333333334 2.8666666666666667 5000022.3214
10.95648 -4.266666666666667 2.8666666666666667 5000028.6944
12.229653333333333 -5.633333333333334 2.8666666666666667 5000066.8896
12.229653333333333 -5.7 2.8666666666666667 5000066.8896
10.95648 -5.9 2.8666666666666667 5000028.6944
10.95648 -5.966666666666667 2.8666666666666667 5000028.6944
10.95648 -6.066666666666666 2.8666666666666667 5000028.6944
10.95648 -6.666666666666667 2.8666666666666667 5000028.6944
10.608826666666667 -6.833333333333333 2.8666666666666667 5000018.2648
10.95648 -8.366666666666667 2.8666666666666667 5000028.6944
10.95648 -8.4 2.8666666666666667 5000028.6944
10.95648 -9.3 2.8666666666666667 5000028.6944
10.95648 -9.333333333333334 2.8666666666666667 5000028.6944
10.95648 -9.766666666666667 2.8666666666666667 5000028.6944
10.95648 -9.8 2.8666666666666667 5000028.6944
10.95648 -9.866666666666667 2.8666666666666667 5000028.6944
12.229653333333333 -10.066666666666666 2.8666666666666667 5000066.8896
12.229653333333333 -10.1 2.8666666666666667 5000066.8896
10.95648 -10.3 2.8666666666666667 5000028.6944
10.95648 -10.333333333333334 2.8666666666666667 5000028.6944
11.338686666666668 -11.066666666666666 2.8666666666666667 5000040.1606
11.338686666666668 -11.1 2.8666666666666667 5000040.1606
10.5152 -11.566666666666666 2.8666666666666667 5000015.456
11.338686666666668 -12.5 2.8666666666666667 5000040.1606
16.666666666666668 -12.666666666666666 2.8666666666666667 5000200.0
12.229653333333333 -12.733333333333333 2.8666666666666667 5000066.8896
12.229653333333333 -12.766666666666667 2.8666666666666667 5000066.8896
12.229653333333333 -12.8 2.8666666666666667 5000066.8896
11.338686666666668 -12.866666666666667 2.8666666666666667 5000040.1606
11.338686666666668 -12.933333333333334 2.8666666666666667 5000040.1606
10.95648 -13.033333333333333 2.8666666666666667 5000028.6944
10.95648 -13.133333333333333 2.8666666666666667 5000028.6944
11.338686666666668 -13.733333333333333 2.8666666666666667 5000040.1606
11.338686666666668 -14.0 2.8666666666666667 5000040.1606
11.338686666666668 -14.366666666666667 2.8666666666666667 5000040.1606
11.338686666666668 -14.466666666666667 2.8666666666666667 5000040.1606
11.338686666666668 -14.533333333333333 2.8666666666666667 5000040.1606
11.338686666666668 -15.066666666666666 2.8666666666666667 5000040.1606
11.338686666666668 -16.4 2.8666666666666667 5000040.1606
11.338686666666668 -16.9 2.8666666666666667 5000040.1606
11.338686666666668 -17.033333333333335 2.8666666666666667 5000040.1606
10.5152 2.1333333333333333 2.8333333333333335 5000015.456
10.446526666666667 2.066666666666667 2.8333333333333335 5000013.3958
10.446526666666667 2.033333333333333 2.8333333333333335 5000013.3958
10.608826666666667 1.2666666666666666 2.8333333333333335 5000018.2648
10.608826666666667 1.2333333333333334 2.8333333333333335 5000018.2648
10.608826666666667 1.2 2.8333333333333335 5000018.2648
10.608826666666667 1.1666666666666667 2.8333333333333335 5000018.2648
10.608826666666667 0.8333333333333334 2.8333333333333335 5000018.2648
10.744046666666666 -1.7666666666666666 2.8333333333333335 5000022.3214
10.744046666666666 -1.8 2.8333333333333335 5000022.3214
10.95648 -4.233333333333333 2.8333333333333335 5000028.6944
10.95648 -4.266666666666667 2.8333333333333335 5000028.6944
12.229653333333333 -5.466666666666667 2.8333333333333335 5000066.8896
12.229653333333333 -5.633333333333334 2.8333333333333335 5000066.8896
12.229653333333333 -5.7 2.8333333333333335 5000066.8896
10.95648 -5.9 2.8333333333333335 5000028.6944
10.95648 -5.966666666666667 2.8333333333333335 5000028.6944
10.95648 -6.066666666666666 2.8333333333333335 5000028.6944
10.95648 -6.666666666666667 2.8333333333333335 5000028.6944
10.608826666666667 -6.833333333333333 2.8333333333333335 5000018.2648
10.95648 -8.4 2.8333333333333335 5000028.6944
10.95648 -9.3 2.8333333333333335 5000028.6944
10.95648 -10.333333333333334 2.8333333333333335 5000028.6944
11.338686666666668 -11.066666666666666 2.8333333333333335 5000040.1606
11.338686666666668 -11.133333333333333 2.8333333333333335 5000040.1606
11.338686666666668 -12.933333333333334 2.8333333333333335 5000040.1606
11.338686666666668 -13.933333333333334 2.8333333333333335 5000040.1606
11.338686666666668 -14.366666666666667 2.8333333333333335 5000040.1606
11.338686666666668 -14.466666666666667 2.8333333333333335 5000040.1606
11.338686666666668 -15.033333333333333 2.8333333333333335 5000040.1606
11.338686666666668 -15.066666666666666 2.8333333333333335 5000040.1606
11.338686666666668 -16.4 2.8333333333333335 5000040.1606
10.95648 -16.533333333333335 2.8333333333333335 5000028.6944
11.338686666666668 -17.033333333333335 2.8333333333333335 5000040.1606
10.5152 3.1 2.8 5000015.456
10.5152 3.066666666666667 2.8 5000015.456
10.5152 3.033333333333333 2.8 5000015.456
10.5152 3.0 2.8 5000015.456
10.608826666666667 2.966666666666667 2.8 5000018.2648
10.744046666666666 2.933333333333333 2.8 5000022.3214
10.744046666666666 2.9 2.8 5000022.3214
10.744046666666666 2.8666666666666667 2.8 5000022.3214
10.744046666666666 2.8333333333333335 2.8 5000022.3214
10.446526666666667 2.033333333333333 2.8 5000013.3958
10.608826666666667 1.1 2.8 5000018.2648
10.608826666666667 1.0666666666666667 2.8 5000018.2648
10.608826666666667 1.0333333333333334 2.8 5000018.2648
10.608826666666667 1.0 2.8 5000018.2648
10.608826666666667 0.9333333333333333 2.8 5000018.2648
10.608826666666667 0.8333333333333334 2.8 5000018.2648
10.5152 -0.9333333333333333 2.8 5000015.456
10.5152 -0.9666666666666667 2.8 5000015.456
16.666666666666668 -1.4 2.8 5000200.0
10.744046666666666 -1.8 2.8 5000022.3214
10.744046666666666 -1.8333333333333333 2.8 5000022.3214
10.744046666666666 -1.8666666666666667 2.8 5000022.3214
10.608826666666667 -2.4 2.8 5000018.2648
10.95648 -4.233333333333333 2.8 5000028.6944
10.95648 -4.266666666666667 2.8 5000028.6944
12.229653333333333 -5.466666666666667 2.8 5000066.8896
12.229653333333333 -5.633333333333334 2.8 5000066.8896
12.229653333333333 -5.7 2.8 5000066.8896
10.95648 -5.9 2.8 5000028.6944
10.95648 -5.966666666666667 2.8 5000028.6944
10.95648 -6.066666666666666 2.8 5000028.6944
10.5152 -6.966666666666667 2.8 5000015.456
10.95648 -10.333333333333334 2.8 5000028.6944
11.338686666666668 -11.066666666666666 2.8 5000040.1606
11.338686666666668 -11.133333333333333 2.8 5000040.1606
11.338686666666668 -13.933333333333334 2.8 5000040.1606
11.338686666666668 -14.366666666666667 2.8 5000040.1606
11.338686666666668 -14.466666666666667 2.8 5000040.1606
11.338686666666668 -15.633333333333333 2.8 5000040.1606
12.229653333333333 -16.3 2.8 5000066.8896
11.338686666666668 -16.4 2.8 5000040.1606
10.95648 -16.533333333333335 2.8 5000028.6944
11.338686666666668 -17.033333333333335 2.8 5000040.1606
10.5152 3.2333333333333334 2.7666666666666666 5000015.456
10.5152 3.2 2.7666666666666666 5000015.456
10.5152 3.1666666666666665 2.7666666666666666 5000015.456
10.5152 3.1333333333333333 2.7666666666666666 5000015.456
10.5152 3.1 2.7666666666666666 5000015.456
10.608826666666667 0.9666666666666667 2.7666666666666666 5000018.2648
10.608826666666667 0.9333333333333333 2.7666666666666666 5000018.2648
10.608826666666667 0.8333333333333334 2.7666666666666666 5000018.2648
10.5152 -0.9333333333333333 2.7666666666666666 5000015.456
10.5152 -0.9666666666666667 2.7666666666666666 5000015.456
10.5152 -1.1333333333333333 2.7666666666666666 5000015.456
10.744046666666666 -1.8666666666666667 2.7666666666666666 5000022.3214
10.744046666666666 -1.9 2.7666666666666666 5000022.3214
10.744046666666666 -1.9333333333333333 2.7666666666666666 5000022.3214
10.608826666666667 -2.4 2.7666666666666666 5000018.2648
10.744046666666666 -3.966666666666667 2.7666666666666666 5000022.3214
12.229653333333333 -4.1 2.7666666666666666 5000066.8896
10.95648 -4.266666666666667 2.7666666666666666 5000028.6944
10.95648 -4.3 2.7666666666666666 5000028.6944
12.229653333333333 -5.466666666666667 2.7666666666666666 5000066.8896
12.229653333333333 -5.633333333333334 2.7666666666666666 5000066.8896
12.229653333333333 -5.7 2.7666666666666666 5000066.8896
10.95648 -5.9 2.7666666666666666 5000028.6944
10.95648 -5.966666666666667 2.7666666666666666 5000028.6944
10.95648 -6.066666666666666 2.7666666666666666 5000028.6944
10.95648 -6.7 2.7666666666666666 5000028.6944
10.608826666666667 -6.833333333333333 2.7666666666666666 5000018.2648
10.95648 -10.333333333333334 2.7666666666666666 5000028.6944
11.338686666666668 -11.033333333333333 2.7666666666666666 5000040.1606
10.95648 -11.133333333333333 2.7666666666666666 5000028.6944
11.338686666666668 -14.066666666666666 2.7666666666666666 5000040.1606
11.338686666666668 -14.466666666666667 2.7666666666666666 5000040.1606
11.338686666666668 -15.066666666666666 2.7666666666666666 5000040.1606
11.338686666666668 -15.4 2.7666666666666666 5000040.1606
11.338686666666668 -15.433333333333334 2.7666666666666666 5000040.1606
11.338686666666668 -15.633333333333333 2.7666666666666666 5000040.1606
12.229653333333333 -16.3 2.7666666666666666 5000066.8896
11.338686666666668 -16.4 2.7666666666666666 5000040.1606
10.95648 -16.533333333333335 2.7666666666666666 5000028.6944
10.446526666666667 1.8333333333333333 2.7333333333333334 5000013.3958
10.446526666666667 1.8 2.7333333333333334 5000013.3958
10.446526666666667 1.7666666666666666 2.7333333333333334 5000013.3958
10.744046666666666 -1.9333333333333333 2.7333333333333334 5000022.3214
10.744046666666666 -1.9666666666666666 2.7333333333333334 5000022.3214
10.95648 -4.3 2.7333333333333334 5000028.6944
10.95648 -4.4 2.7333333333333334 5000028.6944
10.95648 -4.433333333333334 2.7333333333333334 5000028.6944
12.229653333333333 -5.4 2.7333333333333334 5000066.8896
12.229653333333333 -5.466666666666667 2.7333333333333334 5000066.8896
10.95648 -5.633333333333334 2.7333333333333334 5000028.6944
10.95648 -5.7 2.7333333333333334 5000028.6944
10.95648 -5.833333333333333 2.7333333333333334 5000028.6944
10.95648 -5.9 2.7333333333333334 5000028.6944
10.95648 -5.966666666666667 2.7333333333333334 5000028.6944
10.95648 -6.066666666666666 2.7333333333333334 5000028.6944
12.229653333333333 -6.7 2.7333333333333334 5000066.8896
10.95648 -10.333333333333334 2.7333333333333334 5000028.6944
11.338686666666668 -11.033333333333333 2.7333333333333334 5000040.1606
10.95648 -11.133333333333333 2.7333333333333334 5000028.6944
11.338686666666668 -12.666666666666666 2.7333333333333334 5000040.1606
11.338686666666668 -13.233333333333333 2.7333333333333334 5000040.1606
11.338686666666668 -13.533333333333333 2.7333333333333334 5000040.1606
11.338686666666668 -14.066666666666666 2.7333333333333334 5000040.1606
11.338686666666668 -14.333333333333334 2.7333333333333334 5000040.1606
11.338686666666668 -14.466666666666667 2.7333333333333334 5000040.1606
11.338686666666668 -14.5 2.7333333333333334 5000040.1606
11.338686666666668 -15.066666666666666 2.7333333333333334 5000040.1606
11.338686666666668 -15.4 2.7333333333333334 5000040.1606
11.338686666666668 -15.433333333333334 2.7333333333333334 5000040.1606
11.338686666666668 -15.6 2.7333333333333334 5000040.1606
11.338686666666668 -16.4 2.7333333333333334 5000040.1606
10.95648 -16.533333333333335 2.7333333333333334 5000028.6944
11.338686666666668 -17.066666666666666 2.7333333333333334 5000040.1606
11.338686666666668 -17.1 2.7333333333333334 5000040.1606
10.446526666666667 2.8333333333333335 2.7 5000013.3958
10.446526666666667 2.566666666666667 2.7 5000013.3958
10.446526666666667 1.8 2.7 5000013.3958
10.446526666666667 1.7666666666666666 2.7 5000013.3958
10.446526666666667 1.7333333333333334 2.7 5000013.3958
10.744046666666666 -2.0 2.7 5000022.3214
10.744046666666666 -2.033333333333333 2.7 5000022.3214
10.95648 -2.2666666666666666 2.7 5000028.6944
10.95648 -4.433333333333334 2.7 5000028.6944
10.95648 -4.5 2.7 5000028.6944
12.229653333333333 -5.466666666666667 2.7 5000066.8896
10.95648 -5.633333333333334 2.7 5000028.6944
10.95648 -5.7 2.7 5000028.6944
10.95648 -5.833333333333333 2.7 5000028.6944
10.95648 -5.866666666666666 2.7 5000028.6944
10.95648 -5.9 2.7 5000028.6944
10.95648 -5.966666666666667 2.7 5000028.6944
10.95648 -6.733333333333333 2.7 5000028.6944
11.338686666666668 -6.866666666666666 2.7 5000040.1606
10.446526666666667 -7.066666666666666 2.7 5000013.3958
10.446526666666667 -7.1 2.7 5000013.3958
10.446526666666667 -7.133333333333334 2.7 5000013.3958
10.95648 -10.333333333333334 2.7 5000028.6944
10.608826666666667 -10.566666666666666 2.7 5000018.2648
16.666666666666668 -10.733333333333333 2.7 5000200.0
11.338686666666668 -11.033333333333333 2.7 5000040.1606
10.95648 -11.133333333333333 2.7 5000028.6944
11.338686666666668 -13.233333333333333 2.7 5000040.1606
11.338686666666668 -14.066666666666666 2.7 5000040.1606
11.338686666666668 -14.333333333333334 2.7 5000040.1606
11.338686666666668 -14.5 2.7 5000040.1606
11.338686666666668 -15.066666666666666 2.7 5000040.1606
11.338686666666668 -15.133333333333333 2.7 5000040.1606
16.666666666666668 -15.266666666666667 2.7 5000200.0
11.338686666666668 -15.4 2.7 5000040.1606
11.338686666666668 -15.433333333333334 2.7 5000040.1606
11.338686666666668 -15.6 2.7 5000040.1606
10.744046666666666 -15.7 2.7 5000022.3214
11.338686666666668 -16.4 2.7 5000040.1606
10.95648 -16.533333333333335 2.7 5000028.6944
11.338686666666668 -17.033333333333335 2.7 5000040.1606
11.338686666666668 -17.066666666666666 2.7 5000040.1606
10.446526666666667 2.8666666666666667 2.6666666666666665 5000013.3958
10.446526666666667 2.8333333333333335 2.6666666666666665 5000013.3958
10.446526666666667 2.7666666666666666 2.6666666666666665 5000013.3958
10.5152 2.7333333333333334 2.6666666666666665 5000015.456
10.5152 2.7 2.6666666666666665 5000015.456
10.5152 2.6666666666666665 2.6666666666666665 5000015.456
10.446526666666667 2.6 2.6666666666666665 5000013.3958
10.446526666666667 2.566666666666667 2.6666666666666665 5000013.3958
10.446526666666667 2.533333333333333 2.6666666666666665 5000013.3958
10.446526666666667 1.7666666666666666 2.6666666666666665 5000013.3958
10.446526666666667 1.7333333333333334 2.6666666666666665 5000013.3958
10.744046666666666 -2.066666666666667 2.6666666666666665 5000022.3214
10.744046666666666 -2.1 2.6666666666666665 5000022.3214
10.744046666666666 -2.1666666666666665 2.6666666666666665 5000022.3214
10.744046666666666 -2.3 2.6666666666666665 5000022.3214
10.608826666666667 -2.4 2.6666666666666665 5000018.2648
10.744046666666666 -3.966666666666667 2.6666666666666665 5000022.3214
10.95648 -4.5 2.6666666666666665 5000028.6944
12.229653333333333 -5.433333333333334 2.6666666666666665 5000066.8896
12.229653333333333 -5.466666666666667 2.6666666666666665 5000066.8896
10.95648 -5.633333333333334 2.6666666666666665 5000028.6944
10.95648 -6.6 2.6666666666666665 5000028.6944
10.95648 -6.733333333333333 2.6666666666666665 5000028.6944
11.338686666666668 -6.866666666666666 2.6666666666666665 5000040.1606
10.5152 -6.966666666666667 2.6666666666666665 5000015.456
10.446526666666667 -7.066666666666666 2.6666666666666665 5000013.3958
10.446526666666667 -7.1 2.6666666666666665 5000013.3958
10.446526666666667 -7.133333333333334 2.6666666666666665 5000013.3958
10.95648 -10.333333333333334 2.6666666666666665 5000028.6944
10.608826666666667 -10.533333333333333 2.6666666666666665 5000018.2648
10.608826666666667 -10.566666666666666 2.6666666666666665 5000018.2648
16.666666666666668 -10.733333333333333 2.6666666666666665 5000200.0
16.666666666666668 -10.766666666666667 2.6666666666666665 5000200.0
11.338686666666668 -11.033333333333333 2.6666666666666665 5000040.1606
10.95648 -11.133333333333333 2.6666666666666665 5000028.6944
11.338686666666668 -13.233333333333333 2.6666666666666665 5000040.1606
11.338686666666668 -14.333333333333334 2.6666666666666665 5000040.1606
11.338686666666668 -14.366666666666667 2.6666666666666665 5000040.1606
11.338686666666668 -14.466666666666667 2.6666666666666665 5000040.1606
11.338686666666668 -14.5 2.6666666666666665 5000040.1606
10.744046666666666 -14.6 2.6666666666666665 5000022.3214
11.338686666666668 -15.066666666666666 2.6666666666666665 5000040.1606
11.338686666666668 -15.133333333333333 2.6666666666666665 5000040.1606
16.666666666666668 -15.266666666666667 2.6666666666666665 5000200.0
16.666666666666668 -15.3 2.6666666666666665 5000200.0
11.338686666666668 -15.4 2.6666666666666665 5000040.1606
11.338686666666668 -15.433333333333334 2.6666666666666665 5000040.1606
11.338686666666668 -15.6 2.6666666666666665 5000040.1606
11.338686666666668 -15.633333333333333 2.6666666666666665 5000040.1606
10.744046666666666 -15.7 2.6666666666666665 5000022.3214
10.744046666666666 -15.733333333333333 2.6666666666666665 5000022.3214
10.744046666666666 -15.766666666666667 2.6666666666666665 5000022.3214
10.744046666666666 -15.833333333333334 2.6666666666666665 5000022.3214
10.608826666666667 -15.866666666666667 2.6666666666666665 5000018.2648
11.338686666666668 -16.4 2.6666666666666665 5000040.1606
10.95648 -16.533333333333335 2.6666666666666665 5000028.6944
12.229653333333333 -16.866666666666667 2.6666666666666665 5000066.8896
12.229653333333333 -16.9 2.6666666666666665 5000066.8896
11.338686666666668 -17.033333333333335 2.6666666666666665 5000040.1606
10.446526666666667 1.7333333333333334 2.6333333333333333 5000013.3958
10.446526666666667 1.7 2.6333333333333333 5000013.3958
10.744046666666666 -2.1 2.6333333333333333 5000022.3214
10.744046666666666 -2.1333333333333333 2.6333333333333333 5000022.3214
10.744046666666666 -2.2 2.6333333333333333 5000022.3214
10.744046666666666 -2.2333333333333334 2.6333333333333333 5000022.3214
10.608826666666667 -2.4 2.6333333333333333 5000018.2648
10.744046666666666 -3.966666666666667 2.6333333333333333 5000022.3214
10.95648 -4.533333333333333 2.6333333333333333 5000028.6944
10.95648 -4.566666666666666 2.6333333333333333 5000028.6944
12.229653333333333 -5.433333333333334 2.6333333333333333 5000066.8896
10.95648 -6.6 2.6333333333333333 5000028.6944
10.95648 -6.7 2.6333333333333333 5000028.6944
10.608826666666667 -6.833333333333333 2.6333333333333333 5000018.2648
10.446526666666667 -7.066666666666666 2.6333333333333333 5000013.3958
10.446526666666667 -7.133333333333334 2.6333333333333333 5000013.3958
10.95648 -10.333333333333334 2.6333333333333333 5000028.6944
10.608826666666667 -10.566666666666666 2.6333333333333333 5000018.2648
16.666666666666668 -10.766666666666667 2.6333333333333333 5000200.0
11.338686666666668 -11.033333333333333 2.6333333333333333 5000040.1606
10.95648 -11.133333333333333 2.6333333333333333 5000028.6944
10.95648 -12.833333333333334 2.6333333333333333 5000028.6944
11.338686666666668 -13.233333333333333 2.6333333333333333 5000040.1606
11.338686666666668 -13.3 2.6333333333333333 5000040.1606
11.338686666666668 -14.333333333333334 2.6333333333333333 5000040.1606
11.338686666666668 -14.366666666666667 2.6333333333333333 5000040.1606
11.338686666666668 -14.466666666666667 2.6333333333333333 5000040.1606
11.338686666666668 -15.066666666666666 2.6333333333333333 5000040.1606
11.338686666666668 -15.133333333333333 2.6333333333333333 5000040.1606
11.338686666666668 -15.4 2.6333333333333333 5000040.1606
11.338686666666668 -15.433333333333334 2.6333333333333333 5000040.1606
11.338686666666668 -15.533333333333333 2.6333333333333333 5000040.1606
11.338686666666668 -16.4 2.6333333333333333 5000040.1606
11.338686666666668 -16.433333333333334 2.6333333333333333 5000040.1606
10.95648 -16.533333333333335 2.6333333333333333 5000028.6944
12.229653333333333 -16.866666666666667 2.6333333333333333 5000066.8896
12.229653333333333 -16.9 2.6333333333333333 5000066.8896
11.338686666666668 -17.0 2.6333333333333333 5000040.1606
10.446526666666667 1.7 2.6 5000013.3958
10.446526666666667 1.6666666666666667 2.6 5000013.3958
10.608826666666667 -2.1666666666666665 2.6 5000018.2648
10.744046666666666 -2.2 2.6 5000022.3214
10.608826666666667 -2.4 2.6 5000018.2648
10.744046666666666 -3.966666666666667 2.6 5000022.3214
10.95648 -4.566666666666666 2.6 5000028.6944
10.95648 -4.6 2.6 5000028.6944
10.95648 -6.6 2.6 5000028.6944
10.744046666666666 -6.7 2.6 5000022.3214
10.608826666666667 -6.833333333333333 2.6 5000018.2648
10.95648 -10.333333333333334 2.6 5000028.6944
16.666666666666668 -10.766666666666667 2.6 5000200.0
11.338686666666668 -11.033333333333333 2.6 5000040.1606
10.95648 -11.133333333333333 2.6 5000028.6944
10.95648 -12.733333333333333 2.6 5000028.6944
10.95648 -12.8 2.6 5000028.6944
11.338686666666668 -13.233333333333333 2.6 5000040.1606
11.338686666666668 -13.3 2.6 5000040.1606
11.338686666666668 -14.333333333333334 2.6 5000040.1606
11.338686666666668 -14.466666666666667 2.6 5000040.1606
11.338686666666668 -15.133333333333333 2.6 5000040.1606
11.338686666666668 -15.4 2.6 5000040.1606
11.338686666666668 -15.433333333333334 2.6 5000040.1606
11.338686666666668 -15.9 2.6 5000040.1606
11.338686666666668 -16.3 2.6 5000040.1606
11.338686666666668 -16.4 2.6 5000040.1606
11.338686666666668 -16.433333333333334 2.6 5000040.1606
10.95648 -16.533333333333335 2.6 5000028.6944
11.338686666666668 -16.733333333333334 2.6 5000040.1606
11.338686666666668 -17.0 2.6 5000040.1606
10.446526666666667 1.7 2.566666666666667 5000013.3958
10.446526666666667 1.6666666666666667 2.566666666666667 5000013.3958
10.5152 -0.9666666666666667 2.566666666666667 5000015.456
10.608826666666667 -2.2333333333333334 2.566666666666667 5000018.2648
10.744046666666666 -2.2666666666666666 2.566666666666667 5000022.3214
10.744046666666666 -2.3 2.566666666666667 5000022.3214
10.608826666666667 -2.4 2.566666666666667 5000018.2648
10.95648 -4.7 2.566666666666667 5000028.6944
10.95648 -6.1 2.566666666666667 5000028.6944
10.95648 -6.133333333333334 2.566666666666667 5000028.6944
10.95648 -6.6 2.566666666666667 5000028.6944
10.744046666666666 -6.7 2.566666666666667 5000022.3214
10.608826666666667 -6.833333333333333 2.566666666666667 5000018.2648
10.5152 -6.966666666666667 2.566666666666667 5000015.456
10.95648 -10.333333333333334 2.566666666666667 5000028.6944
16.666666666666668 -10.766666666666667 2.566666666666667 5000200.0
11.338686666666668 -11.033333333333333 2.566666666666667 5000040.1606
11.338686666666668 -11.1 2.566666666666667 5000040.1606
10.95648 -11.133333333333333 2.566666666666667 5000028.6944
10.39401 -11.233333333333333 2.566666666666667 5000011.8203
11.338686666666668 -13.233333333333333 2.566666666666667 5000040.1606
11.338686666666668 -13.3 2.566666666666667 5000040.1606
11.338686666666668 -14.333333333333334 2.566666666666667 5000040.1606
11.338686666666668 -14.466666666666667 2.566666666666667 5000040.1606
11.338686666666668 -15.133333333333333 2.566666666666667 5000040.1606
11.338686666666668 -15.4 2.566666666666667 5000040.1606
11.338686666666668 -15.433333333333334 2.566666666666667 5000040.1606
11.338686666666668 -15.9 2.566666666666667 5000040.1606
11.338686666666668 -16.433333333333334 2.566666666666667 5000040.1606
11.338686666666668 -16.7 2.566666666666667 5000040.1606
11.338686666666668 -16.733333333333334 2.566666666666667 5000040.1606
11.338686666666668 -17.0 2.566666666666667 5000040.1606
10.608826666666667 -2.3 2.533333333333333 5000018.2648
10.608826666666667 -2.3333333333333335 2.533333333333333 5000018.2648
10.608826666666667 -2.4 2.533333333333333 5000018.2648
11.338686666666668 -4.866666666666666 2.533333333333333 5000040.1606
11.338686666666668 -4.933333333333334 2.533333333333333 5000040.1606
10.95648 -5.3 2.533333333333333 5000028.6944
10.95648 -6.1 2.533333333333333 5000028.6944
10.95648 -6.133333333333334 2.533333333333333 5000028.6944
10.95648 -6.6 2.533333333333333 5000028.6944
10.744046666666666 -6.7 2.533333333333333 5000022.3214
10.608826666666667 -6.833333333333333 2.533333333333333 5000018.2648
10.5152 -6.966666666666667 2.533333333333333 5000015.456
10.608826666666667 -7.1 2.533333333333333 5000018.2648
10.608826666666667 -7.133333333333334 2.533333333333333 5000018.2648
10.95648 -8.866666666666667 2.533333333333333 5000028.6944
10.95648 -10.333333333333334 2.533333333333333 5000028.6944
16.666666666666668 -10.766666666666667 2.533333333333333 5000200.0
11.338686666666668 -11.033333333333333 2.533333333333333 5000040.1606
10.95648 -12.7 2.533333333333333 5000028.6944
12.229653333333333 -13.066666666666666 2.533333333333333 5000066.8896
11.338686666666668 -13.233333333333333 2.533333333333333 5000040.1606
10.95648 -13.366666666666667 2.533333333333333 5000028.6944
11.338686666666668 -14.333333333333334 2.533333333333333 5000040.1606
11.338686666666668 -14.466666666666667 2.533333333333333 5000040.1606
11.338686666666668 -15.133333333333333 2.533333333333333 5000040.1606
11.338686666666668 -15.4 2.533333333333333 5000040.1606
