VERSION .7
FIELDS x y z rgb
SIZE 4 4 4 4
TYPE F F F F
COUNT 1 1 1 1
WIDTH 1713
HEIGHT 1
VIEWPOINT 0 0 0 1 0 0 0
POINTS 1713
DATA ascii
21.41664 -0.52 3.44 28.6944
21.41664 -0.58 3.44 28.6944
21.41664 -0.64 3.44 28.6944
21.41664 -1.4 3.44 28.6944
28.29636 -1.54 3.44 40.1606
21.41664 -1.6 3.44 28.6944
9.442464 -1.66 3.44 8.73744
28.29636 -2.58 3.44 40.1606
21.41664 -2.66 3.44 28.6944
28.29636 -2.92 3.44 40.1606
28.29636 -3.0 3.44 40.1606
28.29636 -3.02 3.44 40.1606
21.41664 -3.1 3.44 28.6944
124.19999999999999 -3.5 3.44 200.0
28.29636 -3.68 3.44 40.1606
28.29636 -3.7 3.44 40.1606
21.41664 5.58 3.42 28.6944
21.41664 5.34 3.42 28.6944
12.23748 5.28 3.42 13.3958
12.23748 5.1 3.42 13.3958
12.23748 5.06 3.42 13.3958
13.4736 4.28 3.42 15.456
13.4736 4.22 3.42 15.456
13.4736 3.82 3.42 15.456
13.4736 3.56 3.42 15.456
17.592840000000002 3.48 3.42 22.3214
15.15888 3.42 3.42 18.2648
15.15888 3.4 3.42 18.2648
15.15888 3.38 3.42 18.2648
44.33376 3.3 3.42 66.8896
21.41664 3.22 3.42 28.6944
17.592840000000002 2.48 3.42 22.3214
21.41664 1.72 3.42 28.6944
21.41664 1.68 3.42 28.6944
17.592840000000002 0.98 3.42 22.3214
21.41664 -0.52 3.42 28.6944
21.41664 -0.56 3.42 28.6944
21.41664 -0.58 3.42 28.6944
21.41664 -0.64 3.42 28.6944
9.941628000000001 -1.0 3.42 9.56938
28.29636 -1.54 3.42 40.1606
28.29636 -1.56 3.42 40.1606
9.442464 -1.66 3.42 8.73744
44.33376 -2.38 3.42 66.8896
44.33376 -2.5 3.42 66.8896
28.29636 -2.6 3.42 40.1606
28.29636 -2.92 3.42 40.1606
28.29636 -2.94 3.42 40.1606
28.29636 -3.0 3.42 40.1606
28.29636 -3.02 3.42 40.1606
21.41664 -3.1 3.42 28.6944
21.41664 -3.14 3.42 28.6944
124.19999999999999 -3.54 3.42 200.0
28.29636 -3.72 3.42 40.1606
28.29636 -3.74 3.42 40.1606
28.29636 -3.76 3.42 40.1606
21.41664 -3.88 3.42 28.6944
21.41664 -4.0 3.42 28.6944
17.592840000000002 -4.12 3.42 22.3214
13.4736 5.9 3.4 15.456
21.41664 5.82 3.4 28.6944
21.41664 5.6 3.4 28.6944
21.41664 5.58 3.4 28.6944
44.33376 5.42 3.4 66.8896
21.41664 5.34 3.4 28.6944
12.23748 5.26 3.4 13.3958
12.23748 5.22 3.4 13.3958
12.23748 5.08 3.4 13.3958
21.41664 4.9 3.4 28.6944
12.23748 4.58 3.4 13.3958
21.41664 4.42 3.4 28.6944
13.4736 4.3 3.4 15.456
13.4736 4.28 3.4 15.456
13.4736 4.24 3.4 15.456
13.4736 4.22 3.4 15.456
9.442464 3.96 3.4 8.73744
13.4736 3.84 3.4 15.456
13.4736 3.82 3.4 15.456
13.4736 3.56 3.4 15.456
17.592840000000002 3.48 3.4 22.3214
15.15888 3.4 3.4 18.2648
21.41664 3.22 3.4 28.6944
17.592840000000002 2.48 3.4 22.3214
21.41664 1.72 3.4 28.6944
21.41664 1.68 3.4 28.6944
17.592840000000002 0.98 3.4 22.3214
124.19999999999999 -0.44 3.4 200.0
21.41664 -0.52 3.4 28.6944
28.29636 -0.58 3.4 40.1606
21.41664 -0.64 3.4 28.6944
9.941628000000001 -1.0 3.4 9.56938
28.29636 -1.54 3.4 40.1606
9.442464 -1.66 3.4 8.73744
44.33376 -2.48 3.4 66.8896
28.29636 -2.78 3.4 40.1606
28.29636 -2.92 3.4 40.1606
28.29636 -2.94 3.4 40.1606
21.41664 -3.0 3.4 28.6944
21.41664 -3.14 3.4 28.6944
124.19999999999999 -3.6 3.4 200.0
28.29636 -3.68 3.4 40.1606
28.29636 -3.76 3.4 40.1606
28.29636 -3.78 3.4 40.1606
28.29636 -3.8 3.4 40.1606
28.29636 -3.88 3.4 40.1606
21.41664 5.82 3.38 28.6944
21.41664 5.6 3.38 28.6944
44.33376 5.42 3.38 66.8896
17.592840000000002 5.22 3.38 22.3214
13.4736 5.06 3.38 15.456
13.4736 4.3 3.38 15.456
13.4736 4.24 3.38 15.456
13.4736 4.22 3.38 15.456
13.4736 4.14 3.38 15.456
13.4736 3.84 3.38 15.456
13.4736 3.82 3.38 15.456
13.4736 3.56 3.38 15.456
13.4736 3.52 3.38 15.456
21.41664 3.22 3.38 28.6944
21.41664 2.48 3.38 28.6944
21.41664 1.72 3.38 28.6944
17.592840000000002 0.98 3.38 22.3214
21.41664 -0.24 3.38 28.6944
124.19999999999999 -0.44 3.38 200.0
21.41664 -0.52 3.38 28.6944
21.41664 -0.56 3.38 28.6944
28.29636 -0.58 3.38 40.1606
21.41664 -0.64 3.38 28.6944
9.941628000000001 -1.0 3.38 9.56938
9.442464 -1.08 3.38 8.73744
9.442464 -1.66 3.38 8.73744
28.29636 -3.08 3.38 40.1606
28.29636 -3.72 3.38 40.1606
28.29636 -3.8 3.38 40.1606
28.29636 -3.82 3.38 40.1606
28.29636 -3.86 3.38 40.1606
21.41664 -3.92 3.38 28.6944
21.41664 -3.96 3.38 28.6944
17.592840000000002 -4.1 3.38 22.3214
21.41664 5.62 3.36 28.6944
21.41664 5.6 3.36 28.6944
44.33376 5.46 3.36 66.8896
21.41664 5.14 3.36 28.6944
13.4736 5.06 3.36 15.456
13.4736 5.04 3.36 15.456
13.4736 4.94 3.36 15.456
12.23748 4.68 3.36 13.3958
13.4736 4.66 3.36 15.456
13.4736 4.3 3.36 15.456
13.4736 4.24 3.36 15.456
13.4736 4.22 3.36 15.456
13.4736 4.1 3.36 15.456
13.4736 3.84 3.36 15.456
13.4736 3.82 3.36 15.456
13.4736 3.56 3.36 15.456
13.4736 3.52 3.36 15.456
15.15888 3.42 3.36 18.2648
21.41664 3.24 3.36 28.6944
21.41664 3.22 3.36 28.6944
17.592840000000002 3.14 3.36 22.3214
21.41664 2.52 3.36 28.6944
21.41664 1.72 3.36 28.6944
21.41664 1.02 3.36 28.6944
17.592840000000002 0.98 3.36 22.3214
15.15888 0.78 3.36 18.2648
21.41664 -0.24 3.36 28.6944
17.592840000000002 -0.3 3.36 22.3214
124.19999999999999 -0.44 3.36 200.0
21.41664 -0.52 3.36 28.6944
28.29636 -0.58 3.36 40.1606
21.41664 -0.64 3.36 28.6944
9.442464 -1.08 3.36 8.73744
15.15888 -1.14 3.36 18.2648
9.941628000000001 -1.6 3.36 9.56938
9.941628000000001 -1.62 3.36 9.56938
9.442464 -1.66 3.36 8.73744
28.29636 -2.24 3.36 40.1606
44.33376 -2.7 3.36 66.8896
28.29636 -2.76 3.36 40.1606
28.29636 -2.78 3.36 40.1606
21.41664 -2.84 3.36 28.6944
21.41664 -3.0 3.36 28.6944
28.29636 -3.08 3.36 40.1606
28.29636 -3.12 3.36 40.1606
28.29636 -3.84 3.36 40.1606
28.29636 -3.86 3.36 40.1606
28.29636 -3.88 3.36 40.1606
28.29636 -3.96 3.36 40.1606
13.4736 5.9 3.34 15.456
21.41664 5.62 3.34 28.6944
15.15888 5.54 3.34 18.2648
21.41664 5.32 3.34 28.6944
21.41664 5.24 3.34 28.6944
21.41664 5.14 3.34 28.6944
124.19999999999999 4.62 3.34 200.0
13.4736 4.46 3.34 15.456
13.4736 4.44 3.34 15.456
13.4736 4.26 3.34 15.456
13.4736 4.22 3.34 15.456
13.4736 4.16 3.34 15.456
13.4736 4.1 3.34 15.456
13.4736 3.84 3.34 15.456
13.4736 3.82 3.34 15.456
13.4736 3.52 3.34 15.456
13.4736 3.5 3.34 15.456
15.15888 3.46 3.34 18.2648
15.15888 3.42 3.34 18.2648
28.29636 3.24 3.34 40.1606
28.29636 3.22 3.34 40.1606
17.592840000000002 3.14 3.34 22.3214
21.41664 2.52 3.34 28.6944
21.41664 2.5 3.34 28.6944
21.41664 1.72 3.34 28.6944
21.41664 1.7 3.34 28.6944
13.4736 1.56 3.34 15.456
21.41664 1.02 3.34 28.6944
17.592840000000002 0.96 3.34 22.3214
21.41664 -0.24 3.34 28.6944
17.592840000000002 -0.3 3.34 22.3214
124.19999999999999 -0.44 3.34 200.0
21.41664 -0.52 3.34 28.6944
28.29636 -0.58 3.34 40.1606
21.41664 -0.64 3.34 28.6944
21.41664 -1.0 3.34 28.6944
15.15888 -1.14 3.34 18.2648
9.941628000000001 -1.6 3.34 9.56938
9.941628000000001 -1.62 3.34 9.56938
9.941628000000001 -1.66 3.34 9.56938
28.29636 -2.2 3.34 40.1606
28.29636 -2.24 3.34 40.1606
44.33376 -2.68 3.34 66.8896
21.41664 -3.0 3.34 28.6944
28.29636 -3.08 3.34 40.1606
28.29636 -3.12 3.34 40.1606
28.29636 -3.24 3.34 40.1606
124.19999999999999 -3.7 3.34 200.0
28.29636 -3.88 3.34 40.1606
28.29636 -3.9 3.34 40.1606
28.29636 -3.94 3.34 40.1606
21.41664 -4.02 3.34 28.6944
21.41664 -4.04 3.34 28.6944
21.41664 5.74 3.32 28.6944
21.41664 5.64 3.32 28.6944
21.41664 5.62 3.32 28.6944
21.41664 5.34 3.32 28.6944
21.41664 5.32 3.32 28.6944
12.23748 5.06 3.32 13.3958
12.23748 5.04 3.32 13.3958
21.41664 4.94 3.32 28.6944
13.4736 4.68 3.32 15.456
13.4736 4.46 3.32 15.456
21.41664 4.38 3.32 28.6944
13.4736 4.2 3.32 15.456
10.54584 4.06 3.32 10.5764
10.54584 4.04 3.32 10.5764
13.4736 3.84 3.32 15.456
13.4736 3.54 3.32 15.456
28.29636 3.24 3.32 40.1606
28.29636 3.22 3.32 40.1606
15.15888 2.38 3.32 18.2648
124.19999999999999 1.86 3.32 200.0
21.41664 1.72 3.32 28.6944
21.41664 1.02 3.32 28.6944
15.15888 0.78 3.32 18.2648
21.41664 -0.24 3.32 28.6944
17.592840000000002 -0.3 3.32 22.3214
44.33376 -0.44 3.32 66.8896
21.41664 -0.52 3.32 28.6944
21.41664 -0.56 3.32 28.6944
28.29636 -0.58 3.32 40.1606
21.41664 -0.64 3.32 28.6944
21.41664 -0.66 3.32 28.6944
21.41664 -1.0 3.32 28.6944
21.41664 -1.14 3.32 28.6944
9.941628000000001 -1.6 3.32 9.56938
9.941628000000001 -1.62 3.32 9.56938
28.29636 -2.2 3.32 40.1606
28.29636 -2.76 3.32 40.1606
124.19999999999999 -2.94 3.32 200.0
28.29636 -3.08 3.32 40.1606
28.29636 -3.12 3.32 40.1606
28.29636 -3.92 3.32 40.1606
28.29636 -3.94 3.32 40.1606
28.29636 -3.96 3.32 40.1606
28.29636 -4.04 3.32 40.1606
21.41664 -4.2 3.32 28.6944
15.15888 -4.28 3.32 18.2648
13.4736 5.92 3.3 15.456
15.15888 5.82 3.3 18.2648
21.41664 5.7 3.3 28.6944
21.41664 5.64 3.3 28.6944
21.41664 5.36 3.3 28.6944
21.41664 5.34 3.3 28.6944
12.23748 5.06 3.3 13.3958
12.23748 5.04 3.3 13.3958
12.23748 4.82 3.3 13.3958
13.4736 4.7 3.3 15.456
13.4736 4.68 3.3 15.456
21.41664 4.36 3.3 28.6944
15.15888 4.24 3.3 18.2648
13.4736 4.18 3.3 15.456
10.54584 4.04 3.3 10.5764
13.4736 3.84 3.3 15.456
10.54584 3.68 3.3 10.5764
9.941628000000001 3.62 3.3 9.56938
13.4736 3.54 3.3 15.456
17.592840000000002 3.48 3.3 22.3214
17.592840000000002 3.46 3.3 22.3214
15.15888 3.4 3.3 18.2648
28.29636 3.24 3.3 40.1606
17.592840000000002 2.46 3.3 22.3214
15.15888 2.32 3.3 18.2648
21.41664 1.72 3.3 28.6944
21.41664 1.7 3.3 28.6944
15.15888 1.38 3.3 18.2648
21.41664 1.02 3.3 28.6944
21.41664 -0.24 3.3 28.6944
17.592840000000002 -0.3 3.3 22.3214
44.33376 -0.44 3.3 66.8896
21.41664 -0.52 3.3 28.6944
21.41664 -0.56 3.3 28.6944
28.29636 -0.58 3.3 40.1606
21.41664 -0.64 3.3 28.6944
21.41664 -0.66 3.3 28.6944
21.41664 -1.0 3.3 28.6944
21.41664 -1.08 3.3 28.6944
21.41664 -1.12 3.3 28.6944
21.41664 -1.14 3.3 28.6944
9.941628000000001 -1.62 3.3 9.56938
28.29636 -3.08 3.3 40.1606
28.29636 -3.12 3.3 40.1606
124.19999999999999 -3.8 3.3 200.0
28.29636 -3.96 3.3 40.1606
28.29636 -4.04 3.3 40.1606
21.41664 -4.12 3.3 28.6944
21.41664 -4.14 3.3 28.6944
21.41664 5.7 3.28 28.6944
21.41664 5.66 3.28 28.6944
21.41664 5.64 3.28 28.6944
15.15888 5.52 3.28 18.2648
21.41664 5.34 3.28 28.6944
21.41664 5.32 3.28 28.6944
44.33376 5.24 3.28 66.8896
12.23748 4.82 3.28 13.3958
15.15888 4.22 3.28 18.2648
13.4736 4.16 3.28 15.456
13.4736 4.14 3.28 15.456
13.4736 3.86 3.28 15.456
13.4736 3.84 3.28 15.456
13.4736 3.82 3.28 15.456
11.29218 3.74 3.28 11.8203
13.4736 3.54 3.28 15.456
17.592840000000002 3.46 3.28 22.3214
15.15888 3.4 3.28 18.2648
28.29636 3.24 3.28 40.1606
17.592840000000002 2.46 3.28 22.3214
28.29636 1.76 3.28 40.1606
21.41664 1.7 3.28 28.6944
13.4736 1.52 3.28 15.456
21.41664 1.02 3.28 28.6944
17.592840000000002 0.96 3.28 22.3214
21.41664 -0.24 3.28 28.6944
17.592840000000002 -0.3 3.28 22.3214
44.33376 -0.44 3.28 66.8896
21.41664 -0.52 3.28 28.6944
21.41664 -0.56 3.28 28.6944
21.41664 -0.58 3.28 28.6944
21.41664 -0.64 3.28 28.6944
21.41664 -0.66 3.28 28.6944
21.41664 -1.0 3.28 28.6944
21.41664 -1.08 3.28 28.6944
21.41664 -1.12 3.28 28.6944
21.41664 -1.14 3.28 28.6944
28.29636 -1.56 3.28 40.1606
21.41664 -1.62 3.28 28.6944
28.29636 -3.08 3.28 40.1606
28.29636 -3.12 3.28 40.1606
124.19999999999999 -3.9 3.28 200.0
44.33376 -3.98 3.28 66.8896
28.29636 -4.04 3.28 40.1606
28.29636 -4.06 3.28 40.1606
21.41664 -4.12 3.28 28.6944
21.41664 -4.14 3.28 28.6944
21.41664 -4.16 3.28 28.6944
21.41664 5.66 3.26 28.6944
21.41664 5.64 3.26 28.6944
15.15888 5.52 3.26 18.2648
21.41664 5.42 3.26 28.6944
28.29636 5.34 3.26 40.1606
12.23748 5.02 3.26 13.3958
12.23748 4.82 3.26 13.3958
13.4736 4.6 3.26 15.456
13.4736 4.58 3.26 15.456
13.4736 4.14 3.26 15.456
13.4736 4.12 3.26 15.456
11.29218 4.0 3.26 11.8203
13.4736 3.86 3.26 15.456
13.4736 3.84 3.26 15.456
15.15888 3.4 3.26 18.2648
28.29636 3.24 3.26 40.1606
28.29636 3.22 3.26 40.1606
15.15888 3.1 3.26 18.2648
17.592840000000002 2.5 3.26 22.3214
28.29636 1.76 3.26 40.1606
21.41664 1.7 3.26 28.6944
21.41664 1.02 3.26 28.6944
15.15888 0.78 3.26 18.2648
21.41664 -0.24 3.26 28.6944
44.33376 -0.44 3.26 66.8896
21.41664 -0.52 3.26 28.6944
21.41664 -0.56 3.26 28.6944
21.41664 -0.58 3.26 28.6944
21.41664 -0.66 3.26 28.6944
44.33376 -1.0 3.26 66.8896
21.41664 -1.08 3.26 28.6944
21.41664 -1.14 3.26 28.6944
28.29636 -1.56 3.26 40.1606
21.41664 -1.62 3.26 28.6944
28.29636 -3.08 3.26 40.1606
124.19999999999999 -3.88 3.26 200.0
124.19999999999999 -3.9 3.26 200.0
44.33376 -3.98 3.26 66.8896
44.33376 -4.0 3.26 66.8896
28.29636 -4.06 3.26 40.1606
28.29636 -4.08 3.26 40.1606
21.41664 -4.22 3.26 28.6944
13.4736 5.92 3.24 15.456
13.4736 5.9 3.24 15.456
21.41664 5.72 3.24 28.6944
21.41664 5.58 3.24 28.6944
12.23748 4.84 3.24 13.3958
12.23748 4.82 3.24 13.3958
17.592840000000002 4.24 3.24 22.3214
15.15888 4.18 3.24 18.2648
13.4736 4.12 3.24 15.456
11.29218 4.02 3.24 11.8203
11.29218 4.0 3.24 11.8203
13.4736 3.88 3.24 15.456
13.4736 3.86 3.24 15.456
13.4736 3.52 3.24 15.456
15.15888 3.4 3.24 18.2648
28.29636 3.24 3.24 40.1606
28.29636 3.22 3.24 40.1606
21.41664 2.5 3.24 28.6944
21.41664 1.7 3.24 28.6944
21.41664 1.66 3.24 28.6944
21.41664 1.44 3.24 28.6944
21.41664 1.02 3.24 28.6944
17.592840000000002 -0.22 3.24 22.3214
21.41664 -0.3 3.24 28.6944
44.33376 -0.42 3.24 66.8896
44.33376 -0.44 3.24 66.8896
21.41664 -0.58 3.24 28.6944
21.41664 -0.66 3.24 28.6944
44.33376 -1.0 3.24 66.8896
21.41664 -1.08 3.24 28.6944
21.41664 -1.14 3.24 28.6944
28.29636 -1.56 3.24 40.1606
21.41664 -1.62 3.24 28.6944
9.941628000000001 -2.1 3.24 9.56938
21.41664 -3.0 3.24 28.6944
28.29636 -3.08 3.24 40.1606
28.29636 -3.12 3.24 40.1606
28.29636 -3.24 3.24 40.1606
28.29636 -3.4 3.24 40.1606
28.29636 -3.5 3.24 40.1606
124.19999999999999 -3.86 3.24 200.0
44.33376 -4.0 3.24 66.8896
28.29636 -4.1 3.24 40.1606
28.29636 -4.12 3.24 40.1606
28.29636 -4.22 3.24 40.1606
13.4736 5.92 3.22 15.456
21.41664 5.66 3.22 28.6944
21.41664 5.6 3.22 28.6944
12.23748 4.94 3.22 13.3958
12.23748 4.92 3.22 13.3958
12.23748 4.84 3.22 13.3958
12.23748 4.82 3.22 13.3958
17.592840000000002 4.22 3.22 22.3214
15.15888 4.18 3.22 18.2648
13.4736 4.16 3.22 15.456
13.4736 4.1 3.22 15.456
13.4736 3.9 3.22 15.456
13.4736 3.88 3.22 15.456
13.4736 3.52 3.22 15.456
15.15888 3.4 3.22 18.2648
15.15888 3.38 3.22 18.2648
21.41664 3.22 3.22 28.6944
21.41664 2.54 3.22 28.6944
17.592840000000002 2.1 3.22 22.3214
21.41664 1.7 3.22 28.6944
21.41664 1.02 3.22 28.6944
17.592840000000002 0.96 3.22 22.3214
21.41664 -0.12 3.22 28.6944
17.592840000000002 -0.22 3.22 22.3214
44.33376 -0.44 3.22 66.8896
21.41664 -0.58 3.22 28.6944
21.41664 -0.66 3.22 28.6944
44.33376 -1.0 3.22 66.8896
44.33376 -1.02 3.22 66.8896
21.41664 -1.08 3.22 28.6944
21.41664 -1.14 3.22 28.6944
28.29636 -1.56 3.22 40.1606
21.41664 -1.62 3.22 28.6944
9.941628000000001 -2.1 3.22 9.56938
124.19999999999999 -2.94 3.22 200.0
21.41664 -3.0 3.22 28.6944
28.29636 -3.08 3.22 40.1606
28.29636 -3.16 3.22 40.1606
28.29636 -3.24 3.22 40.1606
28.29636 -3.4 3.22 40.1606
28.29636 -3.42 3.22 40.1606
28.29636 -3.48 3.22 40.1606
28.29636 -3.52 3.22 40.1606
124.19999999999999 -3.94 3.22 200.0
124.19999999999999 -3.96 3.22 200.0
44.33376 -4.04 3.22 66.8896
28.29636 -4.12 3.22 40.1606
28.29636 -4.14 3.22 40.1606
28.29636 -4.16 3.22 40.1606
21.41664 -4.3 3.22 28.6944
13.4736 5.92 3.2 15.456
13.4736 5.9 3.2 15.456
13.4736 5.88 3.2 15.456
21.41664 5.68 3.2 28.6944
21.41664 5.46 3.2 28.6944
21.41664 5.42 3.2 28.6944
21.41664 5.08 3.2 28.6944
12.23748 4.96 3.2 13.3958
12.23748 4.86 3.2 13.3958
12.23748 4.84 3.2 13.3958
12.23748 4.82 3.2 13.3958
15.15888 4.2 3.2 18.2648
15.15888 4.16 3.2 18.2648
15.15888 4.14 3.2 18.2648
13.4736 4.08 3.2 15.456
13.4736 4.06 3.2 15.456
13.4736 3.96 3.2 15.456
13.4736 3.9 3.2 15.456
13.4736 3.52 3.2 15.456
21.41664 2.58 3.2 28.6944
21.41664 2.54 3.2 28.6944
21.41664 2.52 3.2 28.6944
13.4736 2.18 3.2 15.456
21.41664 1.7 3.2 28.6944
21.41664 1.36 3.2 28.6944
21.41664 1.02 3.2 28.6944
17.592840000000002 0.96 3.2 22.3214
21.41664 -0.12 3.2 28.6944
17.592840000000002 -0.16 3.2 22.3214
17.592840000000002 -0.18 3.2 22.3214
44.33376 -0.44 3.2 66.8896
28.29636 -0.52 3.2 40.1606
21.41664 -0.58 3.2 28.6944
44.33376 -1.0 3.2 66.8896
44.33376 -1.02 3.2 66.8896
21.41664 -1.08 3.2 28.6944
21.41664 -1.14 3.2 28.6944
28.29636 -1.56 3.2 40.1606
21.41664 -1.62 3.2 28.6944
11.29218 -1.96 3.2 11.8203
124.19999999999999 -2.94 3.2 200.0
21.41664 -3.0 3.2 28.6944
28.29636 -3.12 3.2 40.1606
21.41664 -3.16 3.2 28.6944
28.29636 -3.42 3.2 40.1606
21.41664 -3.48 3.2 28.6944
21.41664 -3.52 3.2 28.6944
124.19999999999999 -3.96 3.2 200.0
124.19999999999999 -3.98 3.2 200.0
44.33376 -4.08 3.2 66.8896
44.33376 -4.1 3.2 66.8896
28.29636 -4.18 3.2 40.1606
28.29636 -4.2 3.2 40.1606
28.29636 -4.22 3.2 40.1606
28.29636 -4.3 3.2 40.1606
13.4736 5.92 3.18 15.456
17.592840000000002 5.76 3.18 22.3214
17.592840000000002 5.7 3.18 22.3214
44.33376 5.6 3.18 66.8896
21.41664 5.48 3.18 28.6944
21.41664 5.44 3.18 28.6944
12.23748 4.94 3.18 13.3958
12.23748 4.86 3.18 13.3958
12.23748 4.84 3.18 13.3958
12.23748 4.82 3.18 13.3958
13.4736 4.06 3.18 15.456
13.4736 4.04 3.18 15.456
13.4736 3.92 3.18 15.456
13.4736 3.9 3.18 15.456
21.41664 3.56 3.18 28.6944
15.15888 3.42 3.18 18.2648
15.15888 3.4 3.18 18.2648
21.41664 2.54 3.18 28.6944
13.4736 2.2 3.18 15.456
21.41664 1.7 3.18 28.6944
21.41664 1.38 3.18 28.6944
21.41664 1.36 3.18 28.6944
21.41664 1.02 3.18 28.6944
17.592840000000002 0.96 3.18 22.3214
15.15888 0.78 3.18 18.2648
17.592840000000002 -0.18 3.18 22.3214
17.592840000000002 -0.22 3.18 22.3214
44.33376 -0.44 3.18 66.8896
28.29636 -0.52 3.18 40.1606
21.41664 -0.58 3.18 28.6944
44.33376 -1.02 3.18 66.8896
21.41664 -1.08 3.18 28.6944
17.592840000000002 -1.14 3.18 22.3214
28.29636 -1.56 3.18 40.1606
21.41664 -1.62 3.18 28.6944
11.29218 -1.96 3.18 11.8203
124.19999999999999 -2.94 3.18 200.0
21.41664 -3.0 3.18 28.6944
21.41664 -3.12 3.18 28.6944
21.41664 -3.16 3.18 28.6944
28.29636 -3.42 3.18 40.1606
21.41664 -3.48 3.18 28.6944
124.19999999999999 -4.04 3.18 200.0
44.33376 -4.12 3.18 66.8896
28.29636 -4.22 3.18 40.1606
28.29636 -4.24 3.18 40.1606
21.41664 -4.38 3.18 28.6944
13.4736 5.92 3.16 15.456
17.592840000000002 5.76 3.16 22.3214
17.592840000000002 5.74 3.16 22.3214
17.592840000000002 5.72 3.16 22.3214
21.41664 5.48 3.16 28.6944
21.41664 5.46 3.16 28.6944
21.41664 5.4 3.16 28.6944
12.23748 4.84 3.16 13.3958
21.41664 4.72 3.16 28.6944
13.4736 4.1 3.16 15.456
13.4736 4.04 3.16 15.456
13.4736 3.94 3.16 15.456
13.4736 3.92 3.16 15.456
10.54584 3.84 3.16 10.5764
21.41664 3.56 3.16 28.6944
13.4736 3.5 3.16 15.456
15.15888 3.42 3.16 18.2648
15.15888 3.4 3.16 18.2648
13.4736 2.76 3.16 15.456
21.41664 2.54 3.16 28.6944
21.41664 1.7 3.16 28.6944
21.41664 1.02 3.16 28.6944
15.15888 0.78 3.16 18.2648
17.592840000000002 -0.18 3.16 22.3214
21.41664 -0.22 3.16 28.6944
44.33376 -0.44 3.16 66.8896
28.29636 -0.52 3.16 40.1606
21.41664 -0.58 3.16 28.6944
44.33376 -1.02 3.16 66.8896
21.41664 -1.08 3.16 28.6944
17.592840000000002 -1.14 3.16 22.3214
21.41664 -1.62 3.16 28.6944
11.29218 -1.96 3.16 11.8203
124.19999999999999 -2.94 3.16 200.0
21.41664 -3.0 3.16 28.6944
21.41664 -3.16 3.16 28.6944
28.29636 -3.42 3.16 40.1606
21.41664 -3.48 3.16 28.6944
124.19999999999999 -4.06 3.16 200.0
124.19999999999999 -4.08 3.16 200.0
28.29636 -4.26 3.16 40.1606
28.29636 -4.28 3.16 40.1606
28.29636 -4.3 3.16 40.1606
28.29636 -4.38 3.16 40.1606
13.4736 5.92 3.14 15.456
17.592840000000002 5.74 3.14 22.3214
17.592840000000002 5.72 3.14 22.3214
21.41664 5.66 3.14 28.6944
21.41664 5.5 3.14 28.6944
21.41664 5.46 3.14 28.6944
21.41664 5.4 3.14 28.6944
15.15888 4.88 3.14 18.2648
12.23748 4.8 3.14 13.3958
12.23748 4.78 3.14 13.3958
13.4736 3.96 3.14 15.456
13.4736 3.94 3.14 15.456
9.442464 3.76 3.14 8.73744
21.41664 3.56 3.14 28.6944
13.4736 3.5 3.14 15.456
13.4736 3.42 3.14 15.456
28.29636 3.24 3.14 40.1606
21.41664 1.8 3.14 28.6944
21.41664 1.74 3.14 28.6944
21.41664 1.7 3.14 28.6944
21.41664 1.48 3.14 28.6944
21.41664 1.46 3.14 28.6944
21.41664 1.02 3.14 28.6944
17.592840000000002 0.96 3.14 22.3214
15.15888 0.78 3.14 18.2648
21.41664 -0.22 3.14 28.6944
21.41664 -0.58 3.14 28.6944
28.29636 -1.02 3.14 40.1606
21.41664 -1.08 3.14 28.6944
17.592840000000002 -1.14 3.14 22.3214
11.29218 -1.96 3.14 11.8203
21.41664 -2.64 3.14 28.6944
21.41664 -3.16 3.14 28.6944
28.29636 -3.42 3.14 40.1606
28.29636 -3.7 3.14 40.1606
124.19999999999999 -4.12 3.14 200.0
28.29636 -4.3 3.14 40.1606
28.29636 -4.34 3.14 40.1606
28.29636 -4.44 3.14 40.1606
21.41664 -4.46 3.14 28.6944
13.4736 5.92 3.12 15.456
13.4736 5.88 3.12 15.456
17.592840000000002 5.74 3.12 22.3214
21.41664 5.66 3.12 28.6944
21.41664 5.52 3.12 28.6944
21.41664 5.48 3.12 28.6944
21.41664 5.46 3.12 28.6944
15.15888 4.86 3.12 18.2648
12.23748 4.78 3.12 13.3958
12.23748 4.76 3.12 13.3958
21.41664 4.7 3.12 28.6944
21.41664 4.68 3.12 28.6944
13.4736 4.06 3.12 15.456
13.4736 3.98 3.12 15.456
13.4736 3.96 3.12 15.456
15.15888 3.62 3.12 18.2648
13.4736 3.5 3.12 15.456
13.4736 3.48 3.12 15.456
13.4736 3.42 3.12 15.456
13.4736 3.4 3.12 15.456
28.29636 3.24 3.12 40.1606
21.41664 1.5 3.12 28.6944
21.41664 1.02 3.12 28.6944
17.592840000000002 0.96 3.12 22.3214
15.15888 0.78 3.12 18.2648
21.41664 -0.4 3.12 28.6944
28.29636 -1.02 3.12 40.1606
21.41664 -1.08 3.12 28.6944
21.41664 -1.62 3.12 28.6944
11.29218 -1.96 3.12 11.8203
10.54584 -2.04 3.12 10.5764
21.41664 -2.68 3.12 28.6944
21.41664 -2.7 3.12 28.6944
21.41664 -3.16 3.12 28.6944
28.29636 -3.42 3.12 40.1606
28.29636 -3.7 3.12 40.1606
28.29636 -4.34 3.12 40.1606
28.29636 -4.36 3.12 40.1606
28.29636 -4.38 3.12 40.1606
13.4736 5.92 3.1 15.456
17.592840000000002 5.78 3.1 22.3214
21.41664 5.66 3.1 28.6944
21.41664 5.52 3.1 28.6944
21.41664 5.36 3.1 28.6944
15.15888 4.9 3.1 18.2648
15.15888 4.84 3.1 18.2648
12.23748 4.76 3.1 13.3958
12.23748 4.74 3.1 13.3958
21.41664 4.7 3.1 28.6944
13.4736 4.06 3.1 15.456
13.4736 3.96 3.1 15.456
13.4736 3.94 3.1 15.456
9.023147999999999 3.68 3.1 8.03858
13.4736 3.48 3.1 15.456
13.4736 3.42 3.1 15.456
13.4736 3.4 3.1 15.456
21.41664 2.54 3.1 28.6944
21.41664 1.02 3.1 28.6944
17.592840000000002 0.96 3.1 22.3214
15.15888 0.78 3.1 18.2648
21.41664 -0.4 3.1 28.6944
28.29636 -1.02 3.1 40.1606
21.41664 -1.08 3.1 28.6944
28.29636 -1.56 3.1 40.1606
21.41664 -1.62 3.1 28.6944
11.29218 -1.96 3.1 11.8203
10.54584 -2.04 3.1 10.5764
21.41664 -3.16 3.1 28.6944
28.29636 -3.42 3.1 40.1606
124.19999999999999 -4.2 3.1 200.0
28.29636 -4.38 3.1 40.1606
28.29636 -4.4 3.1 40.1606
28.29636 -4.42 3.1 40.1606
28.29636 -4.5 3.1 40.1606
28.29636 -4.52 3.1 40.1606
13.4736 5.92 3.08 15.456
21.41664 5.82 3.08 28.6944
17.592840000000002 5.78 3.08 22.3214
21.41664 5.54 3.08 28.6944
21.41664 5.36 3.08 28.6944
12.23748 4.72 3.08 13.3958
13.4736 4.06 3.08 15.456
15.15888 3.66 3.08 18.2648
21.41664 3.56 3.08 28.6944
21.41664 3.54 3.08 28.6944
15.15888 3.48 3.08 18.2648
13.4736 3.42 3.08 15.456
13.4736 3.4 3.08 15.456
13.4736 2.44 3.08 15.456
13.4736 2.28 3.08 15.456
13.4736 2.06 3.08 15.456
21.41664 1.62 3.08 28.6944
21.41664 1.6 3.08 28.6944
21.41664 1.02 3.08 28.6944
17.592840000000002 0.96 3.08 22.3214
15.15888 0.78 3.08 18.2648
44.33376 -0.24 3.08 66.8896
21.41664 -0.94 3.08 28.6944
28.29636 -1.02 3.08 40.1606
21.41664 -1.08 3.08 28.6944
17.592840000000002 -1.14 3.08 22.3214
17.592840000000002 -1.16 3.08 22.3214
28.29636 -1.56 3.08 40.1606
21.41664 -1.62 3.08 28.6944
44.33376 -3.06 3.08 66.8896
21.41664 -3.14 3.08 28.6944
28.29636 -3.42 3.08 40.1606
28.29636 -3.78 3.08 40.1606
28.29636 -4.34 3.08 40.1606
28.29636 -4.42 3.08 40.1606
28.29636 -4.44 3.08 40.1606
13.4736 5.92 3.06 15.456
21.41664 5.82 3.06 28.6944
21.41664 5.8 3.06 28.6944
17.592840000000002 5.74 3.06 22.3214
13.4736 5.6 3.06 15.456
12.23748 4.72 3.06 13.3958
13.4736 4.7 3.06 15.456
13.4736 4.04 3.06 15.456
21.41664 3.52 3.06 28.6944
13.4736 3.44 3.06 15.456
13.4736 3.4 3.06 15.456
13.4736 3.38 3.06 15.456
28.29636 3.32 3.06 40.1606
12.23748 3.26 3.06 13.3958
13.4736 3.08 3.06 15.456
17.592840000000002 2.56 3.06 22.3214
13.4736 2.46 3.06 15.456
13.4736 2.44 3.06 15.456
13.4736 2.3 3.06 15.456
21.41664 1.68 3.06 28.6944
21.41664 1.66 3.06 28.6944
21.41664 1.02 3.06 28.6944
17.592840000000002 0.96 3.06 22.3214
15.15888 0.78 3.06 18.2648
21.41664 -0.06 3.06 28.6944
21.41664 -0.94 3.06 28.6944
28.29636 -1.02 3.06 40.1606
21.41664 -1.08 3.06 28.6944
17.592840000000002 -1.14 3.06 22.3214
17.592840000000002 -1.16 3.06 22.3214
28.29636 -1.56 3.06 40.1606
21.41664 -1.62 3.06 28.6944
21.41664 -2.82 3.06 28.6944
21.41664 -2.84 3.06 28.6944
44.33376 -3.06 3.06 66.8896
21.41664 -3.14 3.06 28.6944
28.29636 -3.42 3.06 40.1606
124.19999999999999 -4.28 3.06 200.0
28.29636 -4.46 3.06 40.1606
28.29636 -4.48 3.06 40.1606
28.29636 -4.5 3.06 40.1606
28.29636 -4.58 3.06 40.1606
13.4736 5.92 3.04 15.456
13.4736 5.88 3.04 15.456
21.41664 5.82 3.04 28.6944
21.41664 5.8 3.04 28.6944
17.592840000000002 5.74 3.04 22.3214
12.23748 4.76 3.04 13.3958
13.4736 4.68 3.04 15.456
13.4736 4.66 3.04 15.456
13.4736 4.02 3.04 15.456
13.4736 3.98 3.04 15.456
13.4736 3.96 3.04 15.456
13.4736 3.86 3.04 15.456
15.15888 3.62 3.04 18.2648
21.41664 3.52 3.04 28.6944
13.4736 3.44 3.04 15.456
13.4736 3.4 3.04 15.456
13.4736 3.38 3.04 15.456
12.23748 3.26 3.04 13.3958
12.23748 3.18 3.04 13.3958
13.4736 3.12 3.04 15.456
17.592840000000002 2.56 3.04 22.3214
15.15888 2.5 3.04 18.2648
17.592840000000002 1.94 3.04 22.3214
21.41664 1.7 3.04 28.6944
21.41664 1.68 3.04 28.6944
21.41664 1.02 3.04 28.6944
17.592840000000002 0.96 3.04 22.3214
15.15888 0.78 3.04 18.2648
21.41664 -0.06 3.04 28.6944
21.41664 -0.92 3.04 28.6944
28.29636 -1.02 3.04 40.1606
21.41664 -1.08 3.04 28.6944
17.592840000000002 -1.16 3.04 22.3214
28.29636 -1.56 3.04 40.1606
21.41664 -1.62 3.04 28.6944
28.29636 -2.24 3.04 40.1606
21.41664 -3.16 3.04 28.6944
28.29636 -3.42 3.04 40.1606
28.29636 -3.86 3.04 40.1606
28.29636 -3.94 3.04 40.1606
28.29636 -4.5 3.04 40.1606
28.29636 -4.52 3.04 40.1606
28.29636 -4.66 3.04 40.1606
13.4736 5.92 3.02 15.456
21.41664 5.82 3.02 28.6944
21.41664 5.8 3.02 28.6944
17.592840000000002 5.7 3.02 22.3214
13.4736 5.44 3.02 15.456
13.4736 4.66 3.02 15.456
13.4736 4.64 3.02 15.456
13.4736 4.02 3.02 15.456
13.4736 3.98 3.02 15.456
13.4736 3.96 3.02 15.456
13.4736 3.9 3.02 15.456
13.4736 3.82 3.02 15.456
15.15888 3.66 3.02 18.2648
21.41664 3.56 3.02 28.6944
15.15888 3.44 3.02 18.2648
13.4736 3.38 3.02 15.456
28.29636 3.3 3.02 40.1606
12.23748 3.22 3.02 13.3958
13.4736 3.08 3.02 15.456
13.4736 3.06 3.02 15.456
17.592840000000002 2.58 3.02 22.3214
17.592840000000002 2.56 3.02 22.3214
15.15888 2.5 3.02 18.2648
15.15888 2.1 3.02 18.2648
13.4736 2.0 3.02 15.456
21.41664 1.02 3.02 28.6944
17.592840000000002 0.96 3.02 22.3214
15.15888 0.78 3.02 18.2648
21.41664 -0.12 3.02 28.6944
21.41664 -0.96 3.02 28.6944
28.29636 -1.02 3.02 40.1606
21.41664 -1.08 3.02 28.6944
17.592840000000002 -1.16 3.02 22.3214
28.29636 -1.56 3.02 40.1606
21.41664 -1.62 3.02 28.6944
21.41664 -1.92 3.02 28.6944
17.592840000000002 -2.0 3.02 22.3214
17.592840000000002 -2.02 3.02 22.3214
21.41664 -2.9 3.02 28.6944
21.41664 -2.92 3.02 28.6944
21.41664 -2.94 3.02 28.6944
21.41664 -3.16 3.02 28.6944
28.29636 -3.42 3.02 40.1606
28.29636 -3.76 3.02 40.1606
28.29636 -3.84 3.02 40.1606
28.29636 -3.86 3.02 40.1606
124.19999999999999 -4.34 3.02 200.0
124.19999999999999 -4.38 3.02 200.0
44.33376 -4.44 3.02 66.8896
44.33376 -4.46 3.02 66.8896
28.29636 -4.48 3.02 40.1606
28.29636 -4.54 3.02 40.1606
28.29636 -4.56 3.02 40.1606
28.29636 -4.58 3.02 40.1606
13.4736 5.92 3.0 15.456
21.41664 5.8 3.0 28.6944
21.41664 5.64 3.0 28.6944
17.592840000000002 5.58 3.0 22.3214
13.4736 5.48 3.0 15.456
21.41664 5.36 3.0 28.6944
13.4736 4.7 3.0 15.456
13.4736 4.64 3.0 15.456
13.4736 4.02 3.0 15.456
13.4736 3.98 3.0 15.456
13.4736 3.96 3.0 15.456
13.4736 3.9 3.0 15.456
13.4736 3.88 3.0 15.456
15.15888 3.66 3.0 18.2648
21.41664 3.54 3.0 28.6944
15.15888 3.46 3.0 18.2648
15.15888 3.44 3.0 18.2648
13.4736 3.42 3.0 15.456
28.29636 3.32 3.0 40.1606
28.29636 3.3 3.0 40.1606
12.23748 3.22 3.0 13.3958
15.15888 3.08 3.0 18.2648
15.15888 3.06 3.0 18.2648
17.592840000000002 2.58 3.0 22.3214
17.592840000000002 2.56 3.0 22.3214
17.592840000000002 1.9 3.0 22.3214
17.592840000000002 1.88 3.0 22.3214
21.41664 1.78 3.0 28.6944
21.41664 1.02 3.0 28.6944
17.592840000000002 0.96 3.0 22.3214
15.15888 0.78 3.0 18.2648
21.41664 -0.12 3.0 28.6944
44.33376 -0.78 3.0 66.8896
28.29636 -1.02 3.0 40.1606
21.41664 -1.08 3.0 28.6944
17.592840000000002 -1.16 3.0 22.3214
28.29636 -1.56 3.0 40.1606
21.41664 -1.92 3.0 28.6944
17.592840000000002 -2.02 3.0 22.3214
28.29636 -2.88 3.0 40.1606
28.29636 -3.08 3.0 40.1606
21.41664 -3.16 3.0 28.6944
28.29636 -3.42 3.0 40.1606
28.29636 -3.44 3.0 40.1606
21.41664 -3.5 3.0 28.6944
28.29636 -3.76 3.0 40.1606
28.29636 -3.84 3.0 40.1606
28.29636 -3.86 3.0 40.1606
124.19999999999999 -4.42 3.0 200.0
28.29636 -4.58 3.0 40.1606
28.29636 -4.6 3.0 40.1606
28.29636 -4.62 3.0 40.1606
28.29636 -4.64 3.0 40.1606
28.29636 -4.76 3.0 40.1606
13.4736 5.92 2.98 15.456
21.41664 5.8 2.98 28.6944
21.41664 5.66 2.98 28.6944
21.41664 5.64 2.98 28.6944
21.41664 5.6 2.98 28.6944
17.592840000000002 5.58 2.98 22.3214
17.592840000000002 5.48 2.98 22.3214
21.41664 5.38 2.98 28.6944
21.41664 4.78 2.98 28.6944
15.15888 4.68 2.98 18.2648
13.4736 4.62 2.98 15.456
12.23748 4.58 2.98 13.3958
9.941628000000001 4.46 2.98 9.56938
13.4736 4.04 2.98 15.456
13.4736 4.02 2.98 15.456
13.4736 3.84 2.98 15.456
13.4736 3.82 2.98 15.456
12.23748 3.76 2.98 13.3958
15.15888 3.46 2.98 18.2648
15.15888 3.42 2.98 18.2648
12.23748 3.22 2.98 13.3958
13.4736 3.18 2.98 15.456
15.15888 3.14 2.98 18.2648
15.15888 3.12 2.98 18.2648
15.15888 3.06 2.98 18.2648
15.15888 3.02 2.98 18.2648
17.592840000000002 2.58 2.98 22.3214
12.23748 2.36 2.98 13.3958
17.592840000000002 1.92 2.98 22.3214
21.41664 1.02 2.98 28.6944
17.592840000000002 0.96 2.98 22.3214
28.29636 -0.06 2.98 40.1606
21.41664 -1.08 2.98 28.6944
17.592840000000002 -1.16 2.98 22.3214
21.41664 -1.92 2.98 28.6944
17.592840000000002 -2.02 2.98 22.3214
17.592840000000002 -2.04 2.98 22.3214
28.29636 -2.88 2.98 40.1606
28.29636 -3.08 2.98 40.1606
21.41664 -3.16 2.98 28.6944
28.29636 -3.42 2.98 40.1606
28.29636 -3.44 2.98 40.1606
21.41664 -3.5 2.98 28.6944
28.29636 -3.76 2.98 40.1606
28.29636 -3.86 2.98 40.1606
124.19999999999999 -4.4 2.98 200.0
124.19999999999999 -4.42 2.98 200.0
44.33376 -4.54 2.98 66.8896
28.29636 -4.64 2.98 40.1606
28.29636 -4.66 2.98 40.1606
13.4736 5.92 2.96 15.456
21.41664 5.8 2.96 28.6944
21.41664 5.66 2.96 28.6944
21.41664 5.64 2.96 28.6944
21.41664 5.56 2.96 28.6944
21.41664 5.38 2.96 28.6944
13.4736 5.28 2.96 15.456
13.4736 4.58 2.96 15.456
12.23748 4.56 2.96 13.3958
13.4736 4.06 2.96 15.456
13.4736 4.04 2.96 15.456
13.4736 3.86 2.96 15.456
13.4736 3.84 2.96 15.456
13.4736 3.82 2.96 15.456
12.23748 3.76 2.96 13.3958
15.15888 3.46 2.96 18.2648
13.4736 3.22 2.96 15.456
13.4736 3.2 2.96 15.456
13.4736 3.18 2.96 15.456
15.15888 3.14 2.96 18.2648
15.15888 3.12 2.96 18.2648
15.15888 2.14 2.96 18.2648
21.41664 2.04 2.96 28.6944
17.592840000000002 1.92 2.96 22.3214
21.41664 1.02 2.96 28.6944
17.592840000000002 0.96 2.96 22.3214
15.15888 0.78 2.96 18.2648
21.41664 -1.08 2.96 28.6944
44.33376 -1.9 2.96 66.8896
28.29636 -1.92 2.96 40.1606
21.41664 -2.02 2.96 28.6944
21.41664 -2.04 2.96 28.6944
21.41664 -3.14 2.96 28.6944
21.41664 -3.16 2.96 28.6944
28.29636 -3.36 2.96 40.1606
28.29636 -3.42 2.96 40.1606
21.41664 -3.5 2.96 28.6944
28.29636 -3.76 2.96 40.1606
28.29636 -3.86 2.96 40.1606
124.19999999999999 -4.48 2.96 200.0
124.19999999999999 -4.5 2.96 200.0
44.33376 -4.58 2.96 66.8896
44.33376 -4.6 2.96 66.8896
28.29636 -4.66 2.96 40.1606
28.29636 -4.68 2.96 40.1606
28.29636 -4.7 2.96 40.1606
28.29636 -4.72 2.96 40.1606
13.4736 5.92 2.94 15.456
15.15888 5.86 2.94 18.2648
15.15888 5.84 2.94 18.2648
15.15888 5.82 2.94 18.2648
21.41664 5.7 2.94 28.6944
21.41664 5.66 2.94 28.6944
21.41664 5.56 2.94 28.6944
21.41664 5.44 2.94 28.6944
21.41664 5.18 2.94 28.6944
15.15888 4.64 2.94 18.2648
15.15888 4.62 2.94 18.2648
12.23748 4.56 2.94 13.3958
12.23748 4.54 2.94 13.3958
13.4736 4.14 2.94 15.456
17.592840000000002 3.94 2.94 22.3214
17.592840000000002 3.92 2.94 22.3214
17.592840000000002 3.9 2.94 22.3214
15.15888 3.84 2.94 18.2648
15.15888 3.82 2.94 18.2648
12.23748 3.76 2.94 13.3958
28.29636 3.46 2.94 40.1606
15.15888 3.28 2.94 18.2648
13.4736 3.24 2.94 15.456
13.4736 3.2 2.94 15.456
17.592840000000002 3.12 2.94 22.3214
15.15888 3.1 2.94 18.2648
17.592840000000002 2.58 2.94 22.3214
15.15888 2.22 2.94 18.2648
21.41664 2.08 2.94 28.6944
21.41664 1.02 2.94 28.6944
17.592840000000002 0.96 2.94 22.3214
15.15888 0.78 2.94 18.2648
21.41664 -1.18 2.94 28.6944
21.41664 -1.2 2.94 28.6944
44.33376 -1.9 2.94 66.8896
21.41664 -1.96 2.94 28.6944
21.41664 -2.04 2.94 28.6944
28.29636 -2.76 2.94 40.1606
21.41664 -3.14 2.94 28.6944
21.41664 -3.16 2.94 28.6944
28.29636 -3.36 2.94 40.1606
28.29636 -3.38 2.94 40.1606
28.29636 -3.42 2.94 40.1606
28.29636 -3.46 2.94 40.1606
28.29636 -3.76 2.94 40.1606
28.29636 -3.86 2.94 40.1606
28.29636 -4.14 2.94 40.1606
124.19999999999999 -4.5 2.94 200.0
44.33376 -4.62 2.94 66.8896
44.33376 -4.64 2.94 66.8896
28.29636 -4.72 2.94 40.1606
28.29636 -4.74 2.94 40.1606
28.29636 -4.76 2.94 40.1606
28.29636 -4.88 2.94 40.1606
21.41664 5.7 2.92 28.6944
21.41664 5.66 2.92 28.6944
21.41664 5.56 2.92 28.6944
15.15888 4.62 2.92 18.2648
15.15888 4.6 2.92 18.2648
12.23748 4.54 2.92 13.3958
12.23748 4.52 2.92 13.3958
10.54584 4.44 2.92 10.5764
13.4736 4.18 2.92 15.456
13.4736 4.08 2.92 15.456
13.4736 4.06 2.92 15.456
13.4736 4.04 2.92 15.456
17.592840000000002 3.92 2.92 22.3214
17.592840000000002 3.9 2.92 22.3214
15.15888 3.84 2.92 18.2648
15.15888 3.82 2.92 18.2648
28.29636 3.46 2.92 40.1606
13.4736 3.44 2.92 15.456
17.592840000000002 3.28 2.92 22.3214
13.4736 3.24 2.92 15.456
17.592840000000002 2.66 2.92 22.3214
15.15888 2.64 2.92 18.2648
17.592840000000002 2.58 2.92 22.3214
15.15888 2.32 2.92 18.2648
15.15888 2.24 2.92 18.2648
15.15888 2.22 2.92 18.2648
21.41664 1.02 2.92 28.6944
17.592840000000002 0.96 2.92 22.3214
15.15888 0.78 2.92 18.2648
21.41664 -1.18 2.92 28.6944
21.41664 -1.2 2.92 28.6944
44.33376 -1.9 2.92 66.8896
21.41664 -1.96 2.92 28.6944
21.41664 -2.04 2.92 28.6944
28.29636 -2.64 2.92 40.1606
28.29636 -2.68 2.92 40.1606
21.41664 -3.16 2.92 28.6944
28.29636 -3.46 2.92 40.1606
28.29636 -3.76 2.92 40.1606
28.29636 -3.86 2.92 40.1606
28.29636 -4.14 2.92 40.1606
28.29636 -4.2 2.92 40.1606
124.19999999999999 -4.54 2.92 200.0
124.19999999999999 -4.56 2.92 200.0
28.29636 -4.68 2.92 40.1606
28.29636 -4.76 2.92 40.1606
28.29636 -4.78 2.92 40.1606
28.29636 -4.8 2.92 40.1606
21.41664 5.66 2.9 28.6944
21.41664 5.58 2.9 28.6944
21.41664 5.44 2.9 28.6944
21.41664 5.42 2.9 28.6944
28.29636 4.78 2.9 40.1606
15.15888 4.58 2.9 18.2648
12.23748 4.52 2.9 13.3958
12.23748 4.5 2.9 13.3958
10.54584 4.44 2.9 10.5764
10.54584 4.42 2.9 10.5764
13.4736 4.22 2.9 15.456
13.4736 4.14 2.9 15.456
13.4736 4.12 2.9 15.456
13.4736 4.1 2.9 15.456
13.4736 4.08 2.9 15.456
17.592840000000002 3.98 2.9 22.3214
15.15888 3.84 2.9 18.2648
13.4736 3.4 2.9 15.456
13.4736 3.38 2.9 15.456
17.592840000000002 3.32 2.9 22.3214
17.592840000000002 3.16 2.9 22.3214
17.592840000000002 2.7 2.9 22.3214
17.592840000000002 2.68 2.9 22.3214
15.15888 2.64 2.9 18.2648
13.4736 2.34 2.9 15.456
13.4736 2.32 2.9 15.456
21.41664 1.02 2.9 28.6944
17.592840000000002 0.96 2.9 22.3214
15.15888 0.9 2.9 18.2648
15.15888 0.78 2.9 18.2648
44.33376 -1.08 2.9 66.8896
21.41664 -1.2 2.9 28.6944
44.33376 -1.9 2.9 66.8896
21.41664 -1.96 2.9 28.6944
21.41664 -2.04 2.9 28.6944
28.29636 -2.64 2.9 40.1606
28.29636 -3.1 2.9 40.1606
28.29636 -3.14 2.9 40.1606
21.41664 -3.16 2.9 28.6944
28.29636 -3.76 2.9 40.1606
28.29636 -3.86 2.9 40.1606
28.29636 -4.32 2.9 40.1606
124.19999999999999 -4.58 2.9 200.0
124.19999999999999 -4.6 2.9 200.0
44.33376 -4.72 2.9 66.8896
28.29636 -4.78 2.9 40.1606
28.29636 -4.8 2.9 40.1606
28.29636 -4.82 2.9 40.1606
28.29636 -4.84 2.9 40.1606
28.29636 -4.94 2.9 40.1606
21.41664 -4.96 2.9 28.6944
15.15888 5.82 2.88 18.2648
21.41664 5.66 2.88 28.6944
21.41664 5.58 2.88 28.6944
21.41664 5.44 2.88 28.6944
21.41664 5.38 2.88 28.6944
21.41664 5.26 2.88 28.6944
13.4736 4.56 2.88 15.456
13.4736 4.54 2.88 15.456
12.23748 4.5 2.88 13.3958
10.54584 4.42 2.88 10.5764
12.23748 4.28 2.88 13.3958
13.4736 4.18 2.88 15.456
13.4736 4.16 2.88 15.456
13.4736 4.14 2.88 15.456
17.592840000000002 3.86 2.88 22.3214
17.592840000000002 3.46 2.88 22.3214
13.4736 3.4 2.88 15.456
13.4736 3.38 2.88 15.456
17.592840000000002 3.3 2.88 22.3214
13.4736 2.76 2.88 15.456
17.592840000000002 2.7 2.88 22.3214
13.4736 2.5 2.88 15.456
13.4736 2.34 2.88 15.456
17.592840000000002 0.96 2.88 22.3214
44.33376 -1.9 2.88 66.8896
28.29636 -1.96 2.88 40.1606
28.29636 -2.64 2.88 40.1606
28.29636 -3.1 2.88 40.1606
28.29636 -3.14 2.88 40.1606
21.41664 -3.16 2.88 28.6944
28.29636 -3.56 2.88 40.1606
28.29636 -3.76 2.88 40.1606
28.29636 -3.86 2.88 40.1606
28.29636 -4.32 2.88 40.1606
124.19999999999999 -4.64 2.88 200.0
28.29636 -4.76 2.88 40.1606
28.29636 -4.84 2.88 40.1606
28.29636 -4.86 2.88 40.1606
15.15888 5.82 2.86 18.2648
15.15888 5.78 2.86 18.2648
21.41664 5.68 2.86 28.6944
21.41664 5.66 2.86 28.6944
21.41664 5.58 2.86 28.6944
21.41664 5.54 2.86 28.6944
12.23748 4.9 2.86 13.3958
12.23748 4.48 2.86 13.3958
12.23748 4.3 2.86 13.3958
12.23748 4.28 2.86 13.3958
13.4736 4.2 2.86 15.456
13.4736 4.18 2.86 15.456
21.41664 3.84 2.86 28.6944
12.23748 3.76 2.86 13.3958
15.15888 3.54 2.86 18.2648
13.4736 3.44 2.86 15.456
13.4736 3.4 2.86 15.456
13.4736 3.38 2.86 15.456
17.592840000000002 3.28 2.86 22.3214
13.4736 2.78 2.86 15.456
17.592840000000002 2.7 2.86 22.3214
15.15888 2.52 2.86 18.2648
15.15888 2.4 2.86 18.2648
15.15888 2.36 2.86 18.2648
21.41664 1.02 2.86 28.6944
17.592840000000002 0.96 2.86 22.3214
12.23748 -1.7 2.86 13.3958
44.33376 -1.9 2.86 66.8896
21.41664 -1.96 2.86 28.6944
28.29636 -2.3 2.86 40.1606
28.29636 -3.1 2.86 40.1606
21.41664 -3.16 2.86 28.6944
28.29636 -3.56 2.86 40.1606
28.29636 -3.86 2.86 40.1606
28.29636 -4.34 2.86 40.1606
124.19999999999999 -4.68 2.86 200.0
124.19999999999999 -4.7 2.86 200.0
44.33376 -4.8 2.86 66.8896
28.29636 -4.88 2.86 40.1606
28.29636 -4.9 2.86 40.1606
28.29636 -4.92 2.86 40.1606
21.41664 -5.0 2.86 28.6944
21.41664 -5.02 2.86 28.6944
21.41664 -5.04 2.86 28.6944
13.4736 5.92 2.84 15.456
13.4736 5.88 2.84 15.456
13.4736 5.76 2.84 15.456
21.41664 5.68 2.84 28.6944
21.41664 5.6 2.84 28.6944
12.23748 4.9 2.84 13.3958
13.4736 4.8 2.84 15.456
13.4736 4.54 2.84 15.456
13.4736 4.52 2.84 15.456
12.23748 4.48 2.84 13.3958
11.29218 4.4 2.84 11.8203
11.29218 4.38 2.84 11.8203
13.4736 4.28 2.84 15.456
13.4736 4.22 2.84 15.456
13.4736 4.2 2.84 15.456
124.19999999999999 3.72 2.84 200.0
124.19999999999999 3.7 2.84 200.0
28.29636 3.58 2.84 40.1606
17.592840000000002 3.48 2.84 22.3214
13.4736 3.4 2.84 15.456
13.4736 3.38 2.84 15.456
17.592840000000002 3.32 2.84 22.3214
17.592840000000002 3.28 2.84 22.3214
21.41664 3.2 2.84 28.6944
13.4736 3.02 2.84 15.456
17.592840000000002 2.74 2.84 22.3214
17.592840000000002 2.68 2.84 22.3214
15.15888 2.48 2.84 18.2648
15.15888 2.4 2.84 18.2648
44.33376 2.14 2.84 66.8896
17.592840000000002 0.96 2.84 22.3214
21.41664 -0.4 2.84 28.6944
21.41664 -1.42 2.84 28.6944
12.23748 -1.7 2.84 13.3958
28.29636 -1.92 2.84 40.1606
21.41664 -1.96 2.84 28.6944
28.29636 -2.26 2.84 40.1606
28.29636 -3.1 2.84 40.1606
28.29636 -3.14 2.84 40.1606
21.41664 -3.16 2.84 28.6944
28.29636 -4.36 2.84 40.1606
124.19999999999999 -4.72 2.84 200.0
44.33376 -4.82 2.84 66.8896
44.33376 -4.84 2.84 66.8896
44.33376 -4.86 2.84 66.8896
28.29636 -4.92 2.84 40.1606
28.29636 -4.94 2.84 40.1606
21.41664 -5.1 2.84 28.6944
15.15888 5.82 2.82 18.2648
21.41664 5.72 2.82 28.6944
21.41664 5.68 2.82 28.6944
21.41664 5.6 2.82 28.6944
12.23748 4.94 2.82 13.3958
12.23748 4.92 2.82 13.3958
17.592840000000002 4.88 2.82 22.3214
15.15888 4.54 2.82 18.2648
13.4736 4.5 2.82 15.456
12.23748 4.38 2.82 13.3958
13.4736 4.26 2.82 15.456
13.4736 4.24 2.82 15.456
12.23748 3.8 2.82 13.3958
44.33376 3.64 2.82 66.8896
44.33376 3.62 2.82 66.8896
17.592840000000002 3.5 2.82 22.3214
17.592840000000002 3.48 2.82 22.3214
17.592840000000002 3.46 2.82 22.3214
13.4736 3.38 2.82 15.456
21.41664 3.3 2.82 28.6944
21.41664 3.2 2.82 28.6944
21.41664 3.16 2.82 28.6944
15.15888 2.5 2.82 18.2648
13.4736 2.36 2.82 15.456
17.592840000000002 0.96 2.82 22.3214
21.41664 -1.42 2.82 28.6944
28.29636 -1.92 2.82 40.1606
21.41664 -1.98 2.82 28.6944
28.29636 -3.1 2.82 40.1606
21.41664 -3.16 2.82 28.6944
28.29636 -4.02 2.82 40.1606
28.29636 -4.04 2.82 40.1606
28.29636 -4.38 2.82 40.1606
124.19999999999999 -4.76 2.82 200.0
44.33376 -4.86 2.82 66.8896
44.33376 -4.88 2.82 66.8896
28.29636 -4.96 2.82 40.1606
28.29636 -4.98 2.82 40.1606
28.29636 -5.0 2.82 40.1606
28.29636 -5.1 2.82 40.1606
13.4736 5.88 2.8 15.456
15.15888 5.82 2.8 18.2648
21.41664 5.62 2.8 28.6944
21.41664 5.36 2.8 28.6944
21.41664 4.64 2.8 28.6944
13.4736 4.34 2.8 15.456
13.4736 4.28 2.8 15.456
13.4736 4.26 2.8 15.456
15.15888 3.72 2.8 18.2648
17.592840000000002 3.5 2.8 22.3214
17.592840000000002 3.46 2.8 22.3214
17.592840000000002 3.44 2.8 22.3214
21.41664 3.2 2.8 28.6944
21.41664 3.16 2.8 28.6944
15.15888 2.52 2.8 18.2648
15.15888 2.5 2.8 18.2648
17.592840000000002 0.96 2.8 22.3214
21.41664 -1.42 2.8 28.6944
13.4736 -1.64 2.8 15.456
28.29636 -1.92 2.8 40.1606
21.41664 -1.98 2.8 28.6944
28.29636 -3.1 2.8 40.1606
21.41664 -3.16 2.8 28.6944
28.29636 -4.08 2.8 40.1606
28.29636 -4.1 2.8 40.1606
28.29636 -4.38 2.8 40.1606
44.33376 -4.82 2.8 66.8896
44.33376 -4.92 2.8 66.8896
44.33376 -4.94 2.8 66.8896
28.29636 -5.0 2.8 40.1606
28.29636 -5.02 2.8 40.1606
28.29636 -5.04 2.8 40.1606
13.4736 5.92 2.78 15.456
13.4736 5.88 2.78 15.456
21.41664 5.44 2.78 28.6944
21.41664 5.38 2.78 28.6944
21.41664 5.36 2.78 28.6944
28.29636 4.58 2.78 40.1606
17.592840000000002 4.42 2.78 22.3214
17.592840000000002 4.4 2.78 22.3214
13.4736 4.32 2.78 15.456
13.4736 4.3 2.78 15.456
13.4736 4.28 2.78 15.456
15.15888 3.72 2.78 18.2648
124.19999999999999 3.58 2.78 200.0
13.4736 3.5 2.78 15.456
21.41664 3.44 2.78 28.6944
15.15888 2.94 2.78 18.2648
15.15888 2.54 2.78 18.2648
15.15888 2.52 2.78 18.2648
13.4736 2.4 2.78 15.456
17.592840000000002 0.96 2.78 22.3214
15.15888 0.76 2.78 18.2648
21.41664 -1.42 2.78 28.6944
28.29636 -1.92 2.78 40.1606
21.41664 -1.96 2.78 28.6944
21.41664 -2.64 2.78 28.6944
21.41664 -2.66 2.78 28.6944
28.29636 -3.1 2.78 40.1606
21.41664 -3.16 2.78 28.6944
28.29636 -4.32 2.78 40.1606
28.29636 -4.38 2.78 40.1606
124.19999999999999 -4.84 2.78 200.0
44.33376 -4.94 2.78 66.8896
44.33376 -4.96 2.78 66.8896
28.29636 -5.04 2.78 40.1606
28.29636 -5.06 2.78 40.1606
28.29636 -5.08 2.78 40.1606
21.41664 -5.22 2.78 28.6944
13.4736 5.92 2.76 15.456
15.15888 5.82 2.76 18.2648
21.41664 5.72 2.76 28.6944
21.41664 5.64 2.76 28.6944
21.41664 5.44 2.76 28.6944
21.41664 5.38 2.76 28.6944
124.19999999999999 4.74 2.76 200.0
28.29636 4.58 2.76 40.1606
13.4736 4.5 2.76 15.456
15.15888 4.46 2.76 18.2648
17.592840000000002 4.4 2.76 22.3214
17.592840000000002 4.38 2.76 22.3214
13.4736 4.34 2.76 15.456
13.4736 4.3 2.76 15.456
13.4736 4.26 2.76 15.456
15.15888 3.7 2.76 18.2648
124.19999999999999 3.56 2.76 200.0
13.4736 3.5 2.76 15.456
13.4736 3.3 2.76 15.456
13.4736 3.28 2.76 15.456
28.29636 3.22 2.76 40.1606
13.4736 3.08 2.76 15.456
13.4736 3.06 2.76 15.456
15.15888 3.0 2.76 18.2648
15.15888 2.56 2.76 18.2648
15.15888 2.54 2.76 18.2648
17.592840000000002 0.96 2.76 22.3214
15.15888 0.76 2.76 18.2648
21.41664 -1.7 2.76 28.6944
28.29636 -1.92 2.76 40.1606
21.41664 -1.96 2.76 28.6944
21.41664 -1.98 2.76 28.6944
21.41664 -2.62 2.76 28.6944
21.41664 -2.64 2.76 28.6944
11.29218 -2.92 2.76 11.8203
28.29636 -3.1 2.76 40.1606
28.29636 -3.68 2.76 40.1606
28.29636 -4.22 2.76 40.1606
28.29636 -4.3 2.76 40.1606
28.29636 -4.32 2.76 40.1606
28.29636 -4.38 2.76 40.1606
44.33376 -4.9 2.76 66.8896
44.33376 -4.92 2.76 66.8896
44.33376 -5.0 2.76 66.8896
44.33376 -5.02 2.76 66.8896
28.29636 -5.08 2.76 40.1606
28.29636 -5.1 2.76 40.1606
28.29636 -5.12 2.76 40.1606
13.4736 5.92 2.74 15.456
15.15888 5.86 2.74 18.2648
15.15888 5.84 2.74 18.2648
15.15888 5.82 2.74 18.2648
15.15888 5.8 2.74 18.2648
21.41664 5.72 2.74 28.6944
21.41664 5.66 2.74 28.6944
21.41664 5.64 2.74 28.6944
21.41664 5.54 2.74 28.6944
21.41664 5.44 2.74 28.6944
21.41664 5.4 2.74 28.6944
124.19999999999999 4.68 2.74 200.0
28.29636 4.6 2.74 40.1606
28.29636 4.58 2.74 40.1606
13.4736 4.48 2.74 15.456
13.4736 4.32 2.74 15.456
13.4736 4.3 2.74 15.456
12.23748 3.8 2.74 13.3958
15.15888 3.74 2.74 18.2648
13.4736 3.5 2.74 15.456
13.4736 3.34 2.74 15.456
12.23748 3.32 2.74 13.3958
28.29636 3.24 2.74 40.1606
28.29636 3.22 2.74 40.1606
13.4736 3.08 2.74 15.456
13.4736 3.06 2.74 15.456
17.592840000000002 2.7 2.74 22.3214
15.15888 2.64 2.74 18.2648
21.41664 2.48 2.74 28.6944
15.15888 2.42 2.74 18.2648
17.592840000000002 0.96 2.74 22.3214
15.15888 0.76 2.74 18.2648
21.41664 -0.26 2.74 28.6944
21.41664 -1.68 2.74 28.6944
21.41664 -1.7 2.74 28.6944
28.29636 -1.92 2.74 40.1606
21.41664 -1.96 2.74 28.6944
21.41664 -1.98 2.74 28.6944
44.33376 -2.56 2.74 66.8896
21.41664 -2.62 2.74 28.6944
15.15888 -2.82 2.74 18.2648
28.29636 -3.1 2.74 40.1606
28.29636 -3.68 2.74 40.1606
28.29636 -4.58 2.74 40.1606
44.33376 -5.04 2.74 66.8896
44.33376 -5.06 2.74 66.8896
28.29636 -5.12 2.74 40.1606
28.29636 -5.14 2.74 40.1606
28.29636 -5.16 2.74 40.1606
28.29636 -5.26 2.74 40.1606
21.41664 5.72 2.72 28.6944
21.41664 5.66 2.72 28.6944
21.41664 5.56 2.72 28.6944
21.41664 5.54 2.72 28.6944
21.41664 5.42 2.72 28.6944
21.41664 5.4 2.72 28.6944
124.19999999999999 4.68 2.72 200.0
28.29636 4.6 2.72 40.1606
13.4736 4.32 2.72 15.456
13.4736 3.5 2.72 15.456
13.4736 3.38 2.72 15.456
13.4736 3.34 2.72 15.456
12.23748 3.32 2.72 13.3958
28.29636 3.24 2.72 40.1606
28.29636 3.22 2.72 40.1606
13.4736 3.08 2.72 15.456
17.592840000000002 2.7 2.72 22.3214
21.41664 2.5 2.72 28.6944
21.41664 2.48 2.72 28.6944
15.15888 1.86 2.72 18.2648
17.592840000000002 0.96 2.72 22.3214
15.15888 0.76 2.72 18.2648
124.19999999999999 -1.4 2.72 200.0
21.41664 -1.68 2.72 28.6944
21.41664 -1.7 2.72 28.6944
28.29636 -1.92 2.72 40.1606
44.33376 -2.52 2.72 66.8896
44.33376 -2.56 2.72 66.8896
28.29636 -2.62 2.72 40.1606
28.29636 -2.64 2.72 40.1606
15.15888 -2.82 2.72 18.2648
28.29636 -3.1 2.72 40.1606
21.41664 -3.18 2.72 28.6944
28.29636 -3.68 2.72 40.1606
28.29636 -4.26 2.72 40.1606
28.29636 -4.28 2.72 40.1606
28.29636 -4.6 2.72 40.1606
124.19999999999999 -4.96 2.72 200.0
124.19999999999999 -4.98 2.72 200.0
44.33376 -5.08 2.72 66.8896
44.33376 -5.1 2.72 66.8896
28.29636 -5.16 2.72 40.1606
28.29636 -5.18 2.72 40.1606
28.29636 -5.2 2.72 40.1606
28.29636 -5.22 2.72 40.1606
13.4736 5.88 2.7 15.456
21.41664 5.72 2.7 28.6944
21.41664 5.66 2.7 28.6944
21.41664 5.56 2.7 28.6944
21.41664 5.5 2.7 28.6944
21.41664 5.2 2.7 28.6944
21.41664 5.18 2.7 28.6944
13.4736 4.32 2.7 15.456
12.23748 3.92 2.7 13.3958
13.4736 3.5 2.7 15.456
13.4736 3.4 2.7 15.456
13.4736 3.38 2.7 15.456
13.4736 3.34 2.7 15.456
28.29636 3.22 2.7 40.1606
13.4736 3.12 2.7 15.456
21.41664 2.52 2.7 28.6944
21.41664 2.5 2.7 28.6944
15.15888 1.9 2.7 18.2648
17.592840000000002 0.96 2.7 22.3214
15.15888 0.76 2.7 18.2648
124.19999999999999 -1.4 2.7 200.0
28.29636 -1.62 2.7 40.1606
21.41664 -1.7 2.7 28.6944
44.33376 -2.52 2.7 66.8896
15.15888 -2.82 2.7 18.2648
28.29636 -3.1 2.7 40.1606
21.41664 -3.18 2.7 28.6944
28.29636 -4.28 2.7 40.1606
28.29636 -4.3 2.7 40.1606
28.29636 -4.6 2.7 40.1606
124.19999999999999 -5.02 2.7 200.0
124.19999999999999 -5.04 2.7 200.0
44.33376 -5.12 2.7 66.8896
44.33376 -5.14 2.7 66.8896
28.29636 -5.2 2.7 40.1606
28.29636 -5.22 2.7 40.1606
28.29636 -5.24 2.7 40.1606
13.4736 5.88 2.68 15.456
15.15888 5.8 2.68 18.2648
21.41664 5.72 2.68 28.6944
21.41664 5.66 2.68 28.6944
21.41664 5.58 2.68 28.6944
28.29636 4.54 2.68 40.1606
15.15888 4.38 2.68 18.2648
13.4736 4.32 2.68 15.456
15.15888 4.24 2.68 18.2648
17.592840000000002 3.68 2.68 22.3214
13.4736 3.52 2.68 15.456
13.4736 3.4 2.68 15.456
13.4736 3.38 2.68 15.456
13.4736 3.14 2.68 15.456
21.41664 2.5 2.68 28.6944
15.15888 1.9 2.68 18.2648
17.592840000000002 0.96 2.68 22.3214
15.15888 0.76 2.68 18.2648
21.41664 -0.12 2.68 28.6944
28.29636 -1.58 2.68 40.1606
28.29636 -1.62 2.68 40.1606
21.41664 -1.64 2.68 28.6944
17.592840000000002 -2.44 2.68 22.3214
44.33376 -2.52 2.68 66.8896
13.4736 -2.9 2.68 15.456
28.29636 -3.1 2.68 40.1606
21.41664 -3.18 2.68 28.6944
44.33376 -5.16 2.68 66.8896
44.33376 -5.18 2.68 66.8896
28.29636 -5.24 2.68 40.1606
28.29636 -5.26 2.68 40.1606
28.29636 -5.28 2.68 40.1606
13.4736 5.9 2.66 15.456
