VERSION .7
FIELDS x y z rgb
SIZE 4 4 4 4
TYPE F F F F
COUNT 1 1 1 1
WIDTH 854
HEIGHT 1
VIEWPOINT 0 0 0 1 0 0 0
POINTS 854
DATA ascii
10.744046666666666 -10.2 2.2 5000022.3214
16.666666666666668 -10.433333333333334 2.2 5000200.0
11.338686666666668 -10.666666666666666 2.2 5000040.1606
11.338686666666668 -11.666666666666666 2.2 5000040.1606
11.338686666666668 -12.066666666666666 2.2 5000040.1606
12.229653333333333 -12.433333333333334 2.2 5000066.8896
11.338686666666668 -12.566666666666666 2.2 5000040.1606
10.95648 -12.733333333333333 2.2 5000028.6944
12.229653333333333 -13.0 2.2 5000066.8896
11.338686666666668 -13.133333333333333 2.2 5000040.1606
11.338686666666668 -13.166666666666666 2.2 5000040.1606
12.229653333333333 -14.0 2.2 5000066.8896
11.338686666666668 -14.1 2.2 5000040.1606
12.229653333333333 -15.233333333333333 2.2 5000066.8896
12.229653333333333 -15.266666666666667 2.2 5000066.8896
11.338686666666668 -15.366666666666667 2.2 5000040.1606
12.229653333333333 -15.7 2.2 5000066.8896
11.338686666666668 -15.8 2.2 5000040.1606
12.229653333333333 -16.033333333333335 2.2 5000066.8896
11.338686666666668 -16.166666666666668 2.2 5000040.1606
11.338686666666668 -16.233333333333334 2.2 5000040.1606
12.229653333333333 -16.6 2.2 5000066.8896
10.5152 3.1 2.1666666666666665 5000015.456
10.5152 2.8666666666666667 2.1666666666666665 5000015.456
10.5152 1.8 2.1666666666666665 5000015.456
10.608826666666667 1.0333333333333334 2.1666666666666665 5000018.2648
10.608826666666667 0.5666666666666667 2.1666666666666665 5000018.2648
10.608826666666667 -0.1 2.1666666666666665 5000018.2648
10.608826666666667 -0.13333333333333333 2.1666666666666665 5000018.2648
10.744046666666666 -0.6333333333333333 2.1666666666666665 5000022.3214
10.744046666666666 -0.7 2.1666666666666665 5000022.3214
10.5152 -0.8333333333333334 2.1666666666666665 5000015.456
10.608826666666667 -2.7333333333333334 2.1666666666666665 5000018.2648
10.608826666666667 -4.033333333333333 2.1666666666666665 5000018.2648
10.608826666666667 -4.066666666666666 2.1666666666666665 5000018.2648
10.95648 -5.5 2.1666666666666665 5000028.6944
10.744046666666666 -7.133333333333334 2.1666666666666665 5000022.3214
10.95648 -7.166666666666667 2.1666666666666665 5000028.6944
10.95648 -7.233333333333333 2.1666666666666665 5000028.6944
10.744046666666666 -7.633333333333334 2.1666666666666665 5000022.3214
10.744046666666666 -7.666666666666667 2.1666666666666665 5000022.3214
10.95648 -8.3 2.1666666666666665 5000028.6944
12.229653333333333 -8.866666666666667 2.1666666666666665 5000066.8896
11.338686666666668 -9.133333333333333 2.1666666666666665 5000040.1606
10.95648 -9.233333333333333 2.1666666666666665 5000028.6944
10.744046666666666 -10.2 2.1666666666666665 5000022.3214
12.229653333333333 -10.533333333333333 2.1666666666666665 5000066.8896
11.338686666666668 -10.666666666666666 2.1666666666666665 5000040.1606
11.338686666666668 -11.366666666666667 2.1666666666666665 5000040.1606
11.338686666666668 -12.066666666666666 2.1666666666666665 5000040.1606
11.338686666666668 -12.3 2.1666666666666665 5000040.1606
12.229653333333333 -12.433333333333334 2.1666666666666665 5000066.8896
11.338686666666668 -12.566666666666666 2.1666666666666665 5000040.1606
11.338686666666668 -12.6 2.1666666666666665 5000040.1606
10.95648 -12.733333333333333 2.1666666666666665 5000028.6944
12.229653333333333 -13.0 2.1666666666666665 5000066.8896
12.229653333333333 -14.0 2.1666666666666665 5000066.8896
11.338686666666668 -14.1 2.1666666666666665 5000040.1606
12.229653333333333 -15.233333333333333 2.1666666666666665 5000066.8896
12.229653333333333 -15.266666666666667 2.1666666666666665 5000066.8896
12.229653333333333 -16.033333333333335 2.1666666666666665 5000066.8896
11.338686666666668 -16.133333333333333 2.1666666666666665 5000040.1606
11.338686666666668 -16.166666666666668 2.1666666666666665 5000040.1606
11.338686666666668 -16.233333333333334 2.1666666666666665 5000040.1606
12.229653333333333 -16.466666666666665 2.1666666666666665 5000066.8896
12.229653333333333 -16.566666666666666 2.1666666666666665 5000066.8896
12.229653333333333 -16.6 2.1666666666666665 5000066.8896
11.338686666666668 -16.7 2.1666666666666665 5000040.1606
10.5152 3.1 2.1333333333333333 5000015.456
10.5152 1.4333333333333333 2.1333333333333333 5000015.456
10.608826666666667 0.5 2.1333333333333333 5000018.2648
10.608826666666667 -0.13333333333333333 2.1333333333333333 5000018.2648
10.744046666666666 -0.6333333333333333 2.1333333333333333 5000022.3214
10.608826666666667 -2.7333333333333334 2.1333333333333333 5000018.2648
10.608826666666667 -2.7666666666666666 2.1333333333333333 5000018.2648
10.608826666666667 -4.033333333333333 2.1333333333333333 5000018.2648
12.229653333333333 -6.533333333333333 2.1333333333333333 5000066.8896
10.744046666666666 -6.833333333333333 2.1333333333333333 5000022.3214
10.608826666666667 -6.933333333333334 2.1333333333333333 5000018.2648
10.744046666666666 -7.033333333333333 2.1333333333333333 5000022.3214
16.666666666666668 -7.366666666666666 2.1333333333333333 5000200.0
10.744046666666666 -7.766666666666667 2.1333333333333333 5000022.3214
10.744046666666666 -7.8 2.1333333333333333 5000022.3214
10.95648 -8.3 2.1333333333333333 5000028.6944
10.95648 -9.133333333333333 2.1333333333333333 5000028.6944
10.95648 -9.266666666666667 2.1333333333333333 5000028.6944
16.666666666666668 -10.4 2.1333333333333333 5000200.0
12.229653333333333 -10.533333333333333 2.1333333333333333 5000066.8896
11.338686666666668 -10.666666666666666 2.1333333333333333 5000040.1606
11.338686666666668 -11.366666666666667 2.1333333333333333 5000040.1606
11.338686666666668 -12.066666666666666 2.1333333333333333 5000040.1606
12.229653333333333 -12.433333333333334 2.1333333333333333 5000066.8896
11.338686666666668 -12.566666666666666 2.1333333333333333 5000040.1606
11.338686666666668 -12.666666666666666 2.1333333333333333 5000040.1606
16.666666666666668 -13.833333333333334 2.1333333333333333 5000200.0
12.229653333333333 -14.0 2.1333333333333333 5000066.8896
11.338686666666668 -14.1 2.1333333333333333 5000040.1606
12.229653333333333 -15.633333333333333 2.1333333333333333 5000066.8896
12.229653333333333 -15.7 2.1333333333333333 5000066.8896
11.338686666666668 -15.8 2.1333333333333333 5000040.1606
12.229653333333333 -16.033333333333335 2.1333333333333333 5000066.8896
12.229653333333333 -16.566666666666666 2.1333333333333333 5000066.8896
12.229653333333333 -16.6 2.1333333333333333 5000066.8896
11.338686666666668 -16.7 2.1333333333333333 5000040.1606
10.5152 2.966666666666667 2.1 5000015.456
10.5152 2.7333333333333334 2.1 5000015.456
10.5152 2.7 2.1 5000015.456
10.5152 2.533333333333333 2.1 5000015.456
10.5152 1.2333333333333334 2.1 5000015.456
10.5152 1.2 2.1 5000015.456
10.608826666666667 -0.23333333333333334 2.1 5000018.2648
10.608826666666667 -0.26666666666666666 2.1 5000018.2648
10.744046666666666 -0.6333333333333333 2.1 5000022.3214
10.744046666666666 -0.7 2.1 5000022.3214
10.608826666666667 -2.7666666666666666 2.1 5000018.2648
10.608826666666667 -3.3333333333333335 2.1 5000018.2648
10.608826666666667 -4.033333333333333 2.1 5000018.2648
10.744046666666666 -5.333333333333333 2.1 5000022.3214
10.744046666666666 -5.366666666666666 2.1 5000022.3214
10.744046666666666 -5.433333333333334 2.1 5000022.3214
10.744046666666666 -6.833333333333333 2.1 5000022.3214
10.608826666666667 -6.933333333333334 2.1 5000018.2648
10.744046666666666 -7.0 2.1 5000022.3214
16.666666666666668 -7.366666666666666 2.1 5000200.0
10.744046666666666 -7.766666666666667 2.1 5000022.3214
10.95648 -8.3 2.1 5000028.6944
10.744046666666666 -8.4 2.1 5000022.3214
12.229653333333333 -8.866666666666667 2.1 5000066.8896
11.338686666666668 -8.9 2.1 5000040.1606
11.338686666666668 -8.966666666666667 2.1 5000040.1606
10.95648 -9.133333333333333 2.1 5000028.6944
10.248108 -9.333333333333334 2.1 5000007.44324
12.229653333333333 -10.0 2.1 5000066.8896
12.229653333333333 -10.033333333333333 2.1 5000066.8896
10.744046666666666 -10.2 2.1 5000022.3214
16.666666666666668 -10.4 2.1 5000200.0
12.229653333333333 -10.533333333333333 2.1 5000066.8896
11.338686666666668 -10.666666666666666 2.1 5000040.1606
11.338686666666668 -10.7 2.1 5000040.1606
12.229653333333333 -14.0 2.1 5000066.8896
11.338686666666668 -14.1 2.1 5000040.1606
12.229653333333333 -15.233333333333333 2.1 5000066.8896
12.229653333333333 -15.7 2.1 5000066.8896
11.338686666666668 -15.8 2.1 5000040.1606
12.229653333333333 -16.033333333333335 2.1 5000066.8896
12.229653333333333 -16.433333333333334 2.1 5000066.8896
12.229653333333333 -16.6 2.1 5000066.8896
11.338686666666668 -16.7 2.1 5000040.1606
16.666666666666668 -16.9 2.1 5000200.0
16.666666666666668 -16.933333333333334 2.1 5000200.0
16.666666666666668 -16.966666666666665 2.1 5000200.0
12.229653333333333 -17.0 2.1 5000066.8896
12.229653333333333 -17.033333333333335 2.1 5000066.8896
12.229653333333333 -17.066666666666666 2.1 5000066.8896
11.338686666666668 -17.1 2.1 5000040.1606
10.5152 3.1666666666666665 2.066666666666667 5000015.456
10.5152 2.966666666666667 2.066666666666667 5000015.456
10.5152 2.933333333333333 2.066666666666667 5000015.456
10.5152 2.7 2.066666666666667 5000015.456
10.5152 2.533333333333333 2.066666666666667 5000015.456
10.5152 1.8 2.066666666666667 5000015.456
10.5152 1.7333333333333334 2.066666666666667 5000015.456
10.5152 1.0 2.066666666666667 5000015.456
10.744046666666666 -0.6333333333333333 2.066666666666667 5000022.3214
10.744046666666666 -0.7 2.066666666666667 5000022.3214
10.608826666666667 -2.033333333333333 2.066666666666667 5000018.2648
10.608826666666667 -2.1666666666666665 2.066666666666667 5000018.2648
10.608826666666667 -2.7666666666666666 2.066666666666667 5000018.2648
10.608826666666667 -2.8 2.066666666666667 5000018.2648
10.608826666666667 -4.033333333333333 2.066666666666667 5000018.2648
10.608826666666667 -4.066666666666666 2.066666666666667 5000018.2648
10.744046666666666 -5.333333333333333 2.066666666666667 5000022.3214
10.744046666666666 -5.366666666666666 2.066666666666667 5000022.3214
10.744046666666666 -6.3 2.066666666666667 5000022.3214
10.744046666666666 -6.833333333333333 2.066666666666667 5000022.3214
10.744046666666666 -7.766666666666667 2.066666666666667 5000022.3214
10.95648 -8.3 2.066666666666667 5000028.6944
10.744046666666666 -8.4 2.066666666666667 5000022.3214
11.338686666666668 -8.9 2.066666666666667 5000040.1606
11.338686666666668 -8.966666666666667 2.066666666666667 5000040.1606
10.95648 -9.066666666666666 2.066666666666667 5000028.6944
10.95648 -9.1 2.066666666666667 5000028.6944
10.248108 -9.333333333333334 2.066666666666667 5000007.44324
10.744046666666666 -10.2 2.066666666666667 5000022.3214
12.229653333333333 -10.533333333333333 2.066666666666667 5000066.8896
11.338686666666668 -10.666666666666666 2.066666666666667 5000040.1606
11.338686666666668 -10.7 2.066666666666667 5000040.1606
12.229653333333333 -11.233333333333333 2.066666666666667 5000066.8896
16.666666666666668 -13.766666666666667 2.066666666666667 5000200.0
16.666666666666668 -13.8 2.066666666666667 5000200.0
12.229653333333333 -13.966666666666667 2.066666666666667 5000066.8896
12.229653333333333 -15.233333333333333 2.066666666666667 5000066.8896
11.338686666666668 -15.8 2.066666666666667 5000040.1606
11.338686666666668 -16.133333333333333 2.066666666666667 5000040.1606
12.229653333333333 -16.6 2.066666666666667 5000066.8896
11.338686666666668 -16.7 2.066666666666667 5000040.1606
12.229653333333333 -17.033333333333335 2.066666666666667 5000066.8896
12.229653333333333 -17.066666666666666 2.066666666666667 5000066.8896
11.338686666666668 -17.166666666666668 2.066666666666667 5000040.1606
11.338686666666668 -17.2 2.066666666666667 5000040.1606
11.338686666666668 -17.233333333333334 2.066666666666667 5000040.1606
10.95648 -17.266666666666666 2.066666666666667 5000028.6944
10.95648 -17.333333333333332 2.066666666666667 5000028.6944
10.95648 -17.366666666666667 2.066666666666667 5000028.6944
10.95648 -17.4 2.066666666666667 5000028.6944
10.744046666666666 -17.433333333333334 2.066666666666667 5000022.3214
10.5152 3.1666666666666665 2.033333333333333 5000015.456
10.5152 3.1333333333333333 2.033333333333333 5000015.456
10.5152 2.8666666666666667 2.033333333333333 5000015.456
10.5152 1.8 2.033333333333333 5000015.456
10.5152 1.7666666666666666 2.033333333333333 5000015.456
10.5152 1.6666666666666667 2.033333333333333 5000015.456
10.5152 1.0 2.033333333333333 5000015.456
10.5152 0.6666666666666666 2.033333333333333 5000015.456
10.608826666666667 -0.4666666666666667 2.033333333333333 5000018.2648
10.5152 -0.5 2.033333333333333 5000015.456
10.5152 -0.5666666666666667 2.033333333333333 5000015.456
10.608826666666667 -0.6333333333333333 2.033333333333333 5000018.2648
10.608826666666667 -2.0 2.033333333333333 5000018.2648
10.608826666666667 -2.033333333333333 2.033333333333333 5000018.2648
10.608826666666667 -2.1666666666666665 2.033333333333333 5000018.2648
10.608826666666667 -2.2 2.033333333333333 5000018.2648
10.608826666666667 -2.7666666666666666 2.033333333333333 5000018.2648
10.608826666666667 -2.8 2.033333333333333 5000018.2648
10.608826666666667 -3.533333333333333 2.033333333333333 5000018.2648
11.338686666666668 -3.7666666666666666 2.033333333333333 5000040.1606
10.95648 -3.9 2.033333333333333 5000028.6944
10.608826666666667 -4.033333333333333 2.033333333333333 5000018.2648
10.744046666666666 -5.366666666666666 2.033333333333333 5000022.3214
10.744046666666666 -6.6 2.033333333333333 5000022.3214
16.666666666666668 -7.333333333333333 2.033333333333333 5000200.0
10.744046666666666 -7.766666666666667 2.033333333333333 5000022.3214
10.95648 -8.3 2.033333333333333 5000028.6944
11.338686666666668 -8.933333333333334 2.033333333333333 5000040.1606
10.95648 -9.066666666666666 2.033333333333333 5000028.6944
10.95648 -9.1 2.033333333333333 5000028.6944
12.229653333333333 -9.966666666666667 2.033333333333333 5000066.8896
12.229653333333333 -11.233333333333333 2.033333333333333 5000066.8896
12.229653333333333 -11.266666666666667 2.033333333333333 5000066.8896
11.338686666666668 -11.366666666666667 2.033333333333333 5000040.1606
11.338686666666668 -11.533333333333333 2.033333333333333 5000040.1606
11.338686666666668 -12.066666666666666 2.033333333333333 5000040.1606
11.338686666666668 -12.3 2.033333333333333 5000040.1606
11.338686666666668 -12.366666666666667 2.033333333333333 5000040.1606
11.338686666666668 -12.533333333333333 2.033333333333333 5000040.1606
12.229653333333333 -13.9 2.033333333333333 5000066.8896
12.229653333333333 -13.933333333333334 2.033333333333333 5000066.8896
12.229653333333333 -14.0 2.033333333333333 5000066.8896
12.229653333333333 -15.233333333333333 2.033333333333333 5000066.8896
11.338686666666668 -15.4 2.033333333333333 5000040.1606
12.229653333333333 -16.566666666666666 2.033333333333333 5000066.8896
12.229653333333333 -16.6 2.033333333333333 5000066.8896
11.338686666666668 -16.7 2.033333333333333 5000040.1606
11.338686666666668 -17.166666666666668 2.033333333333333 5000040.1606
11.338686666666668 -17.2 2.033333333333333 5000040.1606
10.95648 -17.3 2.033333333333333 5000028.6944
10.95648 -17.333333333333332 2.033333333333333 5000028.6944
10.95648 -17.366666666666667 2.033333333333333 5000028.6944
10.95648 -17.4 2.033333333333333 5000028.6944
10.744046666666666 -17.433333333333334 2.033333333333333 5000022.3214
10.5152 3.1333333333333333 2.0 5000015.456
10.5152 2.533333333333333 2.0 5000015.456
10.5152 2.1 2.0 5000015.456
10.5152 1.7666666666666666 2.0 5000015.456
10.5152 1.7333333333333334 2.0 5000015.456
10.446526666666667 1.6666666666666667 2.0 5000013.3958
10.446526666666667 1.6 2.0 5000013.3958
10.5152 1.5 2.0 5000015.456
10.5152 0.9333333333333333 2.0 5000015.456
10.5152 0.9 2.0 5000015.456
10.5152 0.7333333333333333 2.0 5000015.456
10.5152 0.5666666666666667 2.0 5000015.456
10.608826666666667 -0.4666666666666667 2.0 5000018.2648
10.5152 -0.5 2.0 5000015.456
10.5152 -0.5666666666666667 2.0 5000015.456
10.608826666666667 -0.6333333333333333 2.0 5000018.2648
10.744046666666666 -0.7 2.0 5000022.3214
10.608826666666667 -1.5333333333333334 2.0 5000018.2648
10.608826666666667 -2.0 2.0 5000018.2648
10.608826666666667 -2.2 2.0 5000018.2648
10.608826666666667 -2.466666666666667 2.0 5000018.2648
10.608826666666667 -2.7666666666666666 2.0 5000018.2648
10.608826666666667 -2.8 2.0 5000018.2648
10.608826666666667 -3.5 2.0 5000018.2648
10.608826666666667 -3.533333333333333 2.0 5000018.2648
11.338686666666668 -3.7 2.0 5000040.1606
10.95648 -3.8333333333333335 2.0 5000028.6944
10.744046666666666 -3.9 2.0 5000022.3214
10.608826666666667 -4.033333333333333 2.0 5000018.2648
10.744046666666666 -5.366666666666666 2.0 5000022.3214
10.744046666666666 -5.4 2.0 5000022.3214
10.744046666666666 -5.633333333333334 2.0 5000022.3214
11.338686666666668 -6.4 2.0 5000040.1606
10.744046666666666 -6.566666666666666 2.0 5000022.3214
10.744046666666666 -7.2 2.0 5000022.3214
10.744046666666666 -8.3 2.0 5000022.3214
10.95648 -9.066666666666666 2.0 5000028.6944
10.95648 -9.166666666666666 2.0 5000028.6944
10.95648 -9.2 2.0 5000028.6944
12.229653333333333 -11.233333333333333 2.0 5000066.8896
11.338686666666668 -11.533333333333333 2.0 5000040.1606
11.338686666666668 -11.8 2.0 5000040.1606
11.338686666666668 -12.033333333333333 2.0 5000040.1606
11.338686666666668 -12.066666666666666 2.0 5000040.1606
11.338686666666668 -12.3 2.0 5000040.1606
11.338686666666668 -12.366666666666667 2.0 5000040.1606
16.666666666666668 -16.233333333333334 2.0 5000200.0
16.666666666666668 -16.266666666666666 2.0 5000200.0
16.666666666666668 -16.3 2.0 5000200.0
16.666666666666668 -16.333333333333332 2.0 5000200.0
16.666666666666668 -16.366666666666667 2.0 5000200.0
16.666666666666668 -16.4 2.0 5000200.0
16.666666666666668 -16.433333333333334 2.0 5000200.0
12.229653333333333 -16.566666666666666 2.0 5000066.8896
12.229653333333333 -16.6 2.0 5000066.8896
11.338686666666668 -16.7 2.0 5000040.1606
10.95648 -16.8 2.0 5000028.6944
11.338686666666668 -17.2 2.0 5000040.1606
10.5152 3.1333333333333333 1.9666666666666666 5000015.456
10.5152 2.7333333333333334 1.9666666666666666 5000015.456
10.5152 2.1333333333333333 1.9666666666666666 5000015.456
10.5152 2.1 1.9666666666666666 5000015.456
10.5152 1.7333333333333334 1.9666666666666666 5000015.456
10.5152 1.6666666666666667 1.9666666666666666 5000015.456
10.446526666666667 1.6 1.9666666666666666 5000013.3958
10.5152 1.5 1.9666666666666666 5000015.456
10.5152 0.9 1.9666666666666666 5000015.456
10.5152 0.43333333333333335 1.9666666666666666 5000015.456
10.5152 0.4 1.9666666666666666 5000015.456
10.5152 0.2 1.9666666666666666 5000015.456
10.608826666666667 -0.26666666666666666 1.9666666666666666 5000018.2648
10.446526666666667 -0.5666666666666667 1.9666666666666666 5000013.3958
10.608826666666667 -0.9333333333333333 1.9666666666666666 5000018.2648
10.608826666666667 -1.5333333333333334 1.9666666666666666 5000018.2648
10.608826666666667 -2.0 1.9666666666666666 5000018.2648
10.608826666666667 -2.2 1.9666666666666666 5000018.2648
10.608826666666667 -2.7666666666666666 1.9666666666666666 5000018.2648
10.608826666666667 -2.8 1.9666666666666666 5000018.2648
10.608826666666667 -3.5 1.9666666666666666 5000018.2648
10.608826666666667 -3.533333333333333 1.9666666666666666 5000018.2648
11.338686666666668 -3.7 1.9666666666666666 5000040.1606
10.608826666666667 -3.8666666666666667 1.9666666666666666 5000018.2648
10.608826666666667 -4.033333333333333 1.9666666666666666 5000018.2648
10.744046666666666 -5.633333333333334 1.9666666666666666 5000022.3214
10.744046666666666 -6.566666666666666 1.9666666666666666 5000022.3214
12.229653333333333 -6.9 1.9666666666666666 5000066.8896
11.338686666666668 -7.0 1.9666666666666666 5000040.1606
11.338686666666668 -7.033333333333333 1.9666666666666666 5000040.1606
10.95648 -7.1 1.9666666666666666 5000028.6944
10.744046666666666 -7.166666666666667 1.9666666666666666 5000022.3214
10.744046666666666 -7.2 1.9666666666666666 5000022.3214
16.666666666666668 -7.6 1.9666666666666666 5000200.0
12.229653333333333 -7.933333333333334 1.9666666666666666 5000066.8896
10.95648 -9.066666666666666 1.9666666666666666 5000028.6944
11.338686666666668 -11.8 1.9666666666666666 5000040.1606
11.338686666666668 -12.233333333333333 1.9666666666666666 5000040.1606
11.338686666666668 -12.3 1.9666666666666666 5000040.1606
11.338686666666668 -12.366666666666667 1.9666666666666666 5000040.1606
10.744046666666666 -12.666666666666666 1.9666666666666666 5000022.3214
16.666666666666668 -16.066666666666666 1.9666666666666666 5000200.0
16.666666666666668 -16.1 1.9666666666666666 5000200.0
16.666666666666668 -16.133333333333333 1.9666666666666666 5000200.0
16.666666666666668 -16.166666666666668 1.9666666666666666 5000200.0
16.666666666666668 -16.2 1.9666666666666666 5000200.0
16.666666666666668 -16.233333333333334 1.9666666666666666 5000200.0
16.666666666666668 -16.266666666666666 1.9666666666666666 5000200.0
16.666666666666668 -16.3 1.9666666666666666 5000200.0
16.666666666666668 -16.4 1.9666666666666666 5000200.0
16.666666666666668 -16.433333333333334 1.9666666666666666 5000200.0
12.229653333333333 -16.533333333333335 1.9666666666666666 5000066.8896
12.229653333333333 -16.566666666666666 1.9666666666666666 5000066.8896
12.229653333333333 -16.6 1.9666666666666666 5000066.8896
11.338686666666668 -16.666666666666668 1.9666666666666666 5000040.1606
11.338686666666668 -16.7 1.9666666666666666 5000040.1606
11.338686666666668 -16.766666666666666 1.9666666666666666 5000040.1606
10.95648 -16.8 1.9666666666666666 5000028.6944
10.744046666666666 -16.9 1.9666666666666666 5000022.3214
10.5152 2.966666666666667 1.9333333333333333 5000015.456
10.5152 2.3666666666666667 1.9333333333333333 5000015.456
10.318979333333333 1.9666666666666666 1.9333333333333333 5000009.56938
10.5152 1.6666666666666667 1.9333333333333333 5000015.456
10.5152 0.8 1.9333333333333333 5000015.456
10.5152 0.43333333333333335 1.9333333333333333 5000015.456
10.5152 0.4 1.9333333333333333 5000015.456
10.5152 0.26666666666666666 1.9333333333333333 5000015.456
10.5152 0.23333333333333334 1.9333333333333333 5000015.456
10.5152 0.2 1.9333333333333333 5000015.456
10.608826666666667 -0.3333333333333333 1.9333333333333333 5000018.2648
10.446526666666667 -0.6 1.9333333333333333 5000013.3958
10.608826666666667 -0.9333333333333333 1.9333333333333333 5000018.2648
10.608826666666667 -1.5666666666666667 1.9333333333333333 5000018.2648
10.608826666666667 -1.6666666666666667 1.9333333333333333 5000018.2648
10.608826666666667 -2.0 1.9333333333333333 5000018.2648
10.608826666666667 -2.2 1.9333333333333333 5000018.2648
10.608826666666667 -2.8 1.9333333333333333 5000018.2648
10.608826666666667 -3.5 1.9333333333333333 5000018.2648
10.608826666666667 -3.533333333333333 1.9333333333333333 5000018.2648
10.608826666666667 -3.8666666666666667 1.9333333333333333 5000018.2648
10.608826666666667 -3.933333333333333 1.9333333333333333 5000018.2648
10.608826666666667 -4.033333333333333 1.9333333333333333 5000018.2648
10.744046666666666 -5.333333333333333 1.9333333333333333 5000022.3214
11.338686666666668 -6.4 1.9333333333333333 5000040.1606
12.229653333333333 -6.7 1.9333333333333333 5000066.8896
10.95648 -6.9 1.9333333333333333 5000028.6944
11.338686666666668 -7.0 1.9333333333333333 5000040.1606
10.95648 -7.1 1.9333333333333333 5000028.6944
10.744046666666666 -7.2 1.9333333333333333 5000022.3214
10.608826666666667 -7.366666666666666 1.9333333333333333 5000018.2648
16.666666666666668 -7.566666666666666 1.9333333333333333 5000200.0
12.229653333333333 -7.7 1.9333333333333333 5000066.8896
16.666666666666668 -7.833333333333333 1.9333333333333333 5000200.0
12.229653333333333 -7.933333333333334 1.9333333333333333 5000066.8896
12.229653333333333 -7.966666666666667 1.9333333333333333 5000066.8896
11.338686666666668 -8.066666666666666 1.9333333333333333 5000040.1606
10.95648 -8.2 1.9333333333333333 5000028.6944
10.744046666666666 -8.3 1.9333333333333333 5000022.3214
11.338686666666668 -12.3 1.9333333333333333 5000040.1606
11.338686666666668 -12.366666666666667 1.9333333333333333 5000040.1606
11.338686666666668 -12.4 1.9333333333333333 5000040.1606
11.338686666666668 -12.433333333333334 1.9333333333333333 5000040.1606
12.229653333333333 -15.966666666666667 1.9333333333333333 5000066.8896
16.666666666666668 -16.433333333333334 1.9333333333333333 5000200.0
10.5152 3.066666666666667 1.9 5000015.456
10.5152 2.8333333333333335 1.9 5000015.456
10.5152 2.8 1.9 5000015.456
10.5152 2.466666666666667 1.9 5000015.456
10.5152 2.3666666666666667 1.9 5000015.456
10.5152 1.7333333333333334 1.9 5000015.456
10.5152 1.6666666666666667 1.9 5000015.456
10.5152 1.0333333333333334 1.9 5000015.456
10.5152 0.8 1.9 5000015.456
10.5152 0.26666666666666666 1.9 5000015.456
10.608826666666667 -0.16666666666666666 1.9 5000018.2648
10.608826666666667 -0.36666666666666664 1.9 5000018.2648
10.608826666666667 -0.4 1.9 5000018.2648
10.446526666666667 -0.6 1.9 5000013.3958
10.5152 -1.2666666666666666 1.9 5000015.456
10.608826666666667 -1.5666666666666667 1.9 5000018.2648
10.608826666666667 -1.6666666666666667 1.9 5000018.2648
10.608826666666667 -1.7 1.9 5000018.2648
10.608826666666667 -2.3 1.9 5000018.2648
10.608826666666667 -2.3333333333333335 1.9 5000018.2648
10.744046666666666 -2.7 1.9 5000022.3214
10.608826666666667 -2.8 1.9 5000018.2648
10.608826666666667 -3.5 1.9 5000018.2648
10.608826666666667 -3.533333333333333 1.9 5000018.2648
10.608826666666667 -3.8666666666666667 1.9 5000018.2648
10.608826666666667 -4.033333333333333 1.9 5000018.2648
10.95648 -7.1 1.9 5000028.6944
10.744046666666666 -7.2 1.9 5000022.3214
10.608826666666667 -7.333333333333333 1.9 5000018.2648
16.666666666666668 -7.466666666666667 1.9 5000200.0
16.666666666666668 -7.8 1.9 5000200.0
16.666666666666668 -7.833333333333333 1.9 5000200.0
10.95648 -8.133333333333333 1.9 5000028.6944
10.95648 -8.2 1.9 5000028.6944
10.744046666666666 -8.3 1.9 5000022.3214
10.5152 -8.5 1.9 5000015.456
16.666666666666668 -8.8 1.9 5000200.0
10.248108 -9.266666666666667 1.9 5000007.44324
11.338686666666668 -12.3 1.9 5000040.1606
11.338686666666668 -12.366666666666667 1.9 5000040.1606
11.338686666666668 -12.433333333333334 1.9 5000040.1606
16.666666666666668 -15.233333333333333 1.9 5000200.0
12.229653333333333 -15.333333333333334 1.9 5000066.8896
12.229653333333333 -15.366666666666667 1.9 5000066.8896
11.338686666666668 -15.433333333333334 1.9 5000040.1606
11.338686666666668 -15.466666666666667 1.9 5000040.1606
12.229653333333333 -15.933333333333334 1.9 5000066.8896
12.229653333333333 -15.966666666666667 1.9 5000066.8896
11.338686666666668 -16.066666666666666 1.9 5000040.1606
16.666666666666668 -16.1 1.9 5000200.0
16.666666666666668 -16.233333333333334 1.9 5000200.0
10.5152 2.6333333333333333 1.8666666666666667 5000015.456
10.5152 2.566666666666667 1.8666666666666667 5000015.456
10.5152 2.533333333333333 1.8666666666666667 5000015.456
10.446526666666667 1.7333333333333334 1.8666666666666667 5000013.3958
10.5152 1.7 1.8666666666666667 5000015.456
10.5152 1.6666666666666667 1.8666666666666667 5000015.456
10.5152 1.6333333333333333 1.8666666666666667 5000015.456
10.5152 0.6 1.8666666666666667 5000015.456
10.608826666666667 -0.13333333333333333 1.8666666666666667 5000018.2648
10.608826666666667 -0.4 1.8666666666666667 5000018.2648
10.446526666666667 -0.5666666666666667 1.8666666666666667 5000013.3958
10.446526666666667 -0.6 1.8666666666666667 5000013.3958
10.5152 -1.2666666666666666 1.8666666666666667 5000015.456
10.608826666666667 -1.6 1.8666666666666667 5000018.2648
10.608826666666667 -1.7 1.8666666666666667 5000018.2648
10.608826666666667 -2.2 1.8666666666666667 5000018.2648
10.608826666666667 -2.3 1.8666666666666667 5000018.2648
10.608826666666667 -2.8 1.8666666666666667 5000018.2648
10.608826666666667 -3.533333333333333 1.8666666666666667 5000018.2648
10.608826666666667 -4.033333333333333 1.8666666666666667 5000018.2648
10.744046666666666 -4.7 1.8666666666666667 5000022.3214
10.744046666666666 -4.733333333333333 1.8666666666666667 5000022.3214
10.744046666666666 -5.033333333333333 1.8666666666666667 5000022.3214
10.744046666666666 -5.233333333333333 1.8666666666666667 5000022.3214
10.95648 -6.966666666666667 1.8666666666666667 5000028.6944
10.744046666666666 -7.166666666666667 1.8666666666666667 5000022.3214
10.608826666666667 -7.3 1.8666666666666667 5000018.2648
12.229653333333333 -7.4 1.8666666666666667 5000066.8896
16.666666666666668 -7.8 1.8666666666666667 5000200.0
10.95648 -8.133333333333333 1.8666666666666667 5000028.6944
10.95648 -8.2 1.8666666666666667 5000028.6944
10.744046666666666 -8.3 1.8666666666666667 5000022.3214
10.5152 -8.466666666666667 1.8666666666666667 5000015.456
10.5152 -8.5 1.8666666666666667 5000015.456
10.744046666666666 -8.633333333333333 1.8666666666666667 5000022.3214
10.744046666666666 -8.7 1.8666666666666667 5000022.3214
10.744046666666666 -9.133333333333333 1.8666666666666667 5000022.3214
10.744046666666666 -9.166666666666666 1.8666666666666667 5000022.3214
10.248108 -9.266666666666667 1.8666666666666667 5000007.44324
10.95648 -9.866666666666667 1.8666666666666667 5000028.6944
11.338686666666668 -12.3 1.8666666666666667 5000040.1606
11.338686666666668 -12.366666666666667 1.8666666666666667 5000040.1606
10.95648 -12.433333333333334 1.8666666666666667 5000028.6944
12.229653333333333 -15.333333333333334 1.8666666666666667 5000066.8896
11.338686666666668 -15.433333333333334 1.8666666666666667 5000040.1606
11.338686666666668 -15.466666666666667 1.8666666666666667 5000040.1606
11.338686666666668 -15.533333333333333 1.8666666666666667 5000040.1606
12.229653333333333 -15.9 1.8666666666666667 5000066.8896
12.229653333333333 -15.933333333333334 1.8666666666666667 5000066.8896
11.338686666666668 -16.033333333333335 1.8666666666666667 5000040.1606
11.338686666666668 -16.066666666666666 1.8666666666666667 5000040.1606
11.338686666666668 -17.2 1.8666666666666667 5000040.1606
10.5152 2.6333333333333333 1.8333333333333333 5000015.456
10.5152 2.533333333333333 1.8333333333333333 5000015.456
10.5152 1.7333333333333334 1.8333333333333333 5000015.456
10.5152 1.7 1.8333333333333333 5000015.456
10.5152 1.3666666666666667 1.8333333333333333 5000015.456
10.5152 0.5333333333333333 1.8333333333333333 5000015.456
10.5152 0.5 1.8333333333333333 5000015.456
10.608826666666667 -0.43333333333333335 1.8333333333333333 5000018.2648
10.446526666666667 -0.5666666666666667 1.8333333333333333 5000013.3958
10.446526666666667 -0.6 1.8333333333333333 5000013.3958
10.446526666666667 -0.8 1.8333333333333333 5000013.3958
10.608826666666667 -1.6 1.8333333333333333 5000018.2648
10.608826666666667 -1.7 1.8333333333333333 5000018.2648
10.608826666666667 -1.7666666666666666 1.8333333333333333 5000018.2648
10.608826666666667 -1.8 1.8333333333333333 5000018.2648
10.608826666666667 -2.1666666666666665 1.8333333333333333 5000018.2648
10.608826666666667 -2.2 1.8333333333333333 5000018.2648
10.608826666666667 -2.8 1.8333333333333333 5000018.2648
10.608826666666667 -3.566666666666667 1.8333333333333333 5000018.2648
10.608826666666667 -4.033333333333333 1.8333333333333333 5000018.2648
10.744046666666666 -4.733333333333333 1.8333333333333333 5000022.3214
10.744046666666666 -5.9 1.8333333333333333 5000022.3214
10.744046666666666 -5.966666666666667 1.8333333333333333 5000022.3214
10.744046666666666 -6.966666666666667 1.8333333333333333 5000022.3214
16.666666666666668 -7.766666666666667 1.8333333333333333 5000200.0
10.95648 -7.966666666666667 1.8333333333333333 5000028.6944
10.95648 -8.133333333333333 1.8333333333333333 5000028.6944
10.744046666666666 -8.233333333333333 1.8333333333333333 5000022.3214
10.744046666666666 -8.3 1.8333333333333333 5000022.3214
10.5152 -8.5 1.8333333333333333 5000015.456
10.744046666666666 -8.633333333333333 1.8333333333333333 5000022.3214
10.446526666666667 -8.7 1.8333333333333333 5000013.3958
10.95648 -9.033333333333333 1.8333333333333333 5000028.6944
10.744046666666666 -9.133333333333333 1.8333333333333333 5000022.3214
10.744046666666666 -9.166666666666666 1.8333333333333333 5000022.3214
11.338686666666668 -12.3 1.8333333333333333 5000040.1606
11.338686666666668 -12.366666666666667 1.8333333333333333 5000040.1606
10.95648 -12.433333333333334 1.8333333333333333 5000028.6944
11.338686666666668 -15.433333333333334 1.8333333333333333 5000040.1606
11.338686666666668 -17.2 1.8333333333333333 5000040.1606
11.338686666666668 -17.333333333333332 1.8333333333333333 5000040.1606
11.338686666666668 -17.466666666666665 1.8333333333333333 5000040.1606
10.95648 -17.533333333333335 1.8333333333333333 5000028.6944
10.5152 2.6333333333333333 1.8 5000015.456
10.5152 1.9 1.8 5000015.456
10.5152 1.7333333333333334 1.8 5000015.456
10.5152 1.1666666666666667 1.8 5000015.456
10.5152 1.1333333333333333 1.8 5000015.456
10.5152 1.0666666666666667 1.8 5000015.456
10.5152 0.7333333333333333 1.8 5000015.456
10.5152 0.5 1.8 5000015.456
10.5152 0.3333333333333333 1.8 5000015.456
10.744046666666666 -0.3 1.8 5000022.3214
10.446526666666667 -0.5666666666666667 1.8 5000013.3958
10.446526666666667 -0.6 1.8 5000013.3958
10.446526666666667 -0.8 1.8 5000013.3958
10.5152 -1.4 1.8 5000015.456
10.608826666666667 -1.5666666666666667 1.8 5000018.2648
10.608826666666667 -1.8 1.8 5000018.2648
10.608826666666667 -2.3 1.8 5000018.2648
10.608826666666667 -2.3333333333333335 1.8 5000018.2648
10.608826666666667 -2.8 1.8 5000018.2648
10.608826666666667 -3.533333333333333 1.8 5000018.2648
10.608826666666667 -3.566666666666667 1.8 5000018.2648
10.608826666666667 -4.033333333333333 1.8 5000018.2648
10.744046666666666 -5.3 1.8 5000022.3214
10.744046666666666 -5.866666666666666 1.8 5000022.3214
10.744046666666666 -5.9 1.8 5000022.3214
10.744046666666666 -5.966666666666667 1.8 5000022.3214
11.338686666666668 -7.466666666666667 1.8 5000040.1606
11.338686666666668 -7.566666666666666 1.8 5000040.1606
11.338686666666668 -7.6 1.8 5000040.1606
12.229653333333333 -7.7 1.8 5000066.8896
12.229653333333333 -7.766666666666667 1.8 5000066.8896
11.338686666666668 -7.866666666666666 1.8 5000040.1606
10.95648 -8.0 1.8 5000028.6944
10.95648 -8.033333333333333 1.8 5000028.6944
10.95648 -8.2 1.8 5000028.6944
10.744046666666666 -8.3 1.8 5000022.3214
10.446526666666667 -8.633333333333333 1.8 5000013.3958
10.446526666666667 -8.7 1.8 5000013.3958
11.338686666666668 -8.933333333333334 1.8 5000040.1606
10.95648 -9.033333333333333 1.8 5000028.6944
11.338686666666668 -12.3 1.8 5000040.1606
11.338686666666668 -12.366666666666667 1.8 5000040.1606
10.95648 -12.433333333333334 1.8 5000028.6944
11.338686666666668 -17.2 1.8 5000040.1606
11.338686666666668 -17.333333333333332 1.8 5000040.1606
11.338686666666668 -17.466666666666665 1.8 5000040.1606
10.95648 -17.533333333333335 1.8 5000028.6944
11.338686666666668 -17.566666666666666 1.8 5000040.1606
10.5152 2.8333333333333335 1.7666666666666666 5000015.456
10.5152 2.7 1.7666666666666666 5000015.456
10.5152 2.1 1.7666666666666666 5000015.456
10.5152 1.1666666666666667 1.7666666666666666 5000015.456
10.5152 1.1333333333333333 1.7666666666666666 5000015.456
10.5152 0.6666666666666666 1.7666666666666666 5000015.456
10.5152 -0.13333333333333333 1.7666666666666666 5000015.456
10.446526666666667 -0.5666666666666667 1.7666666666666666 5000013.3958
10.446526666666667 -0.6 1.7666666666666666 5000013.3958
10.446526666666667 -0.8 1.7666666666666666 5000013.3958
10.95648 -1.1333333333333333 1.7666666666666666 5000028.6944
10.5152 -1.2333333333333334 1.7666666666666666 5000015.456
10.5152 -1.4 1.7666666666666666 5000015.456
10.608826666666667 -2.3 1.7666666666666666 5000018.2648
10.608826666666667 -2.3333333333333335 1.7666666666666666 5000018.2648
10.608826666666667 -2.8 1.7666666666666666 5000018.2648
10.608826666666667 -3.533333333333333 1.7666666666666666 5000018.2648
10.608826666666667 -3.566666666666667 1.7666666666666666 5000018.2648
10.608826666666667 -3.6333333333333333 1.7666666666666666 5000018.2648
10.608826666666667 -3.6666666666666665 1.7666666666666666 5000018.2648
10.352546666666667 -3.9 1.7666666666666666 5000010.5764
10.608826666666667 -4.033333333333333 1.7666666666666666 5000018.2648
10.744046666666666 -5.866666666666666 1.7666666666666666 5000022.3214
10.744046666666666 -6.933333333333334 1.7666666666666666 5000022.3214
12.229653333333333 -7.466666666666667 1.7666666666666666 5000066.8896
11.338686666666668 -7.566666666666666 1.7666666666666666 5000040.1606
11.338686666666668 -7.6 1.7666666666666666 5000040.1606
12.229653333333333 -7.7 1.7666666666666666 5000066.8896
12.229653333333333 -7.766666666666667 1.7666666666666666 5000066.8896
11.338686666666668 -7.866666666666666 1.7666666666666666 5000040.1606
10.95648 -8.0 1.7666666666666666 5000028.6944
10.95648 -8.033333333333333 1.7666666666666666 5000028.6944
10.744046666666666 -8.2 1.7666666666666666 5000022.3214
10.744046666666666 -8.3 1.7666666666666666 5000022.3214
10.608826666666667 -8.4 1.7666666666666666 5000018.2648
10.446526666666667 -8.633333333333333 1.7666666666666666 5000013.3958
10.446526666666667 -8.7 1.7666666666666666 5000013.3958
10.744046666666666 -8.733333333333333 1.7666666666666666 5000022.3214
11.338686666666668 -8.933333333333334 1.7666666666666666 5000040.1606
11.338686666666668 -12.3 1.7666666666666666 5000040.1606
10.95648 -12.433333333333334 1.7666666666666666 5000028.6944
11.338686666666668 -17.2 1.7666666666666666 5000040.1606
11.338686666666668 -17.333333333333332 1.7666666666666666 5000040.1606
11.338686666666668 -17.366666666666667 1.7666666666666666 5000040.1606
11.338686666666668 -17.466666666666665 1.7666666666666666 5000040.1606
10.95648 -17.533333333333335 1.7666666666666666 5000028.6944
10.608826666666667 -17.666666666666668 1.7666666666666666 5000018.2648
10.5152 2.8333333333333335 1.7333333333333334 5000015.456
10.5152 2.7 1.7333333333333334 5000015.456
10.5152 2.6 1.7333333333333334 5000015.456
10.5152 2.433333333333333 1.7333333333333334 5000015.456
10.608826666666667 2.3 1.7333333333333334 5000018.2648
10.5152 2.2666666666666666 1.7333333333333334 5000015.456
10.5152 2.2 1.7333333333333334 5000015.456
10.5152 2.1333333333333333 1.7333333333333334 5000015.456
10.5152 2.1 1.7333333333333334 5000015.456
10.5152 1.3 1.7333333333333334 5000015.456
10.5152 0.6666666666666666 1.7333333333333334 5000015.456
10.5152 0.6 1.7333333333333334 5000015.456
10.5152 -0.13333333333333333 1.7333333333333334 5000015.456
10.446526666666667 -0.5666666666666667 1.7333333333333334 5000013.3958
10.446526666666667 -0.6 1.7333333333333334 5000013.3958
10.446526666666667 -0.8 1.7333333333333334 5000013.3958
10.5152 -1.0 1.7333333333333334 5000015.456
10.5152 -1.2666666666666666 1.7333333333333334 5000015.456
10.5152 -1.4 1.7333333333333334 5000015.456
10.5152 -1.4333333333333333 1.7333333333333334 5000015.456
10.5152 -1.4666666666666666 1.7333333333333334 5000015.456
10.608826666666667 -2.2666666666666666 1.7333333333333334 5000018.2648
10.608826666666667 -2.3 1.7333333333333334 5000018.2648
10.608826666666667 -2.8 1.7333333333333334 5000018.2648
10.608826666666667 -2.8333333333333335 1.7333333333333334 5000018.2648
10.608826666666667 -3.533333333333333 1.7333333333333334 5000018.2648
10.608826666666667 -3.7 1.7333333333333334 5000018.2648
10.352546666666667 -3.8333333333333335 1.7333333333333334 5000010.5764
10.352546666666667 -3.8666666666666667 1.7333333333333334 5000010.5764
10.608826666666667 -4.033333333333333 1.7333333333333334 5000018.2648
10.608826666666667 -4.066666666666666 1.7333333333333334 5000018.2648
16.666666666666668 -4.2 1.7333333333333334 5000200.0
16.666666666666668 -6.433333333333334 1.7333333333333334 5000200.0
11.338686666666668 -6.633333333333334 1.7333333333333334 5000040.1606
10.744046666666666 -6.866666666666666 1.7333333333333334 5000022.3214
10.744046666666666 -6.933333333333334 1.7333333333333334 5000022.3214
11.338686666666668 -7.566666666666666 1.7333333333333334 5000040.1606
11.338686666666668 -7.666666666666667 1.7333333333333334 5000040.1606
12.229653333333333 -7.7 1.7333333333333334 5000066.8896
12.229653333333333 -7.766666666666667 1.7333333333333334 5000066.8896
10.95648 -8.0 1.7333333333333334 5000028.6944
10.95648 -8.033333333333333 1.7333333333333334 5000028.6944
10.95648 -8.1 1.7333333333333334 5000028.6944
10.95648 -8.2 1.7333333333333334 5000028.6944
10.744046666666666 -8.233333333333333 1.7333333333333334 5000022.3214
10.744046666666666 -8.3 1.7333333333333334 5000022.3214
10.608826666666667 -8.4 1.7333333333333334 5000018.2648
10.446526666666667 -8.633333333333333 1.7333333333333334 5000013.3958
10.744046666666666 -8.733333333333333 1.7333333333333334 5000022.3214
10.95648 -9.1 1.7333333333333334 5000028.6944
11.338686666666668 -17.2 1.7333333333333334 5000040.1606
11.338686666666668 -17.333333333333332 1.7333333333333334 5000040.1606
10.5152 2.433333333333333 1.7 5000015.456
10.5152 2.4 1.7 5000015.456
10.5152 1.3 1.7 5000015.456
10.5152 1.0666666666666667 1.7 5000015.456
10.5152 1.0333333333333334 1.7 5000015.456
10.5152 0.7666666666666667 1.7 5000015.456
10.5152 0.6666666666666666 1.7 5000015.456
10.5152 0.4 1.7 5000015.456
10.5152 0.36666666666666664 1.7 5000015.456
10.446526666666667 -0.5666666666666667 1.7 5000013.3958
10.446526666666667 -0.6 1.7 5000013.3958
10.446526666666667 -0.8 1.7 5000013.3958
10.446526666666667 -0.8333333333333334 1.7 5000013.3958
10.5152 -1.0 1.7 5000015.456
10.5152 -1.3 1.7 5000015.456
10.5152 -1.4333333333333333 1.7 5000015.456
10.5152 -1.5 1.7 5000015.456
10.5152 -1.5333333333333334 1.7 5000015.456
10.5152 -1.6333333333333333 1.7 5000015.456
10.608826666666667 -2.6 1.7 5000018.2648
10.608826666666667 -2.8 1.7 5000018.2648
10.608826666666667 -2.8333333333333335 1.7 5000018.2648
10.608826666666667 -3.533333333333333 1.7 5000018.2648
10.608826666666667 -3.566666666666667 1.7 5000018.2648
10.608826666666667 -4.033333333333333 1.7 5000018.2648
10.608826666666667 -4.066666666666666 1.7 5000018.2648
16.666666666666668 -6.0 1.7 5000200.0
16.666666666666668 -6.433333333333334 1.7 5000200.0
11.338686666666668 -6.633333333333334 1.7 5000040.1606
10.744046666666666 -6.8 1.7 5000022.3214
10.744046666666666 -6.866666666666666 1.7 5000022.3214
10.744046666666666 -6.933333333333334 1.7 5000022.3214
16.666666666666668 -7.866666666666666 1.7 5000200.0
10.95648 -8.2 1.7 5000028.6944
10.744046666666666 -8.3 1.7 5000022.3214
10.446526666666667 -8.633333333333333 1.7 5000013.3958
11.338686666666668 -17.2 1.7 5000040.1606
10.5152 2.1666666666666665 1.6666666666666667 5000015.456
10.5152 1.7333333333333334 1.6666666666666667 5000015.456
10.5152 1.0 1.6666666666666667 5000015.456
10.5152 0.7666666666666667 1.6666666666666667 5000015.456
10.5152 0.3333333333333333 1.6666666666666667 5000015.456
10.446526666666667 -0.5666666666666667 1.6666666666666667 5000013.3958
10.446526666666667 -0.6 1.6666666666666667 5000013.3958
10.446526666666667 -0.8 1.6666666666666667 5000013.3958
10.5152 -1.6333333333333333 1.6666666666666667 5000015.456
10.608826666666667 -2.533333333333333 1.6666666666666667 5000018.2648
10.608826666666667 -2.566666666666667 1.6666666666666667 5000018.2648
10.608826666666667 -2.6 1.6666666666666667 5000018.2648
10.446526666666667 -2.7 1.6666666666666667 5000013.3958
10.608826666666667 -2.7333333333333334 1.6666666666666667 5000018.2648
10.608826666666667 -2.8 1.6666666666666667 5000018.2648
10.608826666666667 -3.566666666666667 1.6666666666666667 5000018.2648
10.608826666666667 -3.6666666666666665 1.6666666666666667 5000018.2648
10.352546666666667 -3.9 1.6666666666666667 5000010.5764
10.744046666666666 -4.433333333333334 1.6666666666666667 5000022.3214
10.744046666666666 -6.8 1.6666666666666667 5000022.3214
10.744046666666666 -6.866666666666666 1.6666666666666667 5000022.3214
10.744046666666666 -6.933333333333334 1.6666666666666667 5000022.3214
10.5152 -7.066666666666666 1.6666666666666667 5000015.456
10.352546666666667 -7.4 1.6666666666666667 5000010.5764
16.666666666666668 -7.866666666666666 1.6666666666666667 5000200.0
10.95648 -8.2 1.6666666666666667 5000028.6944
10.744046666666666 -8.3 1.6666666666666667 5000022.3214
10.5152 2.3333333333333335 1.6333333333333333 5000015.456
10.5152 2.3 1.6333333333333333 5000015.456
10.5152 2.2666666666666666 1.6333333333333333 5000015.456
10.5152 2.1666666666666665 1.6333333333333333 5000015.456
10.5152 1.6666666666666667 1.6333333333333333 5000015.456
10.5152 0.9666666666666667 1.6333333333333333 5000015.456
10.5152 -0.13333333333333333 1.6333333333333333 5000015.456
10.446526666666667 -0.6 1.6333333333333333 5000013.3958
10.446526666666667 -0.8 1.6333333333333333 5000013.3958
10.5152 -1.7666666666666666 1.6333333333333333 5000015.456
10.608826666666667 -2.566666666666667 1.6333333333333333 5000018.2648
10.608826666666667 -2.6 1.6333333333333333 5000018.2648
10.608826666666667 -2.8 1.6333333333333333 5000018.2648
10.608826666666667 -2.8333333333333335 1.6333333333333333 5000018.2648
10.608826666666667 -3.566666666666667 1.6333333333333333 5000018.2648
10.608826666666667 -3.6 1.6333333333333333 5000018.2648
10.744046666666666 -4.366666666666666 1.6333333333333333 5000022.3214
10.744046666666666 -4.4 1.6333333333333333 5000022.3214
10.744046666666666 -4.433333333333334 1.6333333333333333 5000022.3214
10.5152 -4.6 1.6333333333333333 5000015.456
10.744046666666666 -4.833333333333333 1.6333333333333333 5000022.3214
11.338686666666668 -6.133333333333334 1.6333333333333333 5000040.1606
10.744046666666666 -6.333333333333333 1.6333333333333333 5000022.3214
10.744046666666666 -6.433333333333334 1.6333333333333333 5000022.3214
10.744046666666666 -6.866666666666666 1.6333333333333333 5000022.3214
10.744046666666666 -6.933333333333334 1.6333333333333333 5000022.3214
10.5152 -7.066666666666666 1.6333333333333333 5000015.456
10.5152 -7.1 1.6333333333333333 5000015.456
10.608826666666667 -7.133333333333334 1.6333333333333333 5000018.2648
10.744046666666666 -7.2 1.6333333333333333 5000022.3214
10.352546666666667 -7.333333333333333 1.6333333333333333 5000010.5764
10.291248 -7.533333333333333 1.6333333333333333 5000008.73744
10.95648 -8.2 1.6333333333333333 5000028.6944
10.744046666666666 -8.3 1.6333333333333333 5000022.3214
10.5152 -8.5 1.6333333333333333 5000015.456
10.5152 2.5 1.6 5000015.456
10.5152 2.2666666666666666 1.6 5000015.456
10.5152 1.9 1.6 5000015.456
10.5152 1.6333333333333333 1.6 5000015.456
10.5152 0.9666666666666667 1.6 5000015.456
10.5152 0.9333333333333333 1.6 5000015.456
10.446526666666667 0.23333333333333334 1.6 5000013.3958
10.5152 -0.1 1.6 5000015.456
10.5152 -0.13333333333333333 1.6 5000015.456
10.446526666666667 -0.5666666666666667 1.6 5000013.3958
10.446526666666667 -0.6 1.6 5000013.3958
10.446526666666667 -0.8 1.6 5000013.3958
10.608826666666667 -2.8 1.6 5000018.2648
10.608826666666667 -2.8333333333333335 1.6 5000018.2648
10.608826666666667 -4.033333333333333 1.6 5000018.2648
10.744046666666666 -4.366666666666666 1.6 5000022.3214
10.744046666666666 -4.4 1.6 5000022.3214
10.744046666666666 -4.433333333333334 1.6 5000022.3214
10.5152 -4.566666666666666 1.6 5000015.456
10.5152 -4.6 1.6 5000015.456
10.446526666666667 -4.7 1.6 5000013.3958
10.446526666666667 -4.733333333333333 1.6 5000013.3958
11.338686666666668 -5.9 1.6 5000040.1606
11.338686666666668 -5.933333333333334 1.6 5000040.1606
11.338686666666668 -5.966666666666667 1.6 5000040.1606
10.744046666666666 -6.066666666666666 1.6 5000022.3214
10.744046666666666 -6.1 1.6 5000022.3214
11.338686666666668 -6.166666666666667 1.6 5000040.1606
11.338686666666668 -6.2 1.6 5000040.1606
10.744046666666666 -6.333333333333333 1.6 5000022.3214
10.744046666666666 -6.366666666666666 1.6 5000022.3214
10.744046666666666 -6.466666666666667 1.6 5000022.3214
10.744046666666666 -6.666666666666667 1.6 5000022.3214
10.5152 -7.066666666666666 1.6 5000015.456
10.267952666666666 -7.633333333333334 1.6 5000008.03858
16.666666666666668 -7.866666666666666 1.6 5000200.0
10.95648 -8.2 1.6 5000028.6944
10.744046666666666 -8.3 1.6 5000022.3214
10.5152 -8.5 1.6 5000015.456
10.5152 2.466666666666667 1.5666666666666667 5000015.456
