VERSION .7
FIELDS x y z rgb
SIZE 4 4 4 4
TYPE F F F F
COUNT 1 1 1 1
WIDTH 1391
HEIGHT 1
VIEWPOINT 0 0 0 1 0 0 0
POINTS 1391
DATA ascii
44.33376 -5.08 1.28 5000066.8896
11.29218 5.04 1.26 5000011.8203
11.29218 5.02 1.26 5000011.8203
10.54584 4.44 1.26 5000010.5764
10.54584 4.42 1.26 5000010.5764
17.592840000000002 3.14 1.26 5000022.3214
17.592840000000002 3.12 1.26 5000022.3214
15.15888 2.96 1.26 5000018.2648
15.15888 2.94 1.26 5000018.2648
15.15888 2.92 1.26 5000018.2648
15.15888 2.76 1.26 5000018.2648
17.592840000000002 2.74 1.26 5000022.3214
12.23748 2.62 1.26 5000013.3958
12.23748 2.6 1.26 5000013.3958
15.15888 2.54 1.26 5000018.2648
17.592840000000002 2.26 1.26 5000022.3214
13.4736 2.18 1.26 5000015.456
15.15888 2.16 1.26 5000018.2648
15.15888 2.14 1.26 5000018.2648
21.41664 0.82 1.26 5000028.6944
21.41664 0.76 1.26 5000028.6944
21.41664 0.36 1.26 5000028.6944
21.41664 0.32 1.26 5000028.6944
21.41664 0.2 1.26 5000028.6944
21.41664 -0.04 1.26 5000028.6944
28.29636 -0.58 1.26 5000040.1606
21.41664 -0.62 1.26 5000028.6944
21.41664 -0.64 1.26 5000028.6944
28.29636 -1.96 1.26 5000040.1606
28.29636 -1.98 1.26 5000040.1606
28.29636 -2.16 1.26 5000040.1606
28.29636 -2.46 1.26 5000040.1606
44.33376 -2.66 1.26 5000066.8896
28.29636 -2.8 1.26 5000040.1606
44.33376 -2.96 1.26 5000066.8896
44.33376 -2.98 1.26 5000066.8896
44.33376 -3.02 1.26 5000066.8896
44.33376 -3.6 1.26 5000066.8896
44.33376 -3.78 1.26 5000066.8896
124.19999999999999 -4.3 1.26 5000200.0
124.19999999999999 -4.34 1.26 5000200.0
124.19999999999999 -4.64 1.26 5000200.0
124.19999999999999 -4.66 1.26 5000200.0
44.33376 -4.7 1.26 5000066.8896
124.19999999999999 -5.0 1.26 5000200.0
124.19999999999999 -5.04 1.26 5000200.0
44.33376 -5.06 1.26 5000066.8896
11.29218 5.04 1.24 5000011.8203
11.29218 5.02 1.24 5000011.8203
17.592840000000002 3.14 1.24 5000022.3214
17.592840000000002 3.12 1.24 5000022.3214
15.15888 2.96 1.24 5000018.2648
15.15888 2.94 1.24 5000018.2648
28.29636 2.84 1.24 5000040.1606
28.29636 2.82 1.24 5000040.1606
17.592840000000002 2.7 1.24 5000022.3214
21.41664 2.66 1.24 5000028.6944
15.15888 2.58 1.24 5000018.2648
15.15888 2.54 1.24 5000018.2648
11.29218 2.36 1.24 5000011.8203
17.592840000000002 2.26 1.24 5000022.3214
15.15888 2.12 1.24 5000018.2648
17.592840000000002 2.08 1.24 5000022.3214
21.41664 0.82 1.24 5000028.6944
21.41664 0.76 1.24 5000028.6944
21.41664 0.36 1.24 5000028.6944
21.41664 0.32 1.24 5000028.6944
21.41664 0.2 1.24 5000028.6944
21.41664 0.18 1.24 5000028.6944
21.41664 -0.04 1.24 5000028.6944
28.29636 -0.58 1.24 5000040.1606
21.41664 -0.62 1.24 5000028.6944
21.41664 -0.64 1.24 5000028.6944
28.29636 -1.86 1.24 5000040.1606
21.41664 -1.92 1.24 5000028.6944
28.29636 -1.98 1.24 5000040.1606
28.29636 -2.16 1.24 5000040.1606
124.19999999999999 -2.28 1.24 5000200.0
28.29636 -2.46 1.24 5000040.1606
28.29636 -2.8 1.24 5000040.1606
21.41664 -2.88 1.24 5000028.6944
44.33376 -2.96 1.24 5000066.8896
44.33376 -2.98 1.24 5000066.8896
44.33376 -3.02 1.24 5000066.8896
28.29636 -3.04 1.24 5000040.1606
44.33376 -3.78 1.24 5000066.8896
124.19999999999999 -4.3 1.24 5000200.0
124.19999999999999 -4.64 1.24 5000200.0
124.19999999999999 -4.66 1.24 5000200.0
44.33376 -4.7 1.24 5000066.8896
124.19999999999999 -4.98 1.24 5000200.0
124.19999999999999 -5.0 1.24 5000200.0
124.19999999999999 -5.04 1.24 5000200.0
44.33376 -5.06 1.24 5000066.8896
124.19999999999999 -5.26 1.24 5000200.0
44.33376 -5.32 1.24 5000066.8896
44.33376 -5.34 1.24 5000066.8896
44.33376 -5.4 1.24 5000066.8896
11.29218 5.04 1.22 5000011.8203
11.29218 5.02 1.22 5000011.8203
17.592840000000002 3.14 1.22 5000022.3214
28.29636 3.02 1.22 5000040.1606
15.15888 2.94 1.22 5000018.2648
28.29636 2.8 1.22 5000040.1606
28.29636 2.66 1.22 5000040.1606
15.15888 2.58 1.22 5000018.2648
15.15888 2.54 1.22 5000018.2648
17.592840000000002 2.26 1.22 5000022.3214
17.592840000000002 2.22 1.22 5000022.3214
15.15888 2.12 1.22 5000018.2648
17.592840000000002 2.08 1.22 5000022.3214
21.41664 0.82 1.22 5000028.6944
21.41664 0.76 1.22 5000028.6944
21.41664 0.36 1.22 5000028.6944
21.41664 0.32 1.22 5000028.6944
21.41664 0.18 1.22 5000028.6944
21.41664 -0.04 1.22 5000028.6944
15.15888 -0.18 1.22 5000018.2648
28.29636 -0.58 1.22 5000040.1606
21.41664 -0.62 1.22 5000028.6944
28.29636 -1.84 1.22 5000040.1606
28.29636 -1.86 1.22 5000040.1606
21.41664 -1.92 1.22 5000028.6944
28.29636 -2.14 1.22 5000040.1606
124.19999999999999 -2.26 1.22 5000200.0
28.29636 -2.46 1.22 5000040.1606
28.29636 -2.8 1.22 5000040.1606
44.33376 -2.96 1.22 5000066.8896
44.33376 -2.98 1.22 5000066.8896
44.33376 -3.82 1.22 5000066.8896
124.19999999999999 -4.3 1.22 5000200.0
124.19999999999999 -4.34 1.22 5000200.0
124.19999999999999 -4.64 1.22 5000200.0
124.19999999999999 -4.66 1.22 5000200.0
124.19999999999999 -4.7 1.22 5000200.0
124.19999999999999 -4.98 1.22 5000200.0
124.19999999999999 -5.0 1.22 5000200.0
124.19999999999999 -5.26 1.22 5000200.0
124.19999999999999 -5.28 1.22 5000200.0
44.33376 -5.34 1.22 5000066.8896
44.33376 -5.36 1.22 5000066.8896
11.29218 5.04 1.2 5000011.8203
11.29218 5.02 1.2 5000011.8203
10.54584 4.6 1.2 5000010.5764
11.29218 4.42 1.2 5000011.8203
15.15888 3.34 1.2 5000018.2648
28.29636 3.02 1.2 5000040.1606
28.29636 3.0 1.2 5000040.1606
15.15888 2.92 1.2 5000018.2648
28.29636 2.64 1.2 5000040.1606
28.29636 2.62 1.2 5000040.1606
17.592840000000002 2.28 1.2 5000022.3214
17.592840000000002 2.26 1.2 5000022.3214
17.592840000000002 2.22 1.2 5000022.3214
17.592840000000002 1.72 1.2 5000022.3214
21.41664 0.82 1.2 5000028.6944
21.41664 0.76 1.2 5000028.6944
44.33376 0.3 1.2 5000066.8896
44.33376 0.28 1.2 5000066.8896
21.41664 0.18 1.2 5000028.6944
44.33376 0.08 1.2 5000066.8896
21.41664 -0.04 1.2 5000028.6944
15.15888 -0.18 1.2 5000018.2648
28.29636 -0.58 1.2 5000040.1606
21.41664 -0.62 1.2 5000028.6944
28.29636 -1.86 1.2 5000040.1606
21.41664 -1.92 1.2 5000028.6944
28.29636 -2.46 1.2 5000040.1606
28.29636 -2.8 1.2 5000040.1606
44.33376 -3.48 1.2 5000066.8896
44.33376 -3.74 1.2 5000066.8896
44.33376 -3.82 1.2 5000066.8896
124.19999999999999 -4.34 1.2 5000200.0
124.19999999999999 -4.64 1.2 5000200.0
124.19999999999999 -4.66 1.2 5000200.0
44.33376 -4.7 1.2 5000066.8896
44.33376 -5.06 1.2 5000066.8896
44.33376 -5.1 1.2 5000066.8896
124.19999999999999 -5.16 1.2 5000200.0
124.19999999999999 -5.28 1.2 5000200.0
124.19999999999999 -5.3 1.2 5000200.0
44.33376 -5.34 1.2 5000066.8896
44.33376 -5.36 1.2 5000066.8896
124.19999999999999 -5.48 1.2 5000200.0
11.29218 5.04 1.18 5000011.8203
11.29218 5.02 1.18 5000011.8203
11.29218 4.46 1.18 5000011.8203
11.29218 4.44 1.18 5000011.8203
11.29218 4.42 1.18 5000011.8203
11.29218 4.4 1.18 5000011.8203
11.29218 4.38 1.18 5000011.8203
15.15888 2.92 1.18 5000018.2648
124.19999999999999 2.42 1.18 5000200.0
17.592840000000002 2.28 1.18 5000022.3214
17.592840000000002 2.24 1.18 5000022.3214
17.592840000000002 2.2 1.18 5000022.3214
17.592840000000002 2.12 1.18 5000022.3214
17.592840000000002 2.08 1.18 5000022.3214
13.4736 1.8 1.18 5000015.456
17.592840000000002 1.78 1.18 5000022.3214
17.592840000000002 1.74 1.18 5000022.3214
17.592840000000002 1.72 1.18 5000022.3214
21.41664 0.82 1.18 5000028.6944
21.41664 0.76 1.18 5000028.6944
44.33376 0.28 1.18 5000066.8896
21.41664 0.18 1.18 5000028.6944
21.41664 -0.04 1.18 5000028.6944
21.41664 -0.58 1.18 5000028.6944
21.41664 -0.62 1.18 5000028.6944
7.004394 -0.84 1.18 5000004.67399
28.29636 -1.86 1.18 5000040.1606
21.41664 -1.92 1.18 5000028.6944
28.29636 -2.46 1.18 5000040.1606
44.33376 -2.56 1.18 5000066.8896
28.29636 -2.8 1.18 5000040.1606
44.33376 -2.96 1.18 5000066.8896
17.592840000000002 -3.18 1.18 5000022.3214
44.33376 -3.48 1.18 5000066.8896
44.33376 -3.7 1.18 5000066.8896
44.33376 -3.82 1.18 5000066.8896
44.33376 -4.3 1.18 5000066.8896
44.33376 -4.34 1.18 5000066.8896
124.19999999999999 -4.64 1.18 5000200.0
124.19999999999999 -4.66 1.18 5000200.0
44.33376 -4.7 1.18 5000066.8896
124.19999999999999 -5.18 1.18 5000200.0
124.19999999999999 -5.3 1.18 5000200.0
44.33376 -5.38 1.18 5000066.8896
124.19999999999999 -5.48 1.18 5000200.0
11.29218 5.06 1.16 5000011.8203
11.29218 5.04 1.16 5000011.8203
11.29218 5.0 1.16 5000011.8203
11.29218 4.96 1.16 5000011.8203
11.29218 4.74 1.16 5000011.8203
11.29218 4.72 1.16 5000011.8203
11.29218 4.54 1.16 5000011.8203
11.29218 4.52 1.16 5000011.8203
10.54584 4.5 1.16 5000010.5764
11.29218 4.42 1.16 5000011.8203
10.54584 4.32 1.16 5000010.5764
15.15888 3.28 1.16 5000018.2648
124.19999999999999 2.42 1.16 5000200.0
124.19999999999999 2.4 1.16 5000200.0
124.19999999999999 2.38 1.16 5000200.0
17.592840000000002 2.22 1.16 5000022.3214
17.592840000000002 2.2 1.16 5000022.3214
17.592840000000002 2.12 1.16 5000022.3214
17.592840000000002 2.08 1.16 5000022.3214
17.592840000000002 2.06 1.16 5000022.3214
17.592840000000002 2.0 1.16 5000022.3214
17.592840000000002 1.94 1.16 5000022.3214
17.592840000000002 1.92 1.16 5000022.3214
17.592840000000002 1.9 1.16 5000022.3214
17.592840000000002 1.88 1.16 5000022.3214
17.592840000000002 1.74 1.16 5000022.3214
17.592840000000002 1.72 1.16 5000022.3214
21.41664 0.82 1.16 5000028.6944
21.41664 0.76 1.16 5000028.6944
21.41664 0.18 1.16 5000028.6944
21.41664 -0.04 1.16 5000028.6944
13.4736 -0.18 1.16 5000015.456
21.41664 -0.58 1.16 5000028.6944
21.41664 -0.62 1.16 5000028.6944
7.645308 -1.52 1.16 5000005.74218
28.29636 -1.86 1.16 5000040.1606
21.41664 -1.92 1.16 5000028.6944
124.19999999999999 -2.44 1.16 5000200.0
44.33376 -2.56 1.16 5000066.8896
28.29636 -2.64 1.16 5000040.1606
124.19999999999999 -2.72 1.16 5000200.0
28.29636 -2.8 1.16 5000040.1606
44.33376 -2.92 1.16 5000066.8896
44.33376 -2.96 1.16 5000066.8896
44.33376 -3.48 1.16 5000066.8896
44.33376 -3.7 1.16 5000066.8896
44.33376 -3.82 1.16 5000066.8896
44.33376 -4.3 1.16 5000066.8896
44.33376 -4.34 1.16 5000066.8896
124.19999999999999 -4.64 1.16 5000200.0
124.19999999999999 -4.66 1.16 5000200.0
44.33376 -4.7 1.16 5000066.8896
44.33376 -4.72 1.16 5000066.8896
124.19999999999999 -5.0 1.16 5000200.0
44.33376 -5.06 1.16 5000066.8896
124.19999999999999 -5.2 1.16 5000200.0
124.19999999999999 -5.34 1.16 5000200.0
44.33376 -5.4 1.16 5000066.8896
124.19999999999999 -5.5 1.16 5000200.0
124.19999999999999 -5.58 1.16 5000200.0
11.29218 5.24 1.14 5000011.8203
11.29218 5.06 1.14 5000011.8203
11.29218 5.04 1.14 5000011.8203
15.15888 4.88 1.14 5000018.2648
11.29218 4.8 1.14 5000011.8203
11.29218 4.78 1.14 5000011.8203
11.29218 4.76 1.14 5000011.8203
11.29218 4.74 1.14 5000011.8203
11.29218 4.72 1.14 5000011.8203
10.54584 4.56 1.14 5000010.5764
10.54584 4.5 1.14 5000010.5764
11.29218 4.44 1.14 5000011.8203
11.29218 4.42 1.14 5000011.8203
10.54584 4.32 1.14 5000010.5764
15.15888 3.28 1.14 5000018.2648
15.15888 3.24 1.14 5000018.2648
124.19999999999999 2.38 1.14 5000200.0
124.19999999999999 2.36 1.14 5000200.0
17.592840000000002 2.2 1.14 5000022.3214
17.592840000000002 2.18 1.14 5000022.3214
17.592840000000002 2.16 1.14 5000022.3214
17.592840000000002 2.12 1.14 5000022.3214
17.592840000000002 2.1 1.14 5000022.3214
17.592840000000002 2.08 1.14 5000022.3214
17.592840000000002 2.06 1.14 5000022.3214
17.592840000000002 2.0 1.14 5000022.3214
17.592840000000002 1.96 1.14 5000022.3214
17.592840000000002 1.94 1.14 5000022.3214
17.592840000000002 1.92 1.14 5000022.3214
17.592840000000002 1.74 1.14 5000022.3214
21.41664 0.82 1.14 5000028.6944
21.41664 0.8 1.14 5000028.6944
21.41664 0.76 1.14 5000028.6944
21.41664 0.74 1.14 5000028.6944
21.41664 0.32 1.14 5000028.6944
21.41664 0.18 1.14 5000028.6944
21.41664 0.14 1.14 5000028.6944
15.15888 0.06 1.14 5000018.2648
21.41664 -0.04 1.14 5000028.6944
13.4736 -0.22 1.14 5000015.456
15.15888 -0.5 1.14 5000018.2648
21.41664 -0.62 1.14 5000028.6944
44.33376 -1.78 1.14 5000066.8896
28.29636 -1.86 1.14 5000040.1606
124.19999999999999 -2.44 1.14 5000200.0
44.33376 -2.56 1.14 5000066.8896
44.33376 -2.58 1.14 5000066.8896
28.29636 -2.76 1.14 5000040.1606
28.29636 -2.8 1.14 5000040.1606
124.19999999999999 -2.86 1.14 5000200.0
124.19999999999999 -2.88 1.14 5000200.0
44.33376 -2.92 1.14 5000066.8896
44.33376 -2.96 1.14 5000066.8896
44.33376 -3.12 1.14 5000066.8896
44.33376 -3.48 1.14 5000066.8896
44.33376 -3.7 1.14 5000066.8896
44.33376 -4.34 1.14 5000066.8896
124.19999999999999 -4.64 1.14 5000200.0
44.33376 -4.7 1.14 5000066.8896
124.19999999999999 -4.98 1.14 5000200.0
124.19999999999999 -5.0 1.14 5000200.0
44.33376 -5.06 1.14 5000066.8896
124.19999999999999 -5.2 1.14 5000200.0
124.19999999999999 -5.36 1.14 5000200.0
44.33376 -5.42 1.14 5000066.8896
124.19999999999999 -5.52 1.14 5000200.0
11.29218 5.26 1.12 5000011.8203
11.29218 5.24 1.12 5000011.8203
11.29218 5.06 1.12 5000011.8203
11.29218 5.04 1.12 5000011.8203
13.4736 4.92 1.12 5000015.456
11.29218 4.78 1.12 5000011.8203
11.29218 4.76 1.12 5000011.8203
10.54584 4.34 1.12 5000010.5764
17.592840000000002 3.22 1.12 5000022.3214
15.15888 2.82 1.12 5000018.2648
17.592840000000002 2.16 1.12 5000022.3214
17.592840000000002 2.1 1.12 5000022.3214
17.592840000000002 2.04 1.12 5000022.3214
21.41664 2.02 1.12 5000028.6944
17.592840000000002 1.96 1.12 5000022.3214
17.592840000000002 1.94 1.12 5000022.3214
28.29636 0.82 1.12 5000040.1606
21.41664 0.8 1.12 5000028.6944
21.41664 0.76 1.12 5000028.6944
21.41664 0.74 1.12 5000028.6944
21.41664 0.32 1.12 5000028.6944
21.41664 0.2 1.12 5000028.6944
21.41664 0.18 1.12 5000028.6944
15.15888 0.06 1.12 5000018.2648
21.41664 -0.04 1.12 5000028.6944
13.4736 -0.22 1.12 5000015.456
15.15888 -0.38 1.12 5000018.2648
13.4736 -0.44 1.12 5000015.456
21.41664 -0.5 1.12 5000028.6944
28.29636 -0.54 1.12 5000040.1606
17.592840000000002 -0.62 1.12 5000022.3214
10.54584 -0.74 1.12 5000010.5764
10.54584 -1.04 1.12 5000010.5764
28.29636 -1.86 1.12 5000040.1606
124.19999999999999 -2.44 1.12 5000200.0
44.33376 -2.56 1.12 5000066.8896
28.29636 -2.76 1.12 5000040.1606
124.19999999999999 -2.8 1.12 5000200.0
124.19999999999999 -2.88 1.12 5000200.0
44.33376 -2.92 1.12 5000066.8896
44.33376 -3.12 1.12 5000066.8896
44.33376 -3.7 1.12 5000066.8896
124.19999999999999 -4.64 1.12 5000200.0
124.19999999999999 -4.66 1.12 5000200.0
44.33376 -4.7 1.12 5000066.8896
44.33376 -4.72 1.12 5000066.8896
124.19999999999999 -4.98 1.12 5000200.0
124.19999999999999 -5.0 1.12 5000200.0
44.33376 -5.06 1.12 5000066.8896
124.19999999999999 -5.36 1.12 5000200.0
124.19999999999999 -5.38 1.12 5000200.0
44.33376 -5.44 1.12 5000066.8896
124.19999999999999 -5.54 1.12 5000200.0
11.29218 5.26 1.1 5000011.8203
11.29218 5.24 1.1 5000011.8203
11.29218 5.22 1.1 5000011.8203
11.29218 5.06 1.1 5000011.8203
11.29218 5.04 1.1 5000011.8203
17.592840000000002 3.22 1.1 5000022.3214
15.15888 2.82 1.1 5000018.2648
28.29636 2.04 1.1 5000040.1606
28.29636 2.02 1.1 5000040.1606
17.592840000000002 1.96 1.1 5000022.3214
17.592840000000002 1.94 1.1 5000022.3214
21.41664 0.8 1.1 5000028.6944
21.41664 0.76 1.1 5000028.6944
21.41664 0.74 1.1 5000028.6944
44.33376 0.32 1.1 5000066.8896
21.41664 0.2 1.1 5000028.6944
21.41664 0.18 1.1 5000028.6944
21.41664 0.14 1.1 5000028.6944
15.15888 0.06 1.1 5000018.2648
21.41664 -0.04 1.1 5000028.6944
28.29636 -0.38 1.1 5000040.1606
13.4736 -0.44 1.1 5000015.456
44.33376 -0.5 1.1 5000066.8896
44.33376 -0.54 1.1 5000066.8896
17.592840000000002 -0.62 1.1 5000022.3214
11.29218 -0.76 1.1 5000011.8203
8.665944 -0.86 1.1 5000007.44324
10.54584 -1.04 1.1 5000010.5764
28.29636 -1.2 1.1 5000040.1606
28.29636 -1.76 1.1 5000040.1606
28.29636 -1.86 1.1 5000040.1606
124.19999999999999 -2.42 1.1 5000200.0
124.19999999999999 -2.44 1.1 5000200.0
44.33376 -2.56 1.1 5000066.8896
44.33376 -2.58 1.1 5000066.8896
124.19999999999999 -2.76 1.1 5000200.0
124.19999999999999 -2.8 1.1 5000200.0
124.19999999999999 -2.88 1.1 5000200.0
44.33376 -3.08 1.1 5000066.8896
44.33376 -3.1 1.1 5000066.8896
44.33376 -3.7 1.1 5000066.8896
44.33376 -4.16 1.1 5000066.8896
44.33376 -4.18 1.1 5000066.8896
124.19999999999999 -4.66 1.1 5000200.0
44.33376 -4.7 1.1 5000066.8896
44.33376 -4.72 1.1 5000066.8896
124.19999999999999 -5.0 1.1 5000200.0
44.33376 -5.06 1.1 5000066.8896
44.33376 -5.08 1.1 5000066.8896
124.19999999999999 -5.38 1.1 5000200.0
44.33376 -5.44 1.1 5000066.8896
44.33376 -5.46 1.1 5000066.8896
124.19999999999999 -5.56 1.1 5000200.0
124.19999999999999 -5.64 1.1 5000200.0
124.19999999999999 -5.66 1.1 5000200.0
11.29218 5.26 1.08 5000011.8203
12.23748 5.14 1.08 5000013.3958
11.29218 5.06 1.08 5000011.8203
11.29218 5.04 1.08 5000011.8203
17.592840000000002 3.22 1.08 5000022.3214
17.592840000000002 2.32 1.08 5000022.3214
28.29636 2.02 1.08 5000040.1606
17.592840000000002 1.9 1.08 5000022.3214
21.41664 1.44 1.08 5000028.6944
44.33376 0.3 1.08 5000066.8896
21.41664 0.2 1.08 5000028.6944
21.41664 0.18 1.08 5000028.6944
21.41664 0.14 1.08 5000028.6944
15.15888 0.06 1.08 5000018.2648
44.33376 -0.26 1.08 5000066.8896
15.15888 -0.36 1.08 5000018.2648
28.29636 -0.38 1.08 5000040.1606
15.15888 -0.42 1.08 5000018.2648
13.4736 -0.44 1.08 5000015.456
44.33376 -0.52 1.08 5000066.8896
44.33376 -0.54 1.08 5000066.8896
17.592840000000002 -0.62 1.08 5000022.3214
11.29218 -0.76 1.08 5000011.8203
10.54584 -1.04 1.08 5000010.5764
17.592840000000002 -1.62 1.08 5000022.3214
28.29636 -1.7 1.08 5000040.1606
28.29636 -1.72 1.08 5000040.1606
28.29636 -1.74 1.08 5000040.1606
28.29636 -1.86 1.08 5000040.1606
28.29636 -2.26 1.08 5000040.1606
124.19999999999999 -2.76 1.08 5000200.0
28.29636 -2.92 1.08 5000040.1606
44.33376 -3.1 1.08 5000066.8896
44.33376 -3.7 1.08 5000066.8896
44.33376 -3.92 1.08 5000066.8896
44.33376 -4.12 1.08 5000066.8896
44.33376 -4.16 1.08 5000066.8896
44.33376 -4.18 1.08 5000066.8896
124.19999999999999 -4.3 1.08 5000200.0
44.33376 -4.38 1.08 5000066.8896
124.19999999999999 -4.64 1.08 5000200.0
124.19999999999999 -5.0 1.08 5000200.0
124.19999999999999 -5.02 1.08 5000200.0
44.33376 -5.06 1.08 5000066.8896
44.33376 -5.08 1.08 5000066.8896
124.19999999999999 -5.38 1.08 5000200.0
124.19999999999999 -5.4 1.08 5000200.0
44.33376 -5.46 1.08 5000066.8896
124.19999999999999 -5.66 1.08 5000200.0
124.19999999999999 -5.68 1.08 5000200.0
44.33376 -5.74 1.08 5000066.8896
21.41664 4.78 1.06 5000028.6944
12.23748 4.5 1.06 5000013.3958
11.29218 4.44 1.06 5000011.8203
11.29218 4.42 1.06 5000011.8203
11.29218 4.4 1.06 5000011.8203
17.592840000000002 2.3 1.06 5000022.3214
17.592840000000002 1.96 1.06 5000022.3214
17.592840000000002 1.94 1.06 5000022.3214
17.592840000000002 1.92 1.06 5000022.3214
17.592840000000002 1.9 1.06 5000022.3214
21.41664 1.44 1.06 5000028.6944
12.23748 0.9 1.06 5000013.3958
44.33376 0.3 1.06 5000066.8896
44.33376 0.28 1.06 5000066.8896
21.41664 0.2 1.06 5000028.6944
21.41664 0.18 1.06 5000028.6944
21.41664 0.14 1.06 5000028.6944
15.15888 0.06 1.06 5000018.2648
21.41664 -0.04 1.06 5000028.6944
44.33376 -0.26 1.06 5000066.8896
15.15888 -0.36 1.06 5000018.2648
28.29636 -0.38 1.06 5000040.1606
15.15888 -0.42 1.06 5000018.2648
44.33376 -0.44 1.06 5000066.8896
44.33376 -0.54 1.06 5000066.8896
17.592840000000002 -0.62 1.06 5000022.3214
11.29218 -0.76 1.06 5000011.8203
10.54584 -1.02 1.06 5000010.5764
10.54584 -1.04 1.06 5000010.5764
28.29636 -1.48 1.06 5000040.1606
28.29636 -1.5 1.06 5000040.1606
28.29636 -1.72 1.06 5000040.1606
28.29636 -1.86 1.06 5000040.1606
28.29636 -2.26 1.06 5000040.1606
44.33376 -2.68 1.06 5000066.8896
124.19999999999999 -2.76 1.06 5000200.0
28.29636 -2.92 1.06 5000040.1606
44.33376 -3.72 1.06 5000066.8896
44.33376 -3.92 1.06 5000066.8896
44.33376 -4.16 1.06 5000066.8896
124.19999999999999 -4.3 1.06 5000200.0
44.33376 -4.38 1.06 5000066.8896
124.19999999999999 -4.44 1.06 5000200.0
44.33376 -4.5 1.06 5000066.8896
124.19999999999999 -5.0 1.06 5000200.0
124.19999999999999 -5.02 1.06 5000200.0
124.19999999999999 -5.26 1.06 5000200.0
124.19999999999999 -5.4 1.06 5000200.0
44.33376 -5.46 1.06 5000066.8896
44.33376 -5.48 1.06 5000066.8896
124.19999999999999 -5.68 1.06 5000200.0
44.33376 -5.76 1.06 5000066.8896
11.29218 5.1 1.04 5000011.8203
11.29218 4.44 1.04 5000011.8203
11.29218 4.42 1.04 5000011.8203
17.592840000000002 1.96 1.04 5000022.3214
17.592840000000002 1.94 1.04 5000022.3214
21.41664 1.44 1.04 5000028.6944
21.41664 1.42 1.04 5000028.6944
21.41664 0.88 1.04 5000028.6944
21.41664 0.36 1.04 5000028.6944
21.41664 0.2 1.04 5000028.6944
21.41664 0.18 1.04 5000028.6944
15.15888 0.06 1.04 5000018.2648
44.33376 -0.26 1.04 5000066.8896
28.29636 -0.36 1.04 5000040.1606
28.29636 -0.38 1.04 5000040.1606
44.33376 -0.48 1.04 5000066.8896
44.33376 -0.54 1.04 5000066.8896
21.41664 -0.62 1.04 5000028.6944
10.54584 -1.02 1.04 5000010.5764
10.54584 -1.04 1.04 5000010.5764
28.29636 -1.48 1.04 5000040.1606
28.29636 -1.5 1.04 5000040.1606
28.29636 -1.72 1.04 5000040.1606
28.29636 -1.86 1.04 5000040.1606
28.29636 -2.26 1.04 5000040.1606
44.33376 -2.66 1.04 5000066.8896
44.33376 -2.68 1.04 5000066.8896
124.19999999999999 -2.76 1.04 5000200.0
21.41664 -2.82 1.04 5000028.6944
28.29636 -2.92 1.04 5000040.1606
44.33376 -3.5 1.04 5000066.8896
44.33376 -3.74 1.04 5000066.8896
28.29636 -3.8 1.04 5000040.1606
44.33376 -3.92 1.04 5000066.8896
44.33376 -4.16 1.04 5000066.8896
124.19999999999999 -4.3 1.04 5000200.0
44.33376 -4.38 1.04 5000066.8896
44.33376 -4.5 1.04 5000066.8896
124.19999999999999 -5.4 1.04 5000200.0
124.19999999999999 -5.42 1.04 5000200.0
44.33376 -5.48 1.04 5000066.8896
124.19999999999999 -5.7 1.04 5000200.0
44.33376 -5.76 1.04 5000066.8896
11.29218 4.44 1.02 5000011.8203
11.29218 4.42 1.02 5000011.8203
15.15888 4.22 1.02 5000018.2648
17.592840000000002 1.96 1.02 5000022.3214
17.592840000000002 1.94 1.02 5000022.3214
21.41664 1.44 1.02 5000028.6944
12.23748 1.26 1.02 5000013.3958
21.41664 1.12 1.02 5000028.6944
21.41664 1.1 1.02 5000028.6944
21.41664 0.84 1.02 5000028.6944
21.41664 0.36 1.02 5000028.6944
44.33376 0.3 1.02 5000066.8896
21.41664 0.18 1.02 5000028.6944
15.15888 0.06 1.02 5000018.2648
44.33376 -0.26 1.02 5000066.8896
28.29636 -0.36 1.02 5000040.1606
44.33376 -0.38 1.02 5000066.8896
44.33376 -0.44 1.02 5000066.8896
124.19999999999999 -0.48 1.02 5000200.0
44.33376 -0.54 1.02 5000066.8896
21.41664 -0.62 1.02 5000028.6944
12.23748 -0.86 1.02 5000013.3958
12.23748 -0.92 1.02 5000013.3958
15.15888 -1.04 1.02 5000018.2648
28.29636 -1.48 1.02 5000040.1606
28.29636 -1.86 1.02 5000040.1606
44.33376 -2.68 1.02 5000066.8896
124.19999999999999 -2.74 1.02 5000200.0
21.41664 -2.82 1.02 5000028.6944
44.33376 -3.5 1.02 5000066.8896
44.33376 -3.52 1.02 5000066.8896
44.33376 -3.6 1.02 5000066.8896
44.33376 -3.62 1.02 5000066.8896
44.33376 -3.92 1.02 5000066.8896
44.33376 -4.16 1.02 5000066.8896
124.19999999999999 -4.44 1.02 5000200.0
124.19999999999999 -5.42 1.02 5000200.0
44.33376 -5.48 1.02 5000066.8896
44.33376 -5.5 1.02 5000066.8896
124.19999999999999 -5.7 1.02 5000200.0
44.33376 -5.78 1.02 5000066.8896
11.29218 4.44 1.0 5000011.8203
11.29218 4.42 1.0 5000011.8203
17.592840000000002 1.94 1.0 5000022.3214
21.41664 1.44 1.0 5000028.6944
21.41664 1.14 1.0 5000028.6944
21.41664 1.12 1.0 5000028.6944
21.41664 1.1 1.0 5000028.6944
21.41664 0.84 1.0 5000028.6944
21.41664 0.64 1.0 5000028.6944
44.33376 0.28 1.0 5000066.8896
21.41664 0.18 1.0 5000028.6944
15.15888 0.06 1.0 5000018.2648
124.19999999999999 -0.08 1.0 5000200.0
44.33376 -0.26 1.0 5000066.8896
44.33376 -0.3 1.0 5000066.8896
44.33376 -0.36 1.0 5000066.8896
44.33376 -0.38 1.0 5000066.8896
124.19999999999999 -0.44 1.0 5000200.0
124.19999999999999 -0.48 1.0 5000200.0
44.33376 -0.54 1.0 5000066.8896
21.41664 -0.62 1.0 5000028.6944
13.4736 -0.86 1.0 5000015.456
21.41664 -0.92 1.0 5000028.6944
15.15888 -1.02 1.0 5000018.2648
15.15888 -1.04 1.0 5000018.2648
11.29218 -1.22 1.0 5000011.8203
9.442464 -1.4 1.0 5000008.73744
28.29636 -1.48 1.0 5000040.1606
44.33376 -3.34 1.0 5000066.8896
44.33376 -3.52 1.0 5000066.8896
44.33376 -3.6 1.0 5000066.8896
44.33376 -3.62 1.0 5000066.8896
28.29636 -3.68 1.0 5000040.1606
44.33376 -3.92 1.0 5000066.8896
44.33376 -4.16 1.0 5000066.8896
44.33376 -4.18 1.0 5000066.8896
124.19999999999999 -4.3 1.0 5000200.0
44.33376 -4.38 1.0 5000066.8896
124.19999999999999 -4.44 1.0 5000200.0
124.19999999999999 -4.66 1.0 5000200.0
44.33376 -4.72 1.0 5000066.8896
124.19999999999999 -5.42 1.0 5000200.0
124.19999999999999 -5.44 1.0 5000200.0
44.33376 -5.5 1.0 5000066.8896
124.19999999999999 -5.7 1.0 5000200.0
124.19999999999999 -5.72 1.0 5000200.0
44.33376 -5.78 1.0 5000066.8896
13.4736 5.0 0.98 5000015.456
12.23748 4.94 0.98 5000013.3958
11.29218 4.52 0.98 5000011.8203
11.29218 4.44 0.98 5000011.8203
11.29218 4.42 0.98 5000011.8203
21.41664 1.44 0.98 5000028.6944
21.41664 1.18 0.98 5000028.6944
21.41664 1.16 0.98 5000028.6944
21.41664 1.12 0.98 5000028.6944
44.33376 0.78 0.98 5000066.8896
21.41664 0.64 0.98 5000028.6944
21.41664 0.18 0.98 5000028.6944
21.41664 0.16 0.98 5000028.6944
21.41664 0.04 0.98 5000028.6944
124.19999999999999 -0.08 0.98 5000200.0
44.33376 -0.26 0.98 5000066.8896
44.33376 -0.36 0.98 5000066.8896
124.19999999999999 -0.44 0.98 5000200.0
124.19999999999999 -0.48 0.98 5000200.0
28.29636 -0.6 0.98 5000040.1606
28.29636 -0.62 0.98 5000040.1606
21.41664 -0.86 0.98 5000028.6944
21.41664 -0.92 0.98 5000028.6944
17.592840000000002 -0.98 0.98 5000022.3214
17.592840000000002 -1.02 0.98 5000022.3214
15.15888 -1.04 0.98 5000018.2648
11.29218 -1.22 0.98 5000011.8203
10.54584 -1.3 0.98 5000010.5764
9.941628000000001 -1.4 0.98 5000009.56938
28.29636 -1.48 0.98 5000040.1606
28.29636 -1.86 0.98 5000040.1606
21.41664 -1.92 0.98 5000028.6944
44.33376 -2.7 0.98 5000066.8896
44.33376 -3.34 0.98 5000066.8896
44.33376 -3.42 0.98 5000066.8896
44.33376 -3.44 0.98 5000066.8896
124.19999999999999 -3.5 0.98 5000200.0
124.19999999999999 -3.52 0.98 5000200.0
44.33376 -3.6 0.98 5000066.8896
28.29636 -3.68 0.98 5000040.1606
21.41664 -3.74 0.98 5000028.6944
44.33376 -3.92 0.98 5000066.8896
44.33376 -4.16 0.98 5000066.8896
44.33376 -4.18 0.98 5000066.8896
124.19999999999999 -4.3 0.98 5000200.0
44.33376 -4.38 0.98 5000066.8896
124.19999999999999 -4.66 0.98 5000200.0
44.33376 -4.7 0.98 5000066.8896
44.33376 -4.72 0.98 5000066.8896
124.19999999999999 -5.32 0.98 5000200.0
124.19999999999999 -5.44 0.98 5000200.0
124.19999999999999 -5.46 0.98 5000200.0
44.33376 -5.52 0.98 5000066.8896
124.19999999999999 -5.72 0.98 5000200.0
44.33376 -5.78 0.98 5000066.8896
13.4736 5.0 0.96 5000015.456
15.15888 4.94 0.96 5000018.2648
11.29218 4.52 0.96 5000011.8203
11.29218 4.44 0.96 5000011.8203
11.29218 4.42 0.96 5000011.8203
21.41664 1.44 0.96 5000028.6944
21.41664 1.2 0.96 5000028.6944
21.41664 1.18 0.96 5000028.6944
21.41664 0.64 0.96 5000028.6944
21.41664 0.04 0.96 5000028.6944
124.19999999999999 -0.08 0.96 5000200.0
21.41664 -0.2 0.96 5000028.6944
44.33376 -0.26 0.96 5000066.8896
44.33376 -0.36 0.96 5000066.8896
44.33376 -0.38 0.96 5000066.8896
124.19999999999999 -0.44 0.96 5000200.0
124.19999999999999 -0.48 0.96 5000200.0
28.29636 -0.6 0.96 5000040.1606
28.29636 -0.78 0.96 5000040.1606
28.29636 -0.82 0.96 5000040.1606
28.29636 -0.86 0.96 5000040.1606
21.41664 -0.88 0.96 5000028.6944
21.41664 -0.92 0.96 5000028.6944
17.592840000000002 -0.98 0.96 5000022.3214
15.15888 -1.04 0.96 5000018.2648
11.29218 -1.2 0.96 5000011.8203
11.29218 -1.22 0.96 5000011.8203
10.54584 -1.28 0.96 5000010.5764
10.54584 -1.3 0.96 5000010.5764
9.941628000000001 -1.36 0.96 5000009.56938
28.29636 -1.48 0.96 5000040.1606
28.29636 -1.86 0.96 5000040.1606
21.41664 -1.92 0.96 5000028.6944
44.33376 -2.76 0.96 5000066.8896
44.33376 -2.98 0.96 5000066.8896
44.33376 -3.34 0.96 5000066.8896
44.33376 -3.44 0.96 5000066.8896
124.19999999999999 -3.5 0.96 5000200.0
44.33376 -3.6 0.96 5000066.8896
28.29636 -3.68 0.96 5000040.1606
44.33376 -3.92 0.96 5000066.8896
44.33376 -4.16 0.96 5000066.8896
124.19999999999999 -4.3 0.96 5000200.0
44.33376 -4.38 0.96 5000066.8896
124.19999999999999 -4.66 0.96 5000200.0
44.33376 -4.7 0.96 5000066.8896
44.33376 -4.72 0.96 5000066.8896
124.19999999999999 -5.0 0.96 5000200.0
124.19999999999999 -5.04 0.96 5000200.0
44.33376 -5.06 0.96 5000066.8896
124.19999999999999 -5.32 0.96 5000200.0
124.19999999999999 -5.46 0.96 5000200.0
44.33376 -5.54 0.96 5000066.8896
28.29636 -5.6 0.96 5000040.1606
124.19999999999999 -5.72 0.96 5000200.0
124.19999999999999 -5.78 0.96 5000200.0
44.33376 -5.8 0.96 5000066.8896
15.15888 4.92 0.94 5000018.2648
11.29218 4.74 0.94 5000011.8203
11.29218 4.72 0.94 5000011.8203
11.29218 4.7 0.94 5000011.8203
11.29218 4.52 0.94 5000011.8203
11.29218 4.44 0.94 5000011.8203
11.29218 4.42 0.94 5000011.8203
21.41664 1.44 0.94 5000028.6944
21.41664 1.2 0.94 5000028.6944
21.41664 1.18 0.94 5000028.6944
21.41664 0.38 0.94 5000028.6944
21.41664 0.1 0.94 5000028.6944
21.41664 0.06 0.94 5000028.6944
124.19999999999999 -0.08 0.94 5000200.0
44.33376 -0.26 0.94 5000066.8896
44.33376 -0.36 0.94 5000066.8896
44.33376 -0.38 0.94 5000066.8896
124.19999999999999 -0.44 0.94 5000200.0
124.19999999999999 -0.48 0.94 5000200.0
28.29636 -0.6 0.94 5000040.1606
28.29636 -0.64 0.94 5000040.1606
28.29636 -0.82 0.94 5000040.1606
28.29636 -0.86 0.94 5000040.1606
21.41664 -0.88 0.94 5000028.6944
21.41664 -0.92 0.94 5000028.6944
17.592840000000002 -0.98 0.94 5000022.3214
15.15888 -1.04 0.94 5000018.2648
11.29218 -1.2 0.94 5000011.8203
11.29218 -1.22 0.94 5000011.8203
10.54584 -1.28 0.94 5000010.5764
10.54584 -1.3 0.94 5000010.5764
9.941628000000001 -1.36 0.94 5000009.56938
28.29636 -1.48 0.94 5000040.1606
8.089788 -1.78 0.94 5000006.48298
28.29636 -1.84 0.94 5000040.1606
44.33376 -2.76 0.94 5000066.8896
44.33376 -3.34 0.94 5000066.8896
44.33376 -3.6 0.94 5000066.8896
28.29636 -3.68 0.94 5000040.1606
44.33376 -3.92 0.94 5000066.8896
44.33376 -4.16 0.94 5000066.8896
44.33376 -4.18 0.94 5000066.8896
44.33376 -4.38 0.94 5000066.8896
124.19999999999999 -4.66 0.94 5000200.0
44.33376 -4.7 0.94 5000066.8896
44.33376 -4.72 0.94 5000066.8896
124.19999999999999 -5.0 0.94 5000200.0
124.19999999999999 -5.46 0.94 5000200.0
124.19999999999999 -5.48 0.94 5000200.0
44.33376 -5.54 0.94 5000066.8896
124.19999999999999 -5.72 0.94 5000200.0
124.19999999999999 -5.74 0.94 5000200.0
124.19999999999999 -5.84 0.94 5000200.0
124.19999999999999 -5.86 0.94 5000200.0
15.15888 4.92 0.92 5000018.2648
11.29218 4.74 0.92 5000011.8203
11.29218 4.7 0.92 5000011.8203
11.29218 4.66 0.92 5000011.8203
11.29218 4.52 0.92 5000011.8203
11.29218 4.44 0.92 5000011.8203
11.29218 4.42 0.92 5000011.8203
21.41664 1.44 0.92 5000028.6944
12.23748 1.28 0.92 5000013.3958
12.23748 1.26 0.92 5000013.3958
21.41664 1.2 0.92 5000028.6944
21.41664 1.18 0.92 5000028.6944
21.41664 0.38 0.92 5000028.6944
21.41664 0.06 0.92 5000028.6944
44.33376 -0.24 0.92 5000066.8896
44.33376 -0.26 0.92 5000066.8896
44.33376 -0.36 0.92 5000066.8896
44.33376 -0.38 0.92 5000066.8896
124.19999999999999 -0.44 0.92 5000200.0
124.19999999999999 -0.48 0.92 5000200.0
28.29636 -0.56 0.92 5000040.1606
28.29636 -0.64 0.92 5000040.1606
44.33376 -0.78 0.92 5000066.8896
28.29636 -0.82 0.92 5000040.1606
28.29636 -0.86 0.92 5000040.1606
21.41664 -0.88 0.92 5000028.6944
21.41664 -0.92 0.92 5000028.6944
17.592840000000002 -0.98 0.92 5000022.3214
15.15888 -1.04 0.92 5000018.2648
13.4736 -1.2 0.92 5000015.456
10.54584 -1.28 0.92 5000010.5764
10.54584 -1.3 0.92 5000010.5764
9.941628000000001 -1.36 0.92 5000009.56938
28.29636 -1.48 0.92 5000040.1606
28.29636 -1.84 0.92 5000040.1606
28.29636 -2.8 0.92 5000040.1606
44.33376 -3.34 0.92 5000066.8896
124.19999999999999 -3.52 0.92 5000200.0
44.33376 -3.6 0.92 5000066.8896
28.29636 -3.68 0.92 5000040.1606
44.33376 -3.92 0.92 5000066.8896
44.33376 -4.16 0.92 5000066.8896
44.33376 -4.18 0.92 5000066.8896
124.19999999999999 -4.66 0.92 5000200.0
44.33376 -4.7 0.92 5000066.8896
44.33376 -4.72 0.92 5000066.8896
124.19999999999999 -5.0 0.92 5000200.0
44.33376 -5.1 0.92 5000066.8896
124.19999999999999 -5.48 0.92 5000200.0
44.33376 -5.54 0.92 5000066.8896
124.19999999999999 -5.78 0.92 5000200.0
124.19999999999999 -5.8 0.92 5000200.0
124.19999999999999 -5.82 0.92 5000200.0
15.15888 4.92 0.9 5000018.2648
11.29218 4.76 0.9 5000011.8203
11.29218 4.74 0.9 5000011.8203
11.29218 4.66 0.9 5000011.8203
11.29218 4.52 0.9 5000011.8203
11.29218 4.44 0.9 5000011.8203
11.29218 4.42 0.9 5000011.8203
21.41664 1.44 0.9 5000028.6944
21.41664 1.2 0.9 5000028.6944
21.41664 1.18 0.9 5000028.6944
21.41664 0.28 0.9 5000028.6944
124.19999999999999 -0.08 0.9 5000200.0
44.33376 -0.14 0.9 5000066.8896
44.33376 -0.24 0.9 5000066.8896
44.33376 -0.26 0.9 5000066.8896
44.33376 -0.36 0.9 5000066.8896
44.33376 -0.38 0.9 5000066.8896
124.19999999999999 -0.44 0.9 5000200.0
124.19999999999999 -0.48 0.9 5000200.0
28.29636 -0.6 0.9 5000040.1606
28.29636 -0.64 0.9 5000040.1606
44.33376 -0.78 0.9 5000066.8896
28.29636 -0.82 0.9 5000040.1606
28.29636 -0.86 0.9 5000040.1606
28.29636 -0.88 0.9 5000040.1606
21.41664 -0.92 0.9 5000028.6944
17.592840000000002 -0.98 0.9 5000022.3214
15.15888 -1.04 0.9 5000018.2648
44.33376 -1.2 0.9 5000066.8896
10.54584 -1.28 0.9 5000010.5764
28.29636 -1.36 0.9 5000040.1606
28.29636 -1.48 0.9 5000040.1606
17.592840000000002 -1.6 0.9 5000022.3214
28.29636 -1.84 0.9 5000040.1606
28.29636 -2.8 0.9 5000040.1606
44.33376 -3.34 0.9 5000066.8896
124.19999999999999 -3.52 0.9 5000200.0
124.19999999999999 -3.54 0.9 5000200.0
44.33376 -3.6 0.9 5000066.8896
28.29636 -3.68 0.9 5000040.1606
44.33376 -4.16 0.9 5000066.8896
124.19999999999999 -4.66 0.9 5000200.0
44.33376 -4.7 0.9 5000066.8896
44.33376 -4.72 0.9 5000066.8896
124.19999999999999 -5.0 0.9 5000200.0
44.33376 -5.06 0.9 5000066.8896
44.33376 -5.1 0.9 5000066.8896
124.19999999999999 -5.48 0.9 5000200.0
124.19999999999999 -5.82 0.9 5000200.0
124.19999999999999 -5.84 0.9 5000200.0
44.33376 -5.9 0.9 5000066.8896
44.33376 -5.92 0.9 5000066.8896
15.15888 5.0 0.88 5000018.2648
15.15888 4.94 0.88 5000018.2648
15.15888 4.92 0.88 5000018.2648
11.29218 4.76 0.88 5000011.8203
11.29218 4.74 0.88 5000011.8203
11.29218 4.64 0.88 5000011.8203
11.29218 4.52 0.88 5000011.8203
11.29218 4.44 0.88 5000011.8203
11.29218 4.42 0.88 5000011.8203
21.41664 1.44 0.88 5000028.6944
21.41664 1.2 0.88 5000028.6944
21.41664 1.18 0.88 5000028.6944
21.41664 0.4 0.88 5000028.6944
21.41664 0.24 0.88 5000028.6944
124.19999999999999 -0.08 0.88 5000200.0
44.33376 -0.14 0.88 5000066.8896
28.29636 -0.2 0.88 5000040.1606
44.33376 -0.24 0.88 5000066.8896
44.33376 -0.26 0.88 5000066.8896
44.33376 -0.36 0.88 5000066.8896
15.15888 -0.42 0.88 5000018.2648
124.19999999999999 -0.48 0.88 5000200.0
28.29636 -0.62 0.88 5000040.1606
44.33376 -0.78 0.88 5000066.8896
44.33376 -0.86 0.88 5000066.8896
28.29636 -0.88 0.88 5000040.1606
44.33376 -0.92 0.88 5000066.8896
17.592840000000002 -0.98 0.88 5000022.3214
15.15888 -1.04 0.88 5000018.2648
124.19999999999999 -1.2 0.88 5000200.0
44.33376 -1.28 0.88 5000066.8896
28.29636 -1.34 0.88 5000040.1606
28.29636 -1.36 0.88 5000040.1606
28.29636 -1.48 0.88 5000040.1606
28.29636 -1.68 0.88 5000040.1606
28.29636 -1.84 0.88 5000040.1606
28.29636 -2.8 0.88 5000040.1606
124.19999999999999 -3.52 0.88 5000200.0
124.19999999999999 -3.54 0.88 5000200.0
44.33376 -3.6 0.88 5000066.8896
28.29636 -3.68 0.88 5000040.1606
124.19999999999999 -4.3 0.88 5000200.0
44.33376 -4.38 0.88 5000066.8896
44.33376 -4.5 0.88 5000066.8896
124.19999999999999 -4.66 0.88 5000200.0
44.33376 -4.7 0.88 5000066.8896
44.33376 -4.72 0.88 5000066.8896
124.19999999999999 -5.0 0.88 5000200.0
44.33376 -5.06 0.88 5000066.8896
44.33376 -5.1 0.88 5000066.8896
44.33376 -5.16 0.88 5000066.8896
124.19999999999999 -5.38 0.88 5000200.0
124.19999999999999 -5.48 0.88 5000200.0
124.19999999999999 -5.84 0.88 5000200.0
124.19999999999999 -5.86 0.88 5000200.0
44.33376 -5.92 0.88 5000066.8896
15.15888 5.0 0.86 5000018.2648
15.15888 4.94 0.86 5000018.2648
15.15888 4.92 0.86 5000018.2648
11.29218 4.78 0.86 5000011.8203
11.29218 4.76 0.86 5000011.8203
11.29218 4.64 0.86 5000011.8203
11.29218 4.52 0.86 5000011.8203
11.29218 4.44 0.86 5000011.8203
11.29218 4.42 0.86 5000011.8203
124.19999999999999 1.34 0.86 5000200.0
21.41664 1.2 0.86 5000028.6944
21.41664 1.18 0.86 5000028.6944
21.41664 0.08 0.86 5000028.6944
44.33376 -0.14 0.86 5000066.8896
28.29636 -0.2 0.86 5000040.1606
44.33376 -0.26 0.86 5000066.8896
44.33376 -0.36 0.86 5000066.8896
28.29636 -0.42 0.86 5000040.1606
124.19999999999999 -0.48 0.86 5000200.0
28.29636 -0.6 0.86 5000040.1606
28.29636 -0.62 0.86 5000040.1606
44.33376 -0.78 0.86 5000066.8896
28.29636 -0.88 0.86 5000040.1606
44.33376 -0.92 0.86 5000066.8896
17.592840000000002 -0.98 0.86 5000022.3214
15.15888 -1.04 0.86 5000018.2648
124.19999999999999 -1.2 0.86 5000200.0
44.33376 -1.28 0.86 5000066.8896
28.29636 -1.34 0.86 5000040.1606
28.29636 -1.36 0.86 5000040.1606
28.29636 -1.48 0.86 5000040.1606
28.29636 -1.72 0.86 5000040.1606
28.29636 -1.84 0.86 5000040.1606
28.29636 -1.86 0.86 5000040.1606
15.15888 -1.92 0.86 5000018.2648
28.29636 -2.8 0.86 5000040.1606
44.33376 -3.24 0.86 5000066.8896
124.19999999999999 -3.52 0.86 5000200.0
44.33376 -3.6 0.86 5000066.8896
124.19999999999999 -4.3 0.86 5000200.0
44.33376 -4.5 0.86 5000066.8896
124.19999999999999 -4.66 0.86 5000200.0
44.33376 -4.7 0.86 5000066.8896
44.33376 -4.72 0.86 5000066.8896
124.19999999999999 -5.0 0.86 5000200.0
124.19999999999999 -5.4 0.86 5000200.0
124.19999999999999 -5.46 0.86 5000200.0
124.19999999999999 -5.48 0.86 5000200.0
124.19999999999999 -5.86 0.86 5000200.0
124.19999999999999 -5.88 0.86 5000200.0
44.33376 -5.94 0.86 5000066.8896
15.15888 5.0 0.84 5000018.2648
15.15888 4.94 0.84 5000018.2648
15.15888 4.92 0.84 5000018.2648
11.29218 4.76 0.84 5000011.8203
11.29218 4.52 0.84 5000011.8203
11.29218 4.44 0.84 5000011.8203
11.29218 4.42 0.84 5000011.8203
124.19999999999999 1.34 0.84 5000200.0
21.41664 1.2 0.84 5000028.6944
21.41664 1.18 0.84 5000028.6944
21.41664 0.38 0.84 5000028.6944
21.41664 0.08 0.84 5000028.6944
44.33376 -0.14 0.84 5000066.8896
28.29636 -0.16 0.84 5000040.1606
44.33376 -0.26 0.84 5000066.8896
124.19999999999999 -0.3 0.84 5000200.0
44.33376 -0.36 0.84 5000066.8896
28.29636 -0.42 0.84 5000040.1606
124.19999999999999 -0.48 0.84 5000200.0
15.15888 -0.6 0.84 5000018.2648
15.15888 -0.62 0.84 5000018.2648
44.33376 -0.78 0.84 5000066.8896
28.29636 -0.88 0.84 5000040.1606
44.33376 -0.92 0.84 5000066.8896
17.592840000000002 -0.98 0.84 5000022.3214
15.15888 -1.04 0.84 5000018.2648
124.19999999999999 -1.2 0.84 5000200.0
124.19999999999999 -1.22 0.84 5000200.0
44.33376 -1.28 0.84 5000066.8896
28.29636 -1.36 0.84 5000040.1606
28.29636 -1.48 0.84 5000040.1606
44.33376 -1.66 0.84 5000066.8896
28.29636 -1.72 0.84 5000040.1606
28.29636 -1.74 0.84 5000040.1606
28.29636 -1.84 0.84 5000040.1606
28.29636 -1.86 0.84 5000040.1606
28.29636 -2.28 0.84 5000040.1606
28.29636 -2.52 0.84 5000040.1606
28.29636 -2.8 0.84 5000040.1606
44.33376 -3.24 0.84 5000066.8896
124.19999999999999 -3.52 0.84 5000200.0
124.19999999999999 -3.54 0.84 5000200.0
44.33376 -3.6 0.84 5000066.8896
124.19999999999999 -4.3 0.84 5000200.0
44.33376 -4.38 0.84 5000066.8896
44.33376 -4.5 0.84 5000066.8896
124.19999999999999 -4.66 0.84 5000200.0
44.33376 -4.7 0.84 5000066.8896
44.33376 -4.72 0.84 5000066.8896
124.19999999999999 -5.0 0.84 5000200.0
44.33376 -5.06 0.84 5000066.8896
124.19999999999999 -5.42 0.84 5000200.0
124.19999999999999 -5.46 0.84 5000200.0
44.33376 -5.54 0.84 5000066.8896
124.19999999999999 -5.62 0.84 5000200.0
124.19999999999999 -5.88 0.84 5000200.0
124.19999999999999 -5.96 0.84 5000200.0
15.15888 4.92 0.82 5000018.2648
11.29218 4.74 0.82 5000011.8203
11.29218 4.52 0.82 5000011.8203
11.29218 4.44 0.82 5000011.8203
11.29218 4.42 0.82 5000011.8203
15.15888 2.94 0.82 5000018.2648
15.15888 2.9 0.82 5000018.2648
21.41664 0.38 0.82 5000028.6944
21.41664 0.08 0.82 5000028.6944
21.41664 -0.1 0.82 5000028.6944
124.19999999999999 -0.26 0.82 5000200.0
124.19999999999999 -0.3 0.82 5000200.0
44.33376 -0.36 0.82 5000066.8896
124.19999999999999 -0.48 0.82 5000200.0
15.15888 -0.6 0.82 5000018.2648
15.15888 -0.62 0.82 5000018.2648
44.33376 -0.78 0.82 5000066.8896
21.41664 -0.88 0.82 5000028.6944
44.33376 -0.92 0.82 5000066.8896
17.592840000000002 -0.98 0.82 5000022.3214
15.15888 -1.04 0.82 5000018.2648
124.19999999999999 -1.22 0.82 5000200.0
12.23748 -1.28 0.82 5000013.3958
28.29636 -1.36 0.82 5000040.1606
28.29636 -1.48 0.82 5000040.1606
124.19999999999999 -1.58 0.82 5000200.0
124.19999999999999 -1.6 0.82 5000200.0
44.33376 -1.66 0.82 5000066.8896
28.29636 -1.72 0.82 5000040.1606
28.29636 -2.28 0.82 5000040.1606
28.29636 -2.3 0.82 5000040.1606
28.29636 -2.8 0.82 5000040.1606
44.33376 -3.36 0.82 5000066.8896
124.19999999999999 -3.52 0.82 5000200.0
44.33376 -4.5 0.82 5000066.8896
124.19999999999999 -4.66 0.82 5000200.0
44.33376 -4.7 0.82 5000066.8896
44.33376 -4.72 0.82 5000066.8896
28.29636 -4.78 0.82 5000040.1606
124.19999999999999 -5.0 0.82 5000200.0
44.33376 -5.06 0.82 5000066.8896
44.33376 -5.08 0.82 5000066.8896
124.19999999999999 -5.42 0.82 5000200.0
124.19999999999999 -5.46 0.82 5000200.0
124.19999999999999 -5.62 0.82 5000200.0
124.19999999999999 -5.76 0.82 5000200.0
124.19999999999999 -5.78 0.82 5000200.0
124.19999999999999 -5.96 0.82 5000200.0
124.19999999999999 -6.04 0.82 5000200.0
15.15888 4.92 0.8 5000018.2648
11.29218 4.74 0.8 5000011.8203
11.29218 4.52 0.8 5000011.8203
11.29218 4.44 0.8 5000011.8203
11.29218 4.42 0.8 5000011.8203
15.15888 2.84 0.8 5000018.2648
21.41664 1.44 0.8 5000028.6944
21.41664 1.42 0.8 5000028.6944
12.23748 1.28 0.8 5000013.3958
12.23748 1.26 0.8 5000013.3958
21.41664 0.38 0.8 5000028.6944
21.41664 0.36 0.8 5000028.6944
21.41664 0.08 0.8 5000028.6944
28.29636 -0.14 0.8 5000040.1606
124.19999999999999 -0.32 0.8 5000200.0
44.33376 -0.38 0.8 5000066.8896
124.19999999999999 -0.48 0.8 5000200.0
44.33376 -0.54 0.8 5000066.8896
15.15888 -0.6 0.8 5000018.2648
15.15888 -0.62 0.8 5000018.2648
44.33376 -0.78 0.8 5000066.8896
44.33376 -0.86 0.8 5000066.8896
21.41664 -0.88 0.8 5000028.6944
44.33376 -0.92 0.8 5000066.8896
17.592840000000002 -0.98 0.8 5000022.3214
124.19999999999999 -1.22 0.8 5000200.0
12.23748 -1.28 0.8 5000013.3958
28.29636 -1.36 0.8 5000040.1606
9.442464 -1.42 0.8 5000008.73744
124.19999999999999 -1.6 0.8 5000200.0
44.33376 -1.66 0.8 5000066.8896
28.29636 -1.72 0.8 5000040.1606
28.29636 -1.84 0.8 5000040.1606
28.29636 -2.3 0.8 5000040.1606
28.29636 -2.44 0.8 5000040.1606
28.29636 -2.46 0.8 5000040.1606
28.29636 -2.48 0.8 5000040.1606
28.29636 -2.8 0.8 5000040.1606
44.33376 -3.62 0.8 5000066.8896
124.19999999999999 -4.64 0.8 5000200.0
124.19999999999999 -4.66 0.8 5000200.0
44.33376 -4.7 0.8 5000066.8896
44.33376 -4.72 0.8 5000066.8896
124.19999999999999 -5.0 0.8 5000200.0
124.19999999999999 -5.02 0.8 5000200.0
44.33376 -5.06 0.8 5000066.8896
44.33376 -5.08 0.8 5000066.8896
124.19999999999999 -5.46 0.8 5000200.0
124.19999999999999 -5.62 0.8 5000200.0
124.19999999999999 -5.96 0.8 5000200.0
124.19999999999999 -5.98 0.8 5000200.0
15.15888 4.92 0.78 5000018.2648
11.29218 4.74 0.78 5000011.8203
11.29218 4.52 0.78 5000011.8203
11.29218 4.42 0.78 5000011.8203
15.15888 2.84 0.78 5000018.2648
15.15888 2.82 0.78 5000018.2648
21.41664 1.44 0.78 5000028.6944
21.41664 1.42 0.78 5000028.6944
12.23748 1.26 0.78 5000013.3958
21.41664 0.38 0.78 5000028.6944
21.41664 0.28 0.78 5000028.6944
21.41664 0.22 0.78 5000028.6944
21.41664 0.12 0.78 5000028.6944
21.41664 -0.14 0.78 5000028.6944
124.19999999999999 -0.48 0.78 5000200.0
44.33376 -0.54 0.78 5000066.8896
15.15888 -0.62 0.78 5000018.2648
44.33376 -0.86 0.78 5000066.8896
21.41664 -0.88 0.78 5000028.6944
44.33376 -0.92 0.78 5000066.8896
17.592840000000002 -0.98 0.78 5000022.3214
15.15888 -1.04 0.78 5000018.2648
124.19999999999999 -1.22 0.78 5000200.0
12.23748 -1.28 0.78 5000013.3958
10.54584 -1.42 0.78 5000010.5764
124.19999999999999 -1.6 0.78 5000200.0
44.33376 -1.66 0.78 5000066.8896
28.29636 -2.44 0.78 5000040.1606
28.29636 -2.46 0.78 5000040.1606
28.29636 -2.48 0.78 5000040.1606
124.19999999999999 -4.3 0.78 5000200.0
124.19999999999999 -4.64 0.78 5000200.0
124.19999999999999 -4.66 0.78 5000200.0
124.19999999999999 -4.96 0.78 5000200.0
124.19999999999999 -5.0 0.78 5000200.0
124.19999999999999 -5.02 0.78 5000200.0
44.33376 -5.06 0.78 5000066.8896
44.33376 -5.08 0.78 5000066.8896
124.19999999999999 -5.26 0.78 5000200.0
124.19999999999999 -5.3 0.78 5000200.0
124.19999999999999 -5.32 0.78 5000200.0
124.19999999999999 -5.36 0.78 5000200.0
124.19999999999999 -5.46 0.78 5000200.0
124.19999999999999 -5.98 0.78 5000200.0
124.19999999999999 -6.06 0.78 5000200.0
44.33376 -6.12 0.78 5000066.8896
13.4736 5.0 0.76 5000015.456
15.15888 4.92 0.76 5000018.2648
11.29218 4.74 0.76 5000011.8203
11.29218 4.52 0.76 5000011.8203
11.29218 4.5 0.76 5000011.8203
21.41664 1.44 0.76 5000028.6944
21.41664 1.42 0.76 5000028.6944
21.41664 1.18 0.76 5000028.6944
21.41664 0.24 0.76 5000028.6944
124.19999999999999 0.04 0.76 5000200.0
28.29636 -0.16 0.76 5000040.1606
124.19999999999999 -0.22 0.76 5000200.0
124.19999999999999 -0.24 0.76 5000200.0
124.19999999999999 -0.46 0.76 5000200.0
124.19999999999999 -0.48 0.76 5000200.0
44.33376 -0.54 0.76 5000066.8896
15.15888 -0.58 0.76 5000018.2648
15.15888 -0.62 0.76 5000018.2648
13.4736 -0.64 0.76 5000015.456
11.29218 -0.76 0.76 5000011.8203
11.29218 -0.8 0.76 5000011.8203
44.33376 -0.86 0.76 5000066.8896
21.41664 -0.88 0.76 5000028.6944
44.33376 -0.92 0.76 5000066.8896
17.592840000000002 -0.98 0.76 5000022.3214
15.15888 -1.04 0.76 5000018.2648
124.19999999999999 -1.22 0.76 5000200.0
44.33376 -1.26 0.76 5000066.8896
28.29636 -1.28 0.76 5000040.1606
21.41664 -1.4 0.76 5000028.6944
28.29636 -1.94 0.76 5000040.1606
44.33376 -2.08 0.76 5000066.8896
28.29636 -2.1 0.76 5000040.1606
28.29636 -2.14 0.76 5000040.1606
28.29636 -2.16 0.76 5000040.1606
17.592840000000002 -2.3 0.76 5000022.3214
44.33376 -2.42 0.76 5000066.8896
28.29636 -2.46 0.76 5000040.1606
28.29636 -2.8 0.76 5000040.1606
44.33376 -3.62 0.76 5000066.8896
124.19999999999999 -4.44 0.76 5000200.0
44.33376 -4.5 0.76 5000066.8896
124.19999999999999 -5.02 0.76 5000200.0
124.19999999999999 -5.3 0.76 5000200.0
124.19999999999999 -5.98 0.76 5000200.0
124.19999999999999 -6.06 0.76 5000200.0
44.33376 -6.12 0.76 5000066.8896
21.41664 -6.26 0.76 5000028.6944
11.29218 4.74 0.74 5000011.8203
11.29218 4.52 0.74 5000011.8203
11.29218 4.5 0.74 5000011.8203
21.41664 1.44 0.74 5000028.6944
21.41664 1.42 0.74 5000028.6944
124.19999999999999 1.34 0.74 5000200.0
21.41664 1.2 0.74 5000028.6944
21.41664 1.18 0.74 5000028.6944
21.41664 0.42 0.74 5000028.6944
28.29636 -0.16 0.74 5000040.1606
124.19999999999999 -0.26 0.74 5000200.0
124.19999999999999 -0.3 0.74 5000200.0
21.41664 -0.44 0.74 5000028.6944
21.41664 -0.46 0.74 5000028.6944
21.41664 -0.48 0.74 5000028.6944
15.15888 -0.54 0.74 5000018.2648
15.15888 -0.58 0.74 5000018.2648
15.15888 -0.62 0.74 5000018.2648
13.4736 -0.64 0.74 5000015.456
44.33376 -0.86 0.74 5000066.8896
28.29636 -0.88 0.74 5000040.1606
44.33376 -0.92 0.74 5000066.8896
17.592840000000002 -0.98 0.74 5000022.3214
44.33376 -1.26 0.74 5000066.8896
28.29636 -1.32 0.74 5000040.1606
21.41664 -1.4 0.74 5000028.6944
21.41664 -1.58 0.74 5000028.6944
28.29636 -1.92 0.74 5000040.1606
28.29636 -1.94 0.74 5000040.1606
44.33376 -2.08 0.74 5000066.8896
28.29636 -2.14 0.74 5000040.1606
17.592840000000002 -2.28 0.74 5000022.3214
17.592840000000002 -2.3 0.74 5000022.3214
28.29636 -2.42 0.74 5000040.1606
28.29636 -2.46 0.74 5000040.1606
28.29636 -2.8 0.74 5000040.1606
44.33376 -3.6 0.74 5000066.8896
44.33376 -3.62 0.74 5000066.8896
124.19999999999999 -4.44 0.74 5000200.0
44.33376 -4.5 0.74 5000066.8896
124.19999999999999 -5.16 0.74 5000200.0
124.19999999999999 -5.54 0.74 5000200.0
124.19999999999999 -5.62 0.74 5000200.0
44.33376 -5.7 0.74 5000066.8896
124.19999999999999 -5.82 0.74 5000200.0
124.19999999999999 -6.04 0.74 5000200.0
124.19999999999999 -6.06 0.74 5000200.0
44.33376 -6.12 0.74 5000066.8896
28.29636 -6.2 0.74 5000040.1606
15.15888 4.92 0.72 5000018.2648
11.29218 4.74 0.72 5000011.8203
11.29218 4.52 0.72 5000011.8203
11.29218 4.5 0.72 5000011.8203
15.15888 2.96 0.72 5000018.2648
21.41664 1.44 0.72 5000028.6944
21.41664 1.2 0.72 5000028.6944
21.41664 1.18 0.72 5000028.6944
21.41664 0.42 0.72 5000028.6944
124.19999999999999 -0.26 0.72 5000200.0
124.19999999999999 -0.3 0.72 5000200.0
21.41664 -0.44 0.72 5000028.6944
21.41664 -0.46 0.72 5000028.6944
21.41664 -0.48 0.72 5000028.6944
15.15888 -0.58 0.72 5000018.2648
13.4736 -0.64 0.72 5000015.456
