VERSION .7
FIELDS x y z rgb
SIZE 4 4 4 4
TYPE F F F F
COUNT 1 1 1 1
WIDTH 1550
HEIGHT 1
VIEWPOINT 0 0 0 1 0 0 0
POINTS 1550
DATA ascii
124.19999999999999 -4.3 -0.04 200.0
124.19999999999999 -4.32 -0.04 200.0
44.33376 -4.36 -0.04 66.8896
44.33376 -4.38 -0.04 66.8896
44.33376 -4.9 -0.04 66.8896
28.29636 -4.98 -0.04 40.1606
21.41664 -5.04 -0.04 28.6944
28.29636 -5.66 -0.04 40.1606
15.15888 4.44 -0.06 18.2648
15.15888 4.42 -0.06 18.2648
17.592840000000002 3.46 -0.06 22.3214
17.592840000000002 3.44 -0.06 22.3214
17.592840000000002 3.0 -0.06 22.3214
17.592840000000002 2.98 -0.06 22.3214
17.592840000000002 2.18 -0.06 22.3214
17.592840000000002 2.12 -0.06 22.3214
17.592840000000002 1.76 -0.06 22.3214
17.592840000000002 1.74 -0.06 22.3214
21.41664 0.86 -0.06 28.6944
21.41664 0.8 -0.06 28.6944
21.41664 0.78 -0.06 28.6944
21.41664 0.66 -0.06 28.6944
21.41664 0.38 -0.06 28.6944
21.41664 0.26 -0.06 28.6944
17.592840000000002 0.2 -0.06 22.3214
21.41664 -0.06 -0.06 28.6944
28.29636 -0.32 -0.06 40.1606
28.29636 -0.36 -0.06 40.1606
124.19999999999999 -0.58 -0.06 200.0
124.19999999999999 -0.62 -0.06 200.0
21.41664 -0.74 -0.06 28.6944
17.592840000000002 -0.8 -0.06 22.3214
15.15888 -0.9 -0.06 18.2648
12.23748 -1.02 -0.06 13.3958
12.23748 -1.06 -0.06 13.3958
11.29218 -1.08 -0.06 11.8203
9.941628000000001 -1.18 -0.06 9.56938
9.941628000000001 -1.2 -0.06 9.56938
28.29636 -1.34 -0.06 40.1606
44.33376 -1.94 -0.06 66.8896
44.33376 -2.02 -0.06 66.8896
44.33376 -2.04 -0.06 66.8896
28.29636 -2.26 -0.06 40.1606
44.33376 -2.8 -0.06 66.8896
124.19999999999999 -2.88 -0.06 200.0
44.33376 -2.96 -0.06 66.8896
44.33376 -3.24 -0.06 66.8896
44.33376 -3.26 -0.06 66.8896
44.33376 -3.5 -0.06 66.8896
124.19999999999999 -3.64 -0.06 200.0
124.19999999999999 -3.94 -0.06 200.0
124.19999999999999 -3.96 -0.06 200.0
44.33376 -3.98 -0.06 66.8896
44.33376 -4.0 -0.06 66.8896
44.33376 -4.02 -0.06 66.8896
124.19999999999999 -4.3 -0.06 200.0
124.19999999999999 -4.32 -0.06 200.0
44.33376 -4.36 -0.06 66.8896
28.29636 -4.98 -0.06 40.1606
124.19999999999999 -5.66 -0.06 200.0
124.19999999999999 -5.98 -0.06 200.0
124.19999999999999 -6.04 -0.06 200.0
17.592840000000002 3.48 -0.08 22.3214
17.592840000000002 3.46 -0.08 22.3214
17.592840000000002 3.44 -0.08 22.3214
17.592840000000002 3.0 -0.08 22.3214
17.592840000000002 2.98 -0.08 22.3214
17.592840000000002 2.68 -0.08 22.3214
17.592840000000002 2.52 -0.08 22.3214
17.592840000000002 2.16 -0.08 22.3214
17.592840000000002 1.76 -0.08 22.3214
17.592840000000002 1.74 -0.08 22.3214
21.41664 0.86 -0.08 28.6944
21.41664 0.78 -0.08 28.6944
21.41664 0.68 -0.08 28.6944
21.41664 0.66 -0.08 28.6944
15.15888 0.56 -0.08 18.2648
21.41664 0.38 -0.08 28.6944
21.41664 0.26 -0.08 28.6944
17.592840000000002 0.2 -0.08 22.3214
21.41664 -0.06 -0.08 28.6944
28.29636 -0.32 -0.08 40.1606
124.19999999999999 -0.58 -0.08 200.0
21.41664 -0.72 -0.08 28.6944
21.41664 -0.74 -0.08 28.6944
15.15888 -0.9 -0.08 18.2648
11.29218 -1.08 -0.08 11.8203
9.941628000000001 -1.2 -0.08 9.56938
28.29636 -1.32 -0.08 40.1606
28.29636 -1.34 -0.08 40.1606
44.33376 -1.62 -0.08 66.8896
28.29636 -1.68 -0.08 40.1606
44.33376 -1.94 -0.08 66.8896
44.33376 -2.04 -0.08 66.8896
28.29636 -2.26 -0.08 40.1606
124.19999999999999 -2.88 -0.08 200.0
44.33376 -2.96 -0.08 66.8896
28.29636 -3.02 -0.08 40.1606
124.19999999999999 -3.24 -0.08 200.0
124.19999999999999 -3.26 -0.08 200.0
44.33376 -3.32 -0.08 66.8896
124.19999999999999 -3.42 -0.08 200.0
44.33376 -3.48 -0.08 66.8896
44.33376 -3.5 -0.08 66.8896
44.33376 -3.88 -0.08 66.8896
44.33376 -3.94 -0.08 66.8896
44.33376 -3.98 -0.08 66.8896
124.19999999999999 -4.72 -0.08 200.0
44.33376 -4.82 -0.08 66.8896
28.29636 -4.98 -0.08 40.1606
124.19999999999999 -5.92 -0.08 200.0
124.19999999999999 -5.94 -0.08 200.0
28.29636 -6.1 -0.08 40.1606
124.19999999999999 -6.16 -0.08 200.0
44.33376 -6.22 -0.08 66.8896
44.33376 -6.24 -0.08 66.8896
44.33376 -6.28 -0.08 66.8896
21.41664 -6.34 -0.08 28.6944
17.592840000000002 -6.4 -0.08 22.3214
17.592840000000002 -6.42 -0.08 22.3214
15.15888 -6.46 -0.08 18.2648
15.15888 -6.48 -0.08 18.2648
13.4736 -6.54 -0.08 15.456
12.23748 -6.6 -0.08 13.3958
10.54584 -6.68 -0.08 10.5764
9.442464 -6.72 -0.08 8.73744
9.442464 -6.74 -0.08 8.73744
17.592840000000002 3.5 -0.1 22.3214
17.592840000000002 3.48 -0.1 22.3214
17.592840000000002 2.98 -0.1 22.3214
17.592840000000002 2.72 -0.1 22.3214
17.592840000000002 2.7 -0.1 22.3214
17.592840000000002 2.68 -0.1 22.3214
28.29636 2.62 -0.1 40.1606
28.29636 2.6 -0.1 40.1606
17.592840000000002 2.52 -0.1 22.3214
17.592840000000002 2.5 -0.1 22.3214
17.592840000000002 1.8 -0.1 22.3214
21.41664 1.46 -0.1 28.6944
21.41664 0.68 -0.1 28.6944
21.41664 0.66 -0.1 28.6944
15.15888 0.56 -0.1 18.2648
28.29636 0.44 -0.1 40.1606
21.41664 0.38 -0.1 28.6944
21.41664 0.26 -0.1 28.6944
17.592840000000002 0.2 -0.1 22.3214
21.41664 -0.06 -0.1 28.6944
124.19999999999999 -0.58 -0.1 200.0
28.29636 -0.68 -0.1 40.1606
28.29636 -0.72 -0.1 40.1606
21.41664 -0.74 -0.1 28.6944
17.592840000000002 -0.82 -0.1 22.3214
12.23748 -1.02 -0.1 13.3958
11.29218 -1.08 -0.1 11.8203
44.33376 -1.62 -0.1 66.8896
28.29636 -1.68 -0.1 40.1606
17.592840000000002 -1.82 -0.1 22.3214
44.33376 -1.94 -0.1 66.8896
44.33376 -2.04 -0.1 66.8896
28.29636 -2.26 -0.1 40.1606
124.19999999999999 -2.88 -0.1 200.0
44.33376 -2.96 -0.1 66.8896
28.29636 -3.02 -0.1 40.1606
124.19999999999999 -3.24 -0.1 200.0
44.33376 -3.32 -0.1 66.8896
124.19999999999999 -3.4 -0.1 200.0
124.19999999999999 -3.42 -0.1 200.0
44.33376 -3.48 -0.1 66.8896
44.33376 -3.5 -0.1 66.8896
44.33376 -3.88 -0.1 66.8896
44.33376 -3.9 -0.1 66.8896
44.33376 -3.98 -0.1 66.8896
124.19999999999999 -4.7 -0.1 200.0
124.19999999999999 -4.72 -0.1 200.0
44.33376 -4.82 -0.1 66.8896
28.29636 -4.88 -0.1 40.1606
28.29636 -4.98 -0.1 40.1606
28.29636 -5.02 -0.1 40.1606
17.592840000000002 -5.08 -0.1 22.3214
17.592840000000002 -5.12 -0.1 22.3214
28.29636 -5.32 -0.1 40.1606
124.19999999999999 -5.68 -0.1 200.0
124.19999999999999 -5.7 -0.1 200.0
44.33376 -5.74 -0.1 66.8896
44.33376 -5.76 -0.1 66.8896
124.19999999999999 -5.82 -0.1 200.0
124.19999999999999 -5.84 -0.1 200.0
124.19999999999999 -5.86 -0.1 200.0
124.19999999999999 -5.92 -0.1 200.0
124.19999999999999 -5.94 -0.1 200.0
44.33376 -6.12 -0.1 66.8896
124.19999999999999 -6.16 -0.1 200.0
44.33376 -6.22 -0.1 66.8896
44.33376 -6.24 -0.1 66.8896
44.33376 -6.28 -0.1 66.8896
21.41664 -6.34 -0.1 28.6944
17.592840000000002 -6.4 -0.1 22.3214
17.592840000000002 2.7 -0.12 22.3214
17.592840000000002 2.52 -0.12 22.3214
17.592840000000002 2.5 -0.12 22.3214
17.592840000000002 1.82 -0.12 22.3214
17.592840000000002 1.8 -0.12 22.3214
11.29218 1.58 -0.12 11.8203
11.29218 1.56 -0.12 11.8203
11.29218 1.54 -0.12 11.8203
11.29218 1.52 -0.12 11.8203
21.41664 1.48 -0.12 28.6944
21.41664 1.46 -0.12 28.6944
21.41664 1.44 -0.12 28.6944
21.41664 1.18 -0.12 28.6944
21.41664 0.7 -0.12 28.6944
21.41664 0.68 -0.12 28.6944
21.41664 0.5 -0.12 28.6944
28.29636 0.44 -0.12 40.1606
21.41664 0.38 -0.12 28.6944
21.41664 0.26 -0.12 28.6944
21.41664 -0.38 -0.12 28.6944
28.29636 -0.68 -0.12 40.1606
21.41664 -0.74 -0.12 28.6944
17.592840000000002 -0.82 -0.12 22.3214
12.23748 -0.98 -0.12 13.3958
12.23748 -1.02 -0.12 13.3958
11.29218 -1.08 -0.12 11.8203
28.29636 -1.26 -0.12 40.1606
28.29636 -1.3 -0.12 40.1606
15.15888 -1.46 -0.12 18.2648
44.33376 -1.62 -0.12 66.8896
28.29636 -1.68 -0.12 40.1606
44.33376 -1.94 -0.12 66.8896
44.33376 -2.04 -0.12 66.8896
28.29636 -2.1 -0.12 40.1606
28.29636 -2.12 -0.12 40.1606
28.29636 -2.16 -0.12 40.1606
17.592840000000002 -2.26 -0.12 22.3214
124.19999999999999 -2.86 -0.12 200.0
124.19999999999999 -2.88 -0.12 200.0
44.33376 -2.96 -0.12 66.8896
28.29636 -3.02 -0.12 40.1606
124.19999999999999 -3.24 -0.12 200.0
44.33376 -3.32 -0.12 66.8896
44.33376 -3.4 -0.12 66.8896
44.33376 -3.42 -0.12 66.8896
44.33376 -3.5 -0.12 66.8896
44.33376 -3.88 -0.12 66.8896
44.33376 -3.9 -0.12 66.8896
44.33376 -3.98 -0.12 66.8896
44.33376 -4.82 -0.12 66.8896
28.29636 -4.88 -0.12 40.1606
28.29636 -4.98 -0.12 40.1606
28.29636 -5.02 -0.12 40.1606
124.19999999999999 -5.68 -0.12 200.0
124.19999999999999 -5.7 -0.12 200.0
44.33376 -5.76 -0.12 66.8896
124.19999999999999 -5.84 -0.12 200.0
124.19999999999999 -5.92 -0.12 200.0
124.19999999999999 -5.98 -0.12 200.0
124.19999999999999 -6.0 -0.12 200.0
124.19999999999999 -6.02 -0.12 200.0
44.33376 -6.06 -0.12 66.8896
17.592840000000002 2.52 -0.14 22.3214
17.592840000000002 2.5 -0.14 22.3214
17.592840000000002 1.82 -0.14 22.3214
17.592840000000002 1.8 -0.14 22.3214
11.29218 1.58 -0.14 11.8203
21.41664 1.48 -0.14 28.6944
21.41664 1.46 -0.14 28.6944
21.41664 1.18 -0.14 28.6944
21.41664 0.7 -0.14 28.6944
21.41664 0.68 -0.14 28.6944
21.41664 0.64 -0.14 28.6944
15.15888 0.56 -0.14 18.2648
21.41664 0.54 -0.14 28.6944
21.41664 0.5 -0.14 28.6944
21.41664 0.38 -0.14 28.6944
21.41664 0.26 -0.14 28.6944
17.592840000000002 0.2 -0.14 22.3214
28.29636 -0.68 -0.14 40.1606
21.41664 -0.74 -0.14 28.6944
17.592840000000002 -0.82 -0.14 22.3214
12.23748 -1.02 -0.14 13.3958
28.29636 -1.08 -0.14 40.1606
28.29636 -1.1 -0.14 40.1606
28.29636 -1.26 -0.14 40.1606
28.29636 -1.3 -0.14 40.1606
28.29636 -1.46 -0.14 40.1606
44.33376 -1.94 -0.14 66.8896
44.33376 -2.04 -0.14 66.8896
28.29636 -2.1 -0.14 40.1606
28.29636 -2.12 -0.14 40.1606
17.592840000000002 -2.26 -0.14 22.3214
17.592840000000002 -2.3 -0.14 22.3214
124.19999999999999 -2.88 -0.14 200.0
44.33376 -2.96 -0.14 66.8896
28.29636 -3.02 -0.14 40.1606
124.19999999999999 -3.24 -0.14 200.0
124.19999999999999 -3.28 -0.14 200.0
44.33376 -3.32 -0.14 66.8896
44.33376 -3.4 -0.14 66.8896
44.33376 -3.42 -0.14 66.8896
44.33376 -3.5 -0.14 66.8896
44.33376 -3.88 -0.14 66.8896
44.33376 -3.98 -0.14 66.8896
124.19999999999999 -4.7 -0.14 200.0
124.19999999999999 -4.72 -0.14 200.0
44.33376 -4.82 -0.14 66.8896
21.41664 -4.92 -0.14 28.6944
28.29636 -4.98 -0.14 40.1606
124.19999999999999 -5.98 -0.14 200.0
124.19999999999999 -6.0 -0.14 200.0
124.19999999999999 -6.02 -0.14 200.0
44.33376 -6.06 -0.14 66.8896
44.33376 -6.1 -0.14 66.8896
28.29636 -6.12 -0.14 40.1606
17.592840000000002 2.64 -0.16 22.3214
17.592840000000002 2.52 -0.16 22.3214
17.592840000000002 2.5 -0.16 22.3214
17.592840000000002 1.82 -0.16 22.3214
17.592840000000002 1.8 -0.16 22.3214
21.41664 0.7 -0.16 28.6944
21.41664 0.68 -0.16 28.6944
21.41664 0.64 -0.16 28.6944
21.41664 0.5 -0.16 28.6944
28.29636 0.44 -0.16 40.1606
21.41664 0.38 -0.16 28.6944
21.41664 0.26 -0.16 28.6944
17.592840000000002 0.2 -0.16 22.3214
15.15888 -0.52 -0.16 18.2648
17.592840000000002 -0.82 -0.16 22.3214
28.29636 -1.08 -0.16 40.1606
44.33376 -1.9 -0.16 66.8896
44.33376 -1.94 -0.16 66.8896
44.33376 -2.04 -0.16 66.8896
28.29636 -2.1 -0.16 40.1606
21.41664 -2.12 -0.16 28.6944
44.33376 -2.96 -0.16 66.8896
124.19999999999999 -3.24 -0.16 200.0
124.19999999999999 -3.28 -0.16 200.0
44.33376 -3.32 -0.16 66.8896
44.33376 -3.4 -0.16 66.8896
44.33376 -3.42 -0.16 66.8896
44.33376 -3.5 -0.16 66.8896
44.33376 -3.86 -0.16 66.8896
124.19999999999999 -4.52 -0.16 200.0
124.19999999999999 -4.72 -0.16 200.0
44.33376 -4.82 -0.16 66.8896
44.33376 -4.86 -0.16 66.8896
21.41664 -4.92 -0.16 28.6944
28.29636 -4.98 -0.16 40.1606
28.29636 -5.02 -0.16 40.1606
124.19999999999999 -5.58 -0.16 200.0
28.29636 -5.66 -0.16 40.1606
124.19999999999999 -5.88 -0.16 200.0
44.33376 -6.06 -0.16 66.8896
28.29636 -6.12 -0.16 40.1606
28.29636 -6.16 -0.16 40.1606
28.29636 -6.2 -0.16 40.1606
17.592840000000002 2.52 -0.18 22.3214
17.592840000000002 2.5 -0.18 22.3214
17.592840000000002 1.82 -0.18 22.3214
21.41664 0.5 -0.18 28.6944
28.29636 0.48 -0.18 40.1606
28.29636 0.46 -0.18 40.1606
28.29636 0.44 -0.18 40.1606
21.41664 0.4 -0.18 28.6944
21.41664 0.38 -0.18 28.6944
21.41664 0.36 -0.18 28.6944
28.29636 0.32 -0.18 40.1606
21.41664 0.28 -0.18 28.6944
21.41664 0.26 -0.18 28.6944
17.592840000000002 0.2 -0.18 22.3214
10.54584 -0.02 -0.18 10.5764
9.023147999999999 -0.08 -0.18 8.03858
9.023147999999999 -0.1 -0.18 8.03858
9.023147999999999 -0.12 -0.18 8.03858
9.442464 -0.14 -0.18 8.73744
124.19999999999999 -0.16 -0.18 200.0
124.19999999999999 -0.18 -0.18 200.0
124.19999999999999 -0.2 -0.18 200.0
124.19999999999999 -0.22 -0.18 200.0
44.33376 -0.24 -0.18 66.8896
21.41664 -0.26 -0.18 28.6944
15.15888 -0.32 -0.18 18.2648
15.15888 -0.34 -0.18 18.2648
15.15888 -0.36 -0.18 18.2648
17.592840000000002 -0.82 -0.18 22.3214
124.19999999999999 -0.96 -0.18 200.0
28.29636 -1.08 -0.18 40.1606
28.29636 -1.42 -0.18 40.1606
28.29636 -1.5 -0.18 40.1606
28.29636 -1.52 -0.18 40.1606
28.29636 -1.54 -0.18 40.1606
124.19999999999999 -1.8 -0.18 200.0
124.19999999999999 -1.82 -0.18 200.0
44.33376 -1.9 -0.18 66.8896
44.33376 -1.94 -0.18 66.8896
44.33376 -2.0 -0.18 66.8896
44.33376 -2.04 -0.18 66.8896
21.41664 -2.1 -0.18 28.6944
28.29636 -2.5 -0.18 40.1606
44.33376 -2.96 -0.18 66.8896
124.19999999999999 -3.24 -0.18 200.0
124.19999999999999 -3.28 -0.18 200.0
44.33376 -3.32 -0.18 66.8896
44.33376 -3.4 -0.18 66.8896
44.33376 -3.42 -0.18 66.8896
28.29636 -3.46 -0.18 40.1606
44.33376 -3.48 -0.18 66.8896
44.33376 -3.5 -0.18 66.8896
44.33376 -3.54 -0.18 66.8896
15.15888 -3.62 -0.18 18.2648
44.33376 -3.86 -0.18 66.8896
44.33376 -4.0 -0.18 66.8896
124.19999999999999 -4.16 -0.18 200.0
124.19999999999999 -4.76 -0.18 200.0
44.33376 -4.82 -0.18 66.8896
44.33376 -4.86 -0.18 66.8896
21.41664 -4.92 -0.18 28.6944
28.29636 -4.98 -0.18 40.1606
28.29636 -5.66 -0.18 40.1606
28.29636 -5.72 -0.18 40.1606
124.19999999999999 -5.88 -0.18 200.0
124.19999999999999 -5.94 -0.18 200.0
124.19999999999999 -6.0 -0.18 200.0
44.33376 -6.06 -0.18 66.8896
28.29636 -6.12 -0.18 40.1606
28.29636 -6.16 -0.18 40.1606
28.29636 -6.2 -0.18 40.1606
13.4736 -6.48 -0.18 15.456
17.592840000000002 2.52 -0.2 22.3214
17.592840000000002 2.5 -0.2 22.3214
17.592840000000002 2.44 -0.2 22.3214
17.592840000000002 1.86 -0.2 22.3214
17.592840000000002 1.82 -0.2 22.3214
21.41664 0.5 -0.2 28.6944
21.41664 0.38 -0.2 28.6944
9.023147999999999 -0.1 -0.2 8.03858
124.19999999999999 -0.2 -0.2 200.0
15.15888 -0.32 -0.2 18.2648
21.41664 -0.72 -0.2 28.6944
17.592840000000002 -0.84 -0.2 22.3214
11.29218 -1.06 -0.2 11.8203
28.29636 -1.5 -0.2 40.1606
124.19999999999999 -1.78 -0.2 200.0
124.19999999999999 -1.8 -0.2 200.0
44.33376 -1.94 -0.2 66.8896
21.41664 -2.1 -0.2 28.6944
44.33376 -2.96 -0.2 66.8896
124.19999999999999 -3.24 -0.2 200.0
124.19999999999999 -3.28 -0.2 200.0
44.33376 -3.32 -0.2 66.8896
44.33376 -3.4 -0.2 66.8896
28.29636 -3.42 -0.2 40.1606
28.29636 -3.46 -0.2 40.1606
28.29636 -3.5 -0.2 40.1606
44.33376 -4.02 -0.2 66.8896
124.19999999999999 -4.16 -0.2 200.0
44.33376 -4.22 -0.2 66.8896
124.19999999999999 -4.48 -0.2 200.0
124.19999999999999 -4.72 -0.2 200.0
124.19999999999999 -4.76 -0.2 200.0
44.33376 -4.82 -0.2 66.8896
44.33376 -4.86 -0.2 66.8896
28.29636 -4.98 -0.2 40.1606
28.29636 -5.66 -0.2 40.1606
28.29636 -5.72 -0.2 40.1606
124.19999999999999 -5.94 -0.2 200.0
124.19999999999999 -5.98 -0.2 200.0
44.33376 -6.06 -0.2 66.8896
28.29636 -6.12 -0.2 40.1606
28.29636 -6.2 -0.2 40.1606
21.41664 -6.26 -0.2 28.6944
17.592840000000002 2.52 -0.22 22.3214
17.592840000000002 2.5 -0.22 22.3214
17.592840000000002 1.86 -0.22 22.3214
17.592840000000002 1.82 -0.22 22.3214
21.41664 0.54 -0.22 28.6944
28.29636 -0.64 -0.22 40.1606
21.41664 -0.7 -0.22 28.6944
21.41664 -0.72 -0.22 28.6944
28.29636 -0.96 -0.22 40.1606
11.29218 -1.02 -0.22 11.8203
11.29218 -1.04 -0.22 11.8203
44.33376 -2.96 -0.22 66.8896
44.33376 -3.32 -0.22 66.8896
44.33376 -3.68 -0.22 66.8896
44.33376 -3.82 -0.22 66.8896
44.33376 -4.0 -0.22 66.8896
44.33376 -4.02 -0.22 66.8896
124.19999999999999 -4.16 -0.22 200.0
44.33376 -4.22 -0.22 66.8896
124.19999999999999 -4.48 -0.22 200.0
124.19999999999999 -4.64 -0.22 200.0
124.19999999999999 -4.66 -0.22 200.0
124.19999999999999 -4.7 -0.22 200.0
124.19999999999999 -4.72 -0.22 200.0
44.33376 -4.76 -0.22 66.8896
44.33376 -4.78 -0.22 66.8896
44.33376 -4.82 -0.22 66.8896
44.33376 -4.86 -0.22 66.8896
21.41664 -4.92 -0.22 28.6944
28.29636 -4.98 -0.22 40.1606
13.4736 -5.1 -0.22 15.456
28.29636 -5.66 -0.22 40.1606
124.19999999999999 -5.98 -0.22 200.0
17.592840000000002 2.52 -0.24 22.3214
17.592840000000002 2.5 -0.24 22.3214
17.592840000000002 1.82 -0.24 22.3214
28.29636 -0.64 -0.24 40.1606
21.41664 -0.7 -0.24 28.6944
28.29636 -0.96 -0.24 40.1606
12.23748 -1.0 -0.24 13.3958
11.29218 -1.02 -0.24 11.8203
11.29218 -1.04 -0.24 11.8203
28.29636 -1.86 -0.24 40.1606
44.33376 -2.66 -0.24 66.8896
44.33376 -2.84 -0.24 66.8896
28.29636 -2.9 -0.24 40.1606
44.33376 -3.64 -0.24 66.8896
44.33376 -3.68 -0.24 66.8896
44.33376 -3.82 -0.24 66.8896
44.33376 -3.96 -0.24 66.8896
44.33376 -4.0 -0.24 66.8896
44.33376 -4.02 -0.24 66.8896
124.19999999999999 -4.16 -0.24 200.0
44.33376 -4.22 -0.24 66.8896
124.19999999999999 -4.48 -0.24 200.0
124.19999999999999 -4.52 -0.24 200.0
124.19999999999999 -4.7 -0.24 200.0
124.19999999999999 -4.72 -0.24 200.0
44.33376 -4.82 -0.24 66.8896
44.33376 -4.86 -0.24 66.8896
28.29636 -4.98 -0.24 40.1606
124.19999999999999 -5.66 -0.24 200.0
124.19999999999999 -5.98 -0.24 200.0
17.592840000000002 2.52 -0.26 22.3214
17.592840000000002 2.5 -0.26 22.3214
17.592840000000002 2.44 -0.26 22.3214
17.592840000000002 1.86 -0.26 22.3214
17.592840000000002 1.82 -0.26 22.3214
17.592840000000002 1.8 -0.26 22.3214
21.41664 0.56 -0.26 28.6944
28.29636 -0.64 -0.26 40.1606
21.41664 -0.7 -0.26 28.6944
21.41664 -0.76 -0.26 28.6944
28.29636 -0.96 -0.26 40.1606
12.23748 -1.0 -0.26 13.3958
11.29218 -1.02 -0.26 11.8203
11.29218 -1.08 -0.26 11.8203
28.29636 -1.86 -0.26 40.1606
21.41664 -1.92 -0.26 28.6944
13.4736 -2.14 -0.26 15.456
28.29636 -2.9 -0.26 40.1606
28.29636 -2.92 -0.26 40.1606
44.33376 -3.64 -0.26 66.8896
44.33376 -3.68 -0.26 66.8896
44.33376 -3.82 -0.26 66.8896
44.33376 -3.96 -0.26 66.8896
44.33376 -4.0 -0.26 66.8896
44.33376 -4.02 -0.26 66.8896
124.19999999999999 -4.16 -0.26 200.0
44.33376 -4.22 -0.26 66.8896
44.33376 -4.52 -0.26 66.8896
28.29636 -4.98 -0.26 40.1606
28.29636 -5.28 -0.26 40.1606
124.19999999999999 -5.64 -0.26 200.0
124.19999999999999 -5.84 -0.26 200.0
124.19999999999999 -5.96 -0.26 200.0
124.19999999999999 -5.98 -0.26 200.0
124.19999999999999 -6.02 -0.26 200.0
44.33376 -6.1 -0.26 66.8896
17.592840000000002 2.52 -0.28 22.3214
17.592840000000002 2.5 -0.28 22.3214
17.592840000000002 2.36 -0.28 22.3214
17.592840000000002 1.82 -0.28 22.3214
17.592840000000002 1.8 -0.28 22.3214
21.41664 0.56 -0.28 28.6944
21.41664 0.16 -0.28 28.6944
21.41664 0.12 -0.28 28.6944
13.4736 -0.02 -0.28 15.456
13.4736 -0.04 -0.28 15.456
44.33376 -0.6 -0.28 66.8896
21.41664 -0.7 -0.28 28.6944
124.19999999999999 -1.12 -0.28 200.0
28.29636 -1.24 -0.28 40.1606
28.29636 -1.26 -0.28 40.1606
28.29636 -1.38 -0.28 40.1606
17.592840000000002 -1.4 -0.28 22.3214
28.29636 -1.42 -0.28 40.1606
15.15888 -1.44 -0.28 18.2648
28.29636 -1.86 -0.28 40.1606
21.41664 -1.92 -0.28 28.6944
44.33376 -2.8 -0.28 66.8896
44.33376 -3.68 -0.28 66.8896
44.33376 -3.82 -0.28 66.8896
28.29636 -3.9 -0.28 40.1606
124.19999999999999 -4.16 -0.28 200.0
124.19999999999999 -4.42 -0.28 200.0
44.33376 -4.52 -0.28 66.8896
44.33376 -4.9 -0.28 66.8896
28.29636 -4.98 -0.28 40.1606
21.41664 -5.04 -0.28 28.6944
124.19999999999999 -5.64 -0.28 200.0
124.19999999999999 -5.66 -0.28 200.0
44.33376 -5.74 -0.28 66.8896
124.19999999999999 -5.82 -0.28 200.0
124.19999999999999 -5.84 -0.28 200.0
44.33376 -5.88 -0.28 66.8896
44.33376 -5.9 -0.28 66.8896
44.33376 -6.22 -0.28 66.8896
17.592840000000002 2.52 -0.3 22.3214
17.592840000000002 2.5 -0.3 22.3214
17.592840000000002 1.82 -0.3 22.3214
17.592840000000002 1.8 -0.3 22.3214
21.41664 0.56 -0.3 28.6944
21.41664 0.16 -0.3 28.6944
13.4736 -0.02 -0.3 15.456
28.29636 -0.36 -0.3 40.1606
124.19999999999999 -0.42 -0.3 200.0
44.33376 -0.6 -0.3 66.8896
21.41664 -0.72 -0.3 28.6944
124.19999999999999 -1.12 -0.3 200.0
44.33376 -1.18 -0.3 66.8896
28.29636 -1.24 -0.3 40.1606
28.29636 -1.26 -0.3 40.1606
17.592840000000002 -1.38 -0.3 22.3214
13.4736 -1.5 -0.3 15.456
28.29636 -1.86 -0.3 40.1606
44.33376 -2.8 -0.3 66.8896
44.33376 -3.64 -0.3 66.8896
44.33376 -3.68 -0.3 66.8896
44.33376 -3.78 -0.3 66.8896
44.33376 -3.82 -0.3 66.8896
28.29636 -3.9 -0.3 40.1606
44.33376 -4.24 -0.3 66.8896
28.29636 -4.3 -0.3 40.1606
44.33376 -4.9 -0.3 66.8896
28.29636 -4.98 -0.3 40.1606
21.41664 -5.04 -0.3 28.6944
28.29636 -5.26 -0.3 40.1606
124.19999999999999 -5.64 -0.3 200.0
124.19999999999999 -5.66 -0.3 200.0
124.19999999999999 -5.82 -0.3 200.0
44.33376 -5.88 -0.3 66.8896
44.33376 -5.9 -0.3 66.8896
44.33376 -5.92 -0.3 66.8896
124.19999999999999 -5.96 -0.3 200.0
124.19999999999999 -6.16 -0.3 200.0
44.33376 -6.22 -0.3 66.8896
17.592840000000002 2.52 -0.32 22.3214
17.592840000000002 2.5 -0.32 22.3214
17.592840000000002 1.82 -0.32 22.3214
17.592840000000002 1.8 -0.32 22.3214
21.41664 0.16 -0.32 28.6944
44.33376 -0.6 -0.32 66.8896
21.41664 -0.72 -0.32 28.6944
124.19999999999999 -1.08 -0.32 200.0
124.19999999999999 -1.12 -0.32 200.0
44.33376 -1.18 -0.32 66.8896
28.29636 -1.24 -0.32 40.1606
17.592840000000002 -1.36 -0.32 22.3214
17.592840000000002 -1.38 -0.32 22.3214
17.592840000000002 -1.5 -0.32 22.3214
28.29636 -1.86 -0.32 40.1606
44.33376 -2.62 -0.32 66.8896
44.33376 -3.82 -0.32 66.8896
28.29636 -3.9 -0.32 40.1606
44.33376 -4.22 -0.32 66.8896
44.33376 -4.24 -0.32 66.8896
28.29636 -4.28 -0.32 40.1606
28.29636 -4.3 -0.32 40.1606
44.33376 -4.88 -0.32 66.8896
44.33376 -4.9 -0.32 66.8896
28.29636 -4.98 -0.32 40.1606
21.41664 -5.04 -0.32 28.6944
28.29636 -5.24 -0.32 40.1606
28.29636 -5.26 -0.32 40.1606
21.41664 -5.36 -0.32 28.6944
17.592840000000002 2.52 -0.34 22.3214
17.592840000000002 2.5 -0.34 22.3214
17.592840000000002 1.82 -0.34 22.3214
17.592840000000002 1.8 -0.34 22.3214
21.41664 0.96 -0.34 28.6944
44.33376 -0.6 -0.34 66.8896
44.33376 -0.62 -0.34 66.8896
21.41664 -0.7 -0.34 28.6944
21.41664 -0.72 -0.34 28.6944
124.19999999999999 -0.88 -0.34 200.0
44.33376 -1.0 -0.34 66.8896
124.19999999999999 -1.08 -0.34 200.0
28.29636 -1.24 -0.34 40.1606
17.592840000000002 -1.36 -0.34 22.3214
17.592840000000002 -1.38 -0.34 22.3214
17.592840000000002 -1.5 -0.34 22.3214
28.29636 -1.86 -0.34 40.1606
44.33376 -2.1 -0.34 66.8896
44.33376 -2.62 -0.34 66.8896
124.19999999999999 -2.86 -0.34 200.0
28.29636 -2.98 -0.34 40.1606
44.33376 -3.82 -0.34 66.8896
44.33376 -4.22 -0.34 66.8896
28.29636 -4.3 -0.34 40.1606
28.29636 -4.98 -0.34 40.1606
28.29636 -5.2 -0.34 40.1606
28.29636 -5.22 -0.34 40.1606
28.29636 -5.64 -0.34 40.1606
124.19999999999999 -5.76 -0.34 200.0
15.15888 3.94 -0.36 18.2648
17.592840000000002 3.88 -0.36 22.3214
17.592840000000002 2.52 -0.36 22.3214
17.592840000000002 2.5 -0.36 22.3214
17.592840000000002 1.86 -0.36 22.3214
17.592840000000002 1.82 -0.36 22.3214
17.592840000000002 1.8 -0.36 22.3214
21.41664 0.92 -0.36 28.6944
28.29636 0.5 -0.36 40.1606
28.29636 0.48 -0.36 40.1606
15.15888 0.42 -0.36 18.2648
28.29636 0.2 -0.36 40.1606
44.33376 -0.6 -0.36 66.8896
44.33376 -0.62 -0.36 66.8896
21.41664 -0.68 -0.36 28.6944
21.41664 -0.7 -0.36 28.6944
124.19999999999999 -0.88 -0.36 200.0
44.33376 -0.94 -0.36 66.8896
124.19999999999999 -1.08 -0.36 200.0
28.29636 -1.24 -0.36 40.1606
28.29636 -1.28 -0.36 40.1606
17.592840000000002 -1.34 -0.36 22.3214
17.592840000000002 -1.38 -0.36 22.3214
17.592840000000002 -1.5 -0.36 22.3214
15.15888 -1.56 -0.36 18.2648
15.15888 -1.58 -0.36 18.2648
44.33376 -1.76 -0.36 66.8896
44.33376 -1.78 -0.36 66.8896
28.29636 -1.86 -0.36 40.1606
28.29636 -2.18 -0.36 40.1606
28.29636 -2.2 -0.36 40.1606
44.33376 -2.62 -0.36 66.8896
124.19999999999999 -2.86 -0.36 200.0
44.33376 -3.82 -0.36 66.8896
124.19999999999999 -4.12 -0.36 200.0
44.33376 -4.22 -0.36 66.8896
28.29636 -4.3 -0.36 40.1606
28.29636 -4.98 -0.36 40.1606
28.29636 -5.18 -0.36 40.1606
28.29636 -5.2 -0.36 40.1606
28.29636 -5.64 -0.36 40.1606
15.15888 3.96 -0.38 18.2648
15.15888 3.94 -0.38 18.2648
15.15888 3.92 -0.38 18.2648
15.15888 3.9 -0.38 18.2648
17.592840000000002 3.88 -0.38 22.3214
15.15888 3.86 -0.38 18.2648
17.592840000000002 2.52 -0.38 22.3214
17.592840000000002 2.5 -0.38 22.3214
21.41664 1.86 -0.38 28.6944
17.592840000000002 1.8 -0.38 22.3214
28.29636 0.48 -0.38 40.1606
15.15888 0.42 -0.38 18.2648
17.592840000000002 0.1 -0.38 22.3214
44.33376 -0.6 -0.38 66.8896
21.41664 -0.68 -0.38 28.6944
21.41664 -0.7 -0.38 28.6944
17.592840000000002 -0.8 -0.38 22.3214
124.19999999999999 -0.88 -0.38 200.0
44.33376 -0.92 -0.38 66.8896
44.33376 -0.94 -0.38 66.8896
44.33376 -0.98 -0.38 66.8896
124.19999999999999 -1.08 -0.38 200.0
28.29636 -1.24 -0.38 40.1606
28.29636 -1.28 -0.38 40.1606
17.592840000000002 -1.4 -0.38 22.3214
17.592840000000002 -1.42 -0.38 22.3214
15.15888 -1.58 -0.38 18.2648
124.19999999999999 -1.72 -0.38 200.0
28.29636 -1.86 -0.38 40.1606
44.33376 -2.1 -0.38 66.8896
28.29636 -2.16 -0.38 40.1606
28.29636 -2.18 -0.38 40.1606
44.33376 -2.62 -0.38 66.8896
28.29636 -2.68 -0.38 40.1606
44.33376 -3.64 -0.38 66.8896
44.33376 -3.74 -0.38 66.8896
44.33376 -3.82 -0.38 66.8896
44.33376 -4.02 -0.38 66.8896
124.19999999999999 -4.12 -0.38 200.0
44.33376 -4.22 -0.38 66.8896
28.29636 -4.3 -0.38 40.1606
44.33376 -4.36 -0.38 66.8896
28.29636 -4.98 -0.38 40.1606
21.41664 -5.04 -0.38 28.6944
28.29636 -5.18 -0.38 40.1606
28.29636 -5.64 -0.38 40.1606
28.29636 -5.7 -0.38 40.1606
15.15888 3.94 -0.4 18.2648
15.15888 3.86 -0.4 18.2648
17.592840000000002 2.52 -0.4 22.3214
17.592840000000002 2.5 -0.4 22.3214
17.592840000000002 1.8 -0.4 22.3214
17.592840000000002 1.78 -0.4 22.3214
17.592840000000002 0.1 -0.4 22.3214
17.592840000000002 0.08 -0.4 22.3214
44.33376 -0.6 -0.4 66.8896
21.41664 -0.68 -0.4 28.6944
21.41664 -0.7 -0.4 28.6944
124.19999999999999 -0.88 -0.4 200.0
124.19999999999999 -0.92 -0.4 200.0
44.33376 -0.98 -0.4 66.8896
124.19999999999999 -1.04 -0.4 200.0
124.19999999999999 -1.08 -0.4 200.0
28.29636 -1.24 -0.4 40.1606
28.29636 -1.28 -0.4 40.1606
44.33376 -1.78 -0.4 66.8896
28.29636 -1.86 -0.4 40.1606
44.33376 -2.08 -0.4 66.8896
28.29636 -2.16 -0.4 40.1606
44.33376 -2.62 -0.4 66.8896
28.29636 -2.68 -0.4 40.1606
28.29636 -2.7 -0.4 40.1606
44.33376 -3.64 -0.4 66.8896
44.33376 -3.66 -0.4 66.8896
44.33376 -3.72 -0.4 66.8896
44.33376 -3.74 -0.4 66.8896
44.33376 -3.82 -0.4 66.8896
124.19999999999999 -3.88 -0.4 200.0
28.29636 -3.9 -0.4 40.1606
28.29636 -3.94 -0.4 40.1606
124.19999999999999 -4.12 -0.4 200.0
44.33376 -4.22 -0.4 66.8896
44.33376 -4.24 -0.4 66.8896
28.29636 -4.28 -0.4 40.1606
28.29636 -4.3 -0.4 40.1606
44.33376 -4.54 -0.4 66.8896
28.29636 -4.98 -0.4 40.1606
28.29636 -5.7 -0.4 40.1606
124.19999999999999 -5.84 -0.4 200.0
124.19999999999999 -5.86 -0.4 200.0
44.33376 -5.92 -0.4 66.8896
44.33376 -5.94 -0.4 66.8896
44.33376 -6.08 -0.4 66.8896
17.592840000000002 2.52 -0.42 22.3214
17.592840000000002 2.5 -0.42 22.3214
17.592840000000002 2.18 -0.42 22.3214
15.15888 2.1 -0.42 18.2648
124.19999999999999 1.96 -0.42 200.0
17.592840000000002 1.8 -0.42 22.3214
15.15888 0.26 -0.42 18.2648
44.33376 -0.6 -0.42 66.8896
21.41664 -0.68 -0.42 28.6944
21.41664 -0.7 -0.42 28.6944
17.592840000000002 -0.78 -0.42 22.3214
124.19999999999999 -0.88 -0.42 200.0
12.23748 -1.02 -0.42 13.3958
124.19999999999999 -1.08 -0.42 200.0
28.29636 -1.24 -0.42 40.1606
12.23748 -1.56 -0.42 13.3958
44.33376 -1.78 -0.42 66.8896
28.29636 -1.86 -0.42 40.1606
44.33376 -2.08 -0.42 66.8896
28.29636 -2.14 -0.42 40.1606
44.33376 -2.64 -0.42 66.8896
28.29636 -2.68 -0.42 40.1606
124.19999999999999 -2.92 -0.42 200.0
124.19999999999999 -2.94 -0.42 200.0
44.33376 -3.0 -0.42 66.8896
28.29636 -3.06 -0.42 40.1606
28.29636 -3.08 -0.42 40.1606
44.33376 -3.64 -0.42 66.8896
44.33376 -3.72 -0.42 66.8896
44.33376 -3.74 -0.42 66.8896
44.33376 -3.82 -0.42 66.8896
124.19999999999999 -4.1 -0.42 200.0
124.19999999999999 -4.12 -0.42 200.0
44.33376 -4.22 -0.42 66.8896
44.33376 -4.24 -0.42 66.8896
28.29636 -4.28 -0.42 40.1606
28.29636 -4.3 -0.42 40.1606
44.33376 -4.54 -0.42 66.8896
44.33376 -4.88 -0.42 66.8896
28.29636 -4.98 -0.42 40.1606
28.29636 -5.7 -0.42 40.1606
124.19999999999999 -5.84 -0.42 200.0
124.19999999999999 -5.86 -0.42 200.0
44.33376 -5.92 -0.42 66.8896
44.33376 -5.94 -0.42 66.8896
124.19999999999999 -6.02 -0.42 200.0
44.33376 -6.14 -0.42 66.8896
44.33376 -6.18 -0.42 66.8896
17.592840000000002 2.52 -0.44 22.3214
17.592840000000002 2.5 -0.44 22.3214
17.592840000000002 2.46 -0.44 22.3214
17.592840000000002 2.38 -0.44 22.3214
15.15888 2.32 -0.44 18.2648
17.592840000000002 2.18 -0.44 22.3214
17.592840000000002 2.16 -0.44 22.3214
15.15888 2.14 -0.44 18.2648
15.15888 2.1 -0.44 18.2648
17.592840000000002 1.76 -0.44 22.3214
17.592840000000002 1.26 -0.44 22.3214
17.592840000000002 0.62 -0.44 22.3214
17.592840000000002 0.6 -0.44 22.3214
17.592840000000002 0.56 -0.44 22.3214
17.592840000000002 0.06 -0.44 22.3214
44.33376 -0.58 -0.44 66.8896
44.33376 -0.6 -0.44 66.8896
21.41664 -0.68 -0.44 28.6944
21.41664 -0.7 -0.44 28.6944
17.592840000000002 -0.78 -0.44 22.3214
11.29218 -1.02 -0.44 11.8203
28.29636 -1.08 -0.44 40.1606
28.29636 -1.24 -0.44 40.1606
17.592840000000002 -1.38 -0.44 22.3214
12.23748 -1.56 -0.44 13.3958
12.23748 -1.58 -0.44 13.3958
44.33376 -1.78 -0.44 66.8896
21.41664 -1.92 -0.44 28.6944
44.33376 -2.08 -0.44 66.8896
28.29636 -2.14 -0.44 40.1606
124.19999999999999 -2.94 -0.44 200.0
44.33376 -3.04 -0.44 66.8896
28.29636 -3.08 -0.44 40.1606
21.41664 -3.16 -0.44 28.6944
44.33376 -3.72 -0.44 66.8896
44.33376 -3.84 -0.44 66.8896
44.33376 -3.86 -0.44 66.8896
44.33376 -3.96 -0.44 66.8896
124.19999999999999 -4.1 -0.44 200.0
44.33376 -4.12 -0.44 66.8896
124.19999999999999 -4.16 -0.44 200.0
44.33376 -4.22 -0.44 66.8896
44.33376 -4.24 -0.44 66.8896
28.29636 -4.28 -0.44 40.1606
44.33376 -4.54 -0.44 66.8896
28.29636 -4.98 -0.44 40.1606
21.41664 -5.04 -0.44 28.6944
28.29636 -5.66 -0.44 40.1606
28.29636 -5.7 -0.44 40.1606
124.19999999999999 -5.86 -0.44 200.0
124.19999999999999 -6.02 -0.44 200.0
44.33376 -6.12 -0.44 66.8896
44.33376 -6.14 -0.44 66.8896
17.592840000000002 2.52 -0.46 22.3214
17.592840000000002 2.5 -0.46 22.3214
17.592840000000002 2.46 -0.46 22.3214
17.592840000000002 2.38 -0.46 22.3214
15.15888 2.32 -0.46 18.2648
17.592840000000002 2.18 -0.46 22.3214
15.15888 2.14 -0.46 18.2648
15.15888 1.86 -0.46 18.2648
17.592840000000002 1.76 -0.46 22.3214
13.4736 1.7 -0.46 15.456
13.4736 1.68 -0.46 15.456
17.592840000000002 1.28 -0.46 22.3214
15.15888 0.22 -0.46 18.2648
17.592840000000002 0.08 -0.46 22.3214
17.592840000000002 0.06 -0.46 22.3214
44.33376 -0.58 -0.46 66.8896
44.33376 -0.6 -0.46 66.8896
21.41664 -0.68 -0.46 28.6944
21.41664 -0.7 -0.46 28.6944
12.23748 -0.94 -0.46 13.3958
11.29218 -1.02 -0.46 11.8203
10.54584 -1.08 -0.46 10.5764
44.33376 -1.18 -0.46 66.8896
28.29636 -1.24 -0.46 40.1606
28.29636 -1.28 -0.46 40.1606
12.23748 -1.56 -0.46 13.3958
28.29636 -1.86 -0.46 40.1606
21.41664 -1.92 -0.46 28.6944
44.33376 -2.08 -0.46 66.8896
28.29636 -2.14 -0.46 40.1606
44.33376 -3.04 -0.46 66.8896
28.29636 -3.1 -0.46 40.1606
44.33376 -3.64 -0.46 66.8896
44.33376 -3.72 -0.46 66.8896
44.33376 -3.94 -0.46 66.8896
44.33376 -4.0 -0.46 66.8896
124.19999999999999 -4.08 -0.46 200.0
44.33376 -4.12 -0.46 66.8896
124.19999999999999 -4.16 -0.46 200.0
44.33376 -4.22 -0.46 66.8896
28.29636 -4.3 -0.46 40.1606
124.19999999999999 -4.44 -0.46 200.0
124.19999999999999 -4.46 -0.46 200.0
44.33376 -4.52 -0.46 66.8896
44.33376 -4.72 -0.46 66.8896
28.29636 -4.98 -0.46 40.1606
21.41664 -5.04 -0.46 28.6944
28.29636 -5.66 -0.46 40.1606
28.29636 -5.7 -0.46 40.1606
28.29636 -5.74 -0.46 40.1606
124.19999999999999 -5.76 -0.46 200.0
124.19999999999999 -5.8 -0.46 200.0
124.19999999999999 -6.02 -0.46 200.0
124.19999999999999 -6.04 -0.46 200.0
44.33376 -6.12 -0.46 66.8896
44.33376 -6.14 -0.46 66.8896
12.23748 4.98 -0.48 13.3958
12.23748 4.88 -0.48 13.3958
12.23748 4.86 -0.48 13.3958
12.23748 4.6 -0.48 13.3958
12.23748 4.32 -0.48 13.3958
13.4736 3.88 -0.48 15.456
13.4736 3.86 -0.48 15.456
17.592840000000002 2.52 -0.48 22.3214
17.592840000000002 2.5 -0.48 22.3214
17.592840000000002 2.46 -0.48 22.3214
17.592840000000002 2.38 -0.48 22.3214
15.15888 2.18 -0.48 18.2648
15.15888 2.14 -0.48 18.2648
15.15888 1.76 -0.48 18.2648
15.15888 1.74 -0.48 18.2648
17.592840000000002 1.28 -0.48 22.3214
17.592840000000002 0.64 -0.48 22.3214
28.29636 0.16 -0.48 40.1606
17.592840000000002 0.06 -0.48 22.3214
44.33376 -0.58 -0.48 66.8896
21.41664 -0.7 -0.48 28.6944
15.15888 -0.82 -0.48 18.2648
12.23748 -0.94 -0.48 13.3958
11.29218 -1.0 -0.48 11.8203
10.54584 -1.08 -0.48 10.5764
44.33376 -1.18 -0.48 66.8896
28.29636 -1.24 -0.48 40.1606
28.29636 -1.28 -0.48 40.1606
28.29636 -1.5 -0.48 40.1606
12.23748 -1.56 -0.48 13.3958
28.29636 -1.86 -0.48 40.1606
44.33376 -2.08 -0.48 66.8896
28.29636 -2.14 -0.48 40.1606
28.29636 -2.16 -0.48 40.1606
44.33376 -3.04 -0.48 66.8896
28.29636 -3.1 -0.48 40.1606
44.33376 -3.64 -0.48 66.8896
44.33376 -3.94 -0.48 66.8896
44.33376 -4.22 -0.48 66.8896
28.29636 -4.3 -0.48 40.1606
44.33376 -4.52 -0.48 66.8896
44.33376 -4.54 -0.48 66.8896
124.19999999999999 -4.66 -0.48 200.0
44.33376 -4.9 -0.48 66.8896
28.29636 -4.98 -0.48 40.1606
21.41664 -5.04 -0.48 28.6944
124.19999999999999 -5.8 -0.48 200.0
44.33376 -5.86 -0.48 66.8896
124.19999999999999 -6.02 -0.48 200.0
44.33376 -6.12 -0.48 66.8896
44.33376 -6.14 -0.48 66.8896
12.23748 4.98 -0.5 13.3958
12.23748 4.96 -0.5 13.3958
12.23748 4.56 -0.5 13.3958
12.23748 4.26 -0.5 13.3958
12.23748 4.24 -0.5 13.3958
13.4736 3.88 -0.5 15.456
13.4736 3.86 -0.5 15.456
13.4736 3.84 -0.5 15.456
17.592840000000002 2.52 -0.5 22.3214
17.592840000000002 2.5 -0.5 22.3214
17.592840000000002 2.46 -0.5 22.3214
17.592840000000002 2.38 -0.5 22.3214
17.592840000000002 1.76 -0.5 22.3214
17.592840000000002 0.64 -0.5 22.3214
17.592840000000002 0.06 -0.5 22.3214
44.33376 -0.58 -0.5 66.8896
21.41664 -0.7 -0.5 28.6944
15.15888 -0.82 -0.5 18.2648
124.19999999999999 -0.88 -0.5 200.0
44.33376 -0.94 -0.5 66.8896
28.29636 -0.98 -0.5 40.1606
44.33376 -1.18 -0.5 66.8896
124.19999999999999 -1.38 -0.5 200.0
124.19999999999999 -1.4 -0.5 200.0
12.23748 -1.54 -0.5 13.3958
12.23748 -1.56 -0.5 13.3958
28.29636 -1.86 -0.5 40.1606
21.41664 -1.92 -0.5 28.6944
44.33376 -2.08 -0.5 66.8896
28.29636 -2.14 -0.5 40.1606
28.29636 -2.16 -0.5 40.1606
124.19999999999999 -2.26 -0.5 200.0
44.33376 -2.4 -0.5 66.8896
44.33376 -3.04 -0.5 66.8896
28.29636 -3.1 -0.5 40.1606
44.33376 -3.64 -0.5 66.8896
44.33376 -3.74 -0.5 66.8896
44.33376 -3.76 -0.5 66.8896
44.33376 -3.92 -0.5 66.8896
44.33376 -3.94 -0.5 66.8896
28.29636 -4.26 -0.5 40.1606
28.29636 -4.3 -0.5 40.1606
28.29636 -4.32 -0.5 40.1606
44.33376 -4.52 -0.5 66.8896
44.33376 -4.54 -0.5 66.8896
44.33376 -4.76 -0.5 66.8896
28.29636 -4.82 -0.5 40.1606
44.33376 -4.88 -0.5 66.8896
44.33376 -4.9 -0.5 66.8896
28.29636 -4.98 -0.5 40.1606
21.41664 -5.04 -0.5 28.6944
28.29636 -5.66 -0.5 40.1606
124.19999999999999 -5.8 -0.5 200.0
44.33376 -5.86 -0.5 66.8896
124.19999999999999 -6.02 -0.5 200.0
44.33376 -6.14 -0.5 66.8896
12.23748 4.98 -0.52 13.3958
12.23748 4.96 -0.52 13.3958
13.4736 3.82 -0.52 15.456
13.4736 3.8 -0.52 15.456
17.592840000000002 2.52 -0.52 22.3214
17.592840000000002 2.5 -0.52 22.3214
15.15888 2.28 -0.52 18.2648
15.15888 1.6 -0.52 18.2648
44.33376 -0.58 -0.52 66.8896
44.33376 -0.6 -0.52 66.8896
21.41664 -0.7 -0.52 28.6944
15.15888 -0.82 -0.52 18.2648
124.19999999999999 -0.88 -0.52 200.0
44.33376 -0.94 -0.52 66.8896
28.29636 -1.02 -0.52 40.1606
28.29636 -1.04 -0.52 40.1606
124.19999999999999 -1.08 -0.52 200.0
28.29636 -1.2 -0.52 40.1606
124.19999999999999 -1.4 -0.52 200.0
12.23748 -1.54 -0.52 13.3958
12.23748 -1.56 -0.52 13.3958
12.23748 -1.58 -0.52 13.3958
44.33376 -1.78 -0.52 66.8896
28.29636 -1.86 -0.52 40.1606
21.41664 -1.92 -0.52 28.6944
44.33376 -2.04 -0.52 66.8896
44.33376 -2.08 -0.52 66.8896
28.29636 -2.14 -0.52 40.1606
28.29636 -2.16 -0.52 40.1606
21.41664 -2.26 -0.52 28.6944
21.41664 -2.3 -0.52 28.6944
44.33376 -2.38 -0.52 66.8896
44.33376 -2.42 -0.52 66.8896
28.29636 -2.46 -0.52 40.1606
21.41664 -2.54 -0.52 28.6944
44.33376 -3.04 -0.52 66.8896
28.29636 -3.1 -0.52 40.1606
28.29636 -3.12 -0.52 40.1606
44.33376 -3.74 -0.52 66.8896
44.33376 -3.76 -0.52 66.8896
44.33376 -4.04 -0.52 66.8896
124.19999999999999 -4.14 -0.52 200.0
28.29636 -4.3 -0.52 40.1606
28.29636 -4.32 -0.52 40.1606
21.41664 -4.42 -0.52 28.6944
44.33376 -4.52 -0.52 66.8896
28.29636 -4.98 -0.52 40.1606
12.23748 4.98 -0.54 13.3958
12.23748 4.96 -0.54 13.3958
12.23748 4.62 -0.54 13.3958
13.4736 3.82 -0.54 15.456
13.4736 3.8 -0.54 15.456
13.4736 3.78 -0.54 15.456
15.15888 2.28 -0.54 18.2648
15.15888 2.2 -0.54 18.2648
15.15888 2.1 -0.54 18.2648
15.15888 2.08 -0.54 18.2648
15.15888 1.32 -0.54 18.2648
17.592840000000002 1.12 -0.54 22.3214
17.592840000000002 1.1 -0.54 22.3214
17.592840000000002 -0.02 -0.54 22.3214
44.33376 -0.58 -0.54 66.8896
44.33376 -0.6 -0.54 66.8896
21.41664 -0.68 -0.54 28.6944
21.41664 -0.7 -0.54 28.6944
17.592840000000002 -0.76 -0.54 22.3214
15.15888 -0.82 -0.54 18.2648
124.19999999999999 -0.88 -0.54 200.0
44.33376 -0.94 -0.54 66.8896
28.29636 -1.02 -0.54 40.1606
28.29636 -1.04 -0.54 40.1606
15.15888 -1.2 -0.54 18.2648
13.4736 -1.26 -0.54 15.456
13.4736 -1.28 -0.54 15.456
12.23748 -1.6 -0.54 13.3958
28.29636 -1.86 -0.54 40.1606
21.41664 -1.92 -0.54 28.6944
28.29636 -2.16 -0.54 40.1606
21.41664 -2.3 -0.54 28.6944
44.33376 -2.38 -0.54 66.8896
44.33376 -2.46 -0.54 66.8896
21.41664 -2.54 -0.54 28.6944
44.33376 -3.04 -0.54 66.8896
28.29636 -3.1 -0.54 40.1606
44.33376 -3.74 -0.54 66.8896
124.19999999999999 -3.94 -0.54 200.0
44.33376 -4.04 -0.54 66.8896
28.29636 -4.32 -0.54 40.1606
44.33376 -4.64 -0.54 66.8896
28.29636 -4.98 -0.54 40.1606
44.33376 -5.7 -0.54 66.8896
44.33376 -6.08 -0.54 66.8896
124.19999999999999 -6.28 -0.54 200.0
44.33376 -6.32 -0.54 66.8896
44.33376 -6.34 -0.54 66.8896
28.29636 -6.64 -0.54 40.1606
12.23748 4.98 -0.56 13.3958
12.23748 4.96 -0.56 13.3958
12.23748 4.54 -0.56 13.3958
12.23748 4.48 -0.56 13.3958
13.4736 3.84 -0.56 15.456
13.4736 3.82 -0.56 15.456
13.4736 3.8 -0.56 15.456
17.592840000000002 2.5 -0.56 22.3214
15.15888 2.28 -0.56 18.2648
15.15888 2.2 -0.56 18.2648
17.592840000000002 1.12 -0.56 22.3214
17.592840000000002 1.1 -0.56 22.3214
17.592840000000002 0.56 -0.56 22.3214
17.592840000000002 0.02 -0.56 22.3214
17.592840000000002 -0.02 -0.56 22.3214
21.41664 -0.58 -0.56 28.6944
21.41664 -0.6 -0.56 28.6944
21.41664 -0.68 -0.56 28.6944
21.41664 -0.7 -0.56 28.6944
17.592840000000002 -0.76 -0.56 22.3214
15.15888 -0.82 -0.56 18.2648
124.19999999999999 -0.86 -0.56 200.0
124.19999999999999 -0.88 -0.56 200.0
44.33376 -0.96 -0.56 66.8896
28.29636 -1.02 -0.56 40.1606
15.15888 -1.2 -0.56 18.2648
13.4736 -1.26 -0.56 15.456
13.4736 -1.28 -0.56 15.456
12.23748 -1.6 -0.56 13.3958
124.19999999999999 -2.04 -0.56 200.0
21.41664 -2.26 -0.56 28.6944
44.33376 -2.44 -0.56 66.8896
44.33376 -2.46 -0.56 66.8896
44.33376 -3.04 -0.56 66.8896
28.29636 -3.1 -0.56 40.1606
44.33376 -3.74 -0.56 66.8896
124.19999999999999 -3.94 -0.56 200.0
44.33376 -4.04 -0.56 66.8896
44.33376 -4.24 -0.56 66.8896
28.29636 -4.98 -0.56 40.1606
28.29636 -5.44 -0.56 40.1606
44.33376 -5.72 -0.56 66.8896
44.33376 -6.34 -0.56 66.8896
28.29636 -6.64 -0.56 40.1606
12.23748 4.98 -0.58 13.3958
12.23748 4.96 -0.58 13.3958
12.23748 4.64 -0.58 13.3958
13.4736 3.84 -0.58 15.456
13.4736 3.82 -0.58 15.456
17.592840000000002 2.5 -0.58 22.3214
15.15888 2.2 -0.58 18.2648
15.15888 1.96 -0.58 18.2648
15.15888 1.94 -0.58 18.2648
15.15888 1.78 -0.58 18.2648
15.15888 1.68 -0.58 18.2648
17.592840000000002 1.1 -0.58 22.3214
17.592840000000002 0.56 -0.58 22.3214
44.33376 0.5 -0.58 66.8896
21.41664 -0.58 -0.58 28.6944
21.41664 -0.6 -0.58 28.6944
21.41664 -0.68 -0.58 28.6944
21.41664 -0.7 -0.58 28.6944
15.15888 -0.82 -0.58 18.2648
124.19999999999999 -0.86 -0.58 200.0
124.19999999999999 -0.9 -0.58 200.0
28.29636 -1.02 -0.58 40.1606
124.19999999999999 -1.9 -0.58 200.0
21.41664 -2.26 -0.58 28.6944
44.33376 -2.44 -0.58 66.8896
28.29636 -2.52 -0.58 40.1606
44.33376 -3.04 -0.58 66.8896
28.29636 -3.1 -0.58 40.1606
7.8540779999999994 -3.48 -0.58 6.09013
44.33376 -3.74 -0.58 66.8896
124.19999999999999 -3.94 -0.58 200.0
44.33376 -4.04 -0.58 66.8896
44.33376 -4.24 -0.58 66.8896
44.33376 -4.54 -0.58 66.8896
28.29636 -4.98 -0.58 40.1606
124.19999999999999 -5.64 -0.58 200.0
44.33376 -5.72 -0.58 66.8896
28.29636 -6.64 -0.58 40.1606
12.23748 5.68 -0.6 13.3958
12.23748 5.64 -0.6 13.3958
12.23748 5.62 -0.6 13.3958
12.23748 4.98 -0.6 13.3958
12.23748 4.96 -0.6 13.3958
12.23748 4.66 -0.6 13.3958
12.23748 4.64 -0.6 13.3958
12.23748 4.52 -0.6 13.3958
13.4736 3.84 -0.6 15.456
13.4736 3.82 -0.6 15.456
15.15888 2.68 -0.6 18.2648
15.15888 2.62 -0.6 18.2648
15.15888 2.3 -0.6 18.2648
15.15888 1.92 -0.6 18.2648
12.23748 1.84 -0.6 13.3958
15.15888 1.72 -0.6 18.2648
15.15888 1.68 -0.6 18.2648
17.592840000000002 0.56 -0.6 22.3214
13.4736 0.38 -0.6 15.456
21.41664 -0.6 -0.6 28.6944
124.19999999999999 -0.9 -0.6 200.0
28.29636 -1.02 -0.6 40.1606
28.29636 -1.46 -0.6 40.1606
9.023147999999999 -1.66 -0.6 8.03858
124.19999999999999 -1.88 -0.6 200.0
124.19999999999999 -1.9 -0.6 200.0
28.29636 -2.04 -0.6 40.1606
44.33376 -2.2 -0.6 66.8896
21.41664 -2.26 -0.6 28.6944
44.33376 -2.44 -0.6 66.8896
28.29636 -2.52 -0.6 40.1606
44.33376 -3.04 -0.6 66.8896
28.29636 -3.1 -0.6 40.1606
44.33376 -3.74 -0.6 66.8896
44.33376 -3.76 -0.6 66.8896
28.29636 -3.82 -0.6 40.1606
28.29636 -3.84 -0.6 40.1606
44.33376 -4.04 -0.6 66.8896
44.33376 -4.24 -0.6 66.8896
28.29636 -4.3 -0.6 40.1606
28.29636 -4.32 -0.6 40.1606
28.29636 -4.34 -0.6 40.1606
44.33376 -4.54 -0.6 66.8896
124.19999999999999 -5.64 -0.6 200.0
44.33376 -6.12 -0.6 66.8896
12.23748 5.9 -0.62 13.3958
12.23748 5.82 -0.62 13.3958
12.23748 5.68 -0.62 13.3958
12.23748 5.62 -0.62 13.3958
12.23748 4.98 -0.62 13.3958
12.23748 4.96 -0.62 13.3958
12.23748 4.64 -0.62 13.3958
12.23748 4.52 -0.62 13.3958
13.4736 3.86 -0.62 15.456
13.4736 3.84 -0.62 15.456
13.4736 3.82 -0.62 15.456
15.15888 2.62 -0.62 18.2648
15.15888 2.6 -0.62 18.2648
15.15888 2.3 -0.62 18.2648
15.15888 1.98 -0.62 18.2648
17.592840000000002 1.42 -0.62 22.3214
17.592840000000002 1.4 -0.62 22.3214
13.4736 1.32 -0.62 15.456
17.592840000000002 0.56 -0.62 22.3214
17.592840000000002 -0.08 -0.62 22.3214
44.33376 -0.6 -0.62 66.8896
124.19999999999999 -0.88 -0.62 200.0
44.33376 -0.94 -0.62 66.8896
28.29636 -1.02 -0.62 40.1606
13.4736 -1.26 -0.62 15.456
28.29636 -1.46 -0.62 40.1606
124.19999999999999 -1.9 -0.62 200.0
28.29636 -2.04 -0.62 40.1606
124.19999999999999 -2.1 -0.62 200.0
124.19999999999999 -2.12 -0.62 200.0
6.879768 -2.32 -0.62 4.46628
124.19999999999999 -2.96 -0.62 200.0
44.33376 -3.04 -0.62 66.8896
28.29636 -3.08 -0.62 40.1606
28.29636 -3.1 -0.62 40.1606
44.33376 -3.74 -0.62 66.8896
44.33376 -4.04 -0.62 66.8896
44.33376 -4.24 -0.62 66.8896
28.29636 -4.3 -0.62 40.1606
44.33376 -4.46 -0.62 66.8896
44.33376 -4.52 -0.62 66.8896
44.33376 -4.54 -0.62 66.8896
28.29636 -5.04 -0.62 40.1606
44.33376 -5.68 -0.62 66.8896
44.33376 -6.12 -0.62 66.8896
44.33376 -6.48 -0.62 66.8896
44.33376 -6.5 -0.62 66.8896
28.29636 -6.64 -0.62 40.1606
12.23748 5.66 -0.64 13.3958
12.23748 5.62 -0.64 13.3958
12.23748 4.98 -0.64 13.3958
12.23748 4.96 -0.64 13.3958
13.4736 3.86 -0.64 15.456
13.4736 3.84 -0.64 15.456
15.15888 2.78 -0.64 18.2648
15.15888 2.76 -0.64 18.2648
15.15888 2.6 -0.64 18.2648
15.15888 2.5 -0.64 18.2648
21.41664 1.46 -0.64 28.6944
17.592840000000002 0.56 -0.64 22.3214
13.4736 0.42 -0.64 15.456
21.41664 -0.02 -0.64 28.6944
17.592840000000002 -0.1 -0.64 22.3214
21.41664 -0.62 -0.64 28.6944
17.592840000000002 -0.72 -0.64 22.3214
124.19999999999999 -0.86 -0.64 200.0
124.19999999999999 -0.88 -0.64 200.0
44.33376 -0.94 -0.64 66.8896
28.29636 -1.02 -0.64 40.1606
13.4736 -1.26 -0.64 15.456
9.941628000000001 -1.52 -0.64 9.56938
8.665944 -1.72 -0.64 7.44324
124.19999999999999 -1.9 -0.64 200.0
124.19999999999999 -2.1 -0.64 200.0
124.19999999999999 -2.96 -0.64 200.0
28.29636 -3.1 -0.64 40.1606
44.33376 -4.04 -0.64 66.8896
44.33376 -4.24 -0.64 66.8896
44.33376 -4.54 -0.64 66.8896
28.29636 -5.04 -0.64 40.1606
44.33376 -5.56 -0.64 66.8896
44.33376 -5.68 -0.64 66.8896
44.33376 -6.12 -0.64 66.8896
44.33376 -6.48 -0.64 66.8896
44.33376 -6.5 -0.64 66.8896
28.29636 -6.64 -0.64 40.1606
12.23748 5.66 -0.66 13.3958
12.23748 4.98 -0.66 13.3958
12.23748 4.96 -0.66 13.3958
12.23748 4.12 -0.66 13.3958
13.4736 3.88 -0.66 15.456
13.4736 3.86 -0.66 15.456
13.4736 3.84 -0.66 15.456
15.15888 2.02 -0.66 18.2648
17.592840000000002 1.64 -0.66 22.3214
13.4736 1.54 -0.66 15.456
17.592840000000002 0.98 -0.66 22.3214
17.592840000000002 0.96 -0.66 22.3214
17.592840000000002 0.92 -0.66 22.3214
17.592840000000002 0.56 -0.66 22.3214
44.33376 0.16 -0.66 66.8896
44.33376 0.14 -0.66 66.8896
28.29636 0.08 -0.66 40.1606
21.41664 0.02 -0.66 28.6944
17.592840000000002 -0.1 -0.66 22.3214
21.41664 -0.62 -0.66 28.6944
17.592840000000002 -0.7 -0.66 22.3214
124.19999999999999 -0.88 -0.66 200.0
44.33376 -0.94 -0.66 66.8896
28.29636 -1.02 -0.66 40.1606
28.29636 -1.06 -0.66 40.1606
17.592840000000002 -1.52 -0.66 22.3214
124.19999999999999 -2.92 -0.66 200.0
124.19999999999999 -2.96 -0.66 200.0
44.33376 -3.04 -0.66 66.8896
28.29636 -3.1 -0.66 40.1606
44.33376 -3.78 -0.66 66.8896
44.33376 -4.04 -0.66 66.8896
28.29636 -4.1 -0.66 40.1606
44.33376 -4.22 -0.66 66.8896
28.29636 -4.28 -0.66 40.1606
124.19999999999999 -4.44 -0.66 200.0
44.33376 -4.54 -0.66 66.8896
124.19999999999999 -4.84 -0.66 200.0
124.19999999999999 -4.86 -0.66 200.0
124.19999999999999 -4.88 -0.66 200.0
124.19999999999999 -4.9 -0.66 200.0
44.33376 -4.92 -0.66 66.8896
44.33376 -4.94 -0.66 66.8896
44.33376 -4.96 -0.66 66.8896
44.33376 -4.98 -0.66 66.8896
28.29636 -5.04 -0.66 40.1606
21.41664 -5.12 -0.66 28.6944
124.19999999999999 -5.42 -0.66 200.0
124.19999999999999 -5.44 -0.66 200.0
124.19999999999999 -5.48 -0.66 200.0
44.33376 -5.56 -0.66 66.8896
28.29636 -5.58 -0.66 40.1606
28.29636 -5.66 -0.66 40.1606
28.29636 -5.68 -0.66 40.1606
44.33376 -6.12 -0.66 66.8896
44.33376 -6.5 -0.66 66.8896
28.29636 -6.64 -0.66 40.1606
12.23748 4.96 -0.68 13.3958
12.23748 4.94 -0.68 13.3958
12.23748 4.48 -0.68 13.3958
13.4736 3.88 -0.68 15.456
13.4736 3.86 -0.68 15.456
15.15888 2.74 -0.68 18.2648
15.15888 2.72 -0.68 18.2648
15.15888 2.68 -0.68 18.2648
15.15888 2.56 -0.68 18.2648
15.15888 2.2 -0.68 18.2648
13.4736 1.56 -0.68 15.456
15.15888 1.26 -0.68 18.2648
17.592840000000002 0.98 -0.68 22.3214
17.592840000000002 0.96 -0.68 22.3214
17.592840000000002 0.56 -0.68 22.3214
28.29636 0.08 -0.68 40.1606
21.41664 0.02 -0.68 28.6944
44.33376 -0.62 -0.68 66.8896
17.592840000000002 -0.7 -0.68 22.3214
28.29636 -0.82 -0.68 40.1606
44.33376 -0.94 -0.68 66.8896
28.29636 -1.02 -0.68 40.1606
124.19999999999999 -1.24 -0.68 200.0
44.33376 -1.38 -0.68 66.8896
21.41664 -1.44 -0.68 28.6944
124.19999999999999 -2.92 -0.68 200.0
44.33376 -3.02 -0.68 66.8896
44.33376 -3.74 -0.68 66.8896
44.33376 -3.78 -0.68 66.8896
44.33376 -3.82 -0.68 66.8896
124.19999999999999 -4.28 -0.68 200.0
44.33376 -4.52 -0.68 66.8896
44.33376 -4.54 -0.68 66.8896
124.19999999999999 -4.8 -0.68 200.0
44.33376 -4.96 -0.68 66.8896
44.33376 -4.98 -0.68 66.8896
28.29636 -5.02 -0.68 40.1606
28.29636 -5.04 -0.68 40.1606
21.41664 -5.1 -0.68 28.6944
21.41664 -5.12 -0.68 28.6944
21.41664 -5.14 -0.68 28.6944
21.41664 -5.16 -0.68 28.6944
17.592840000000002 -5.18 -0.68 22.3214
124.19999999999999 -5.4 -0.68 200.0
124.19999999999999 -5.42 -0.68 200.0
124.19999999999999 -5.44 -0.68 200.0
124.19999999999999 -5.46 -0.68 200.0
124.19999999999999 -5.48 -0.68 200.0
44.33376 -5.52 -0.68 66.8896
28.29636 -5.54 -0.68 40.1606
28.29636 -5.56 -0.68 40.1606
28.29636 -5.58 -0.68 40.1606
28.29636 -5.6 -0.68 40.1606
28.29636 -5.62 -0.68 40.1606
28.29636 -5.66 -0.68 40.1606
28.29636 -5.68 -0.68 40.1606
21.41664 -5.72 -0.68 28.6944
21.41664 -5.74 -0.68 28.6944
17.592840000000002 -5.78 -0.68 22.3214
17.592840000000002 -5.8 -0.68 22.3214
15.15888 -5.84 -0.68 18.2648
15.15888 -5.86 -0.68 18.2648
44.33376 -6.12 -0.68 66.8896
12.23748 5.38 -0.7 13.3958
12.23748 4.94 -0.7 13.3958
12.23748 4.92 -0.7 13.3958
12.23748 4.48 -0.7 13.3958
13.4736 3.88 -0.7 15.456
13.4736 3.86 -0.7 15.456
15.15888 2.74 -0.7 18.2648
15.15888 2.72 -0.7 18.2648
15.15888 2.68 -0.7 18.2648
13.4736 2.66 -0.7 15.456
15.15888 2.58 -0.7 18.2648
15.15888 2.52 -0.7 18.2648
15.15888 2.04 -0.7 18.2648
17.592840000000002 1.62 -0.7 22.3214
15.15888 1.32 -0.7 18.2648
17.592840000000002 0.96 -0.7 22.3214
17.592840000000002 0.56 -0.7 22.3214
