VERSION .7
FIELDS x y z rgb
SIZE 4 4 4 4
TYPE F F F F
COUNT 1 1 1 1
WIDTH 1337
HEIGHT 1
VIEWPOINT 0 0 0 1 0 0 0
POINTS 1337
DATA ascii
17.592840000000002 2.74 0.38 5000022.3214
17.592840000000002 2.7 0.38 5000022.3214
21.41664 2.62 0.38 5000028.6944
21.41664 2.38 0.38 5000028.6944
21.41664 2.36 0.38 5000028.6944
21.41664 2.16 0.38 5000028.6944
21.41664 1.8 0.38 5000028.6944
21.41664 1.78 0.38 5000028.6944
21.41664 1.04 0.38 5000028.6944
21.41664 1.0 0.38 5000028.6944
21.41664 0.98 0.38 5000028.6944
124.19999999999999 0.9 0.38 5000200.0
28.29636 0.76 0.38 5000040.1606
28.29636 0.72 0.38 5000040.1606
17.592840000000002 0.68 0.38 5000022.3214
17.592840000000002 0.66 0.38 5000022.3214
28.29636 -0.16 0.38 5000040.1606
15.15888 -0.28 0.38 5000018.2648
15.15888 -0.34 0.38 5000018.2648
44.33376 -1.72 0.38 5000066.8896
124.19999999999999 -1.88 0.38 5000200.0
17.592840000000002 -1.94 0.38 5000022.3214
124.19999999999999 -2.18 0.38 5000200.0
124.19999999999999 -2.22 0.38 5000200.0
124.19999999999999 -2.5 0.38 5000200.0
124.19999999999999 -2.92 0.38 5000200.0
124.19999999999999 -3.02 0.38 5000200.0
21.41664 -5.42 0.38 5000028.6944
21.41664 -5.8 0.38 5000028.6944
21.41664 -5.82 0.38 5000028.6944
15.15888 4.5 0.36 5000018.2648
17.592840000000002 3.84 0.36 5000022.3214
17.592840000000002 3.82 0.36 5000022.3214
17.592840000000002 3.76 0.36 5000022.3214
17.592840000000002 3.74 0.36 5000022.3214
17.592840000000002 3.7 0.36 5000022.3214
17.592840000000002 3.66 0.36 5000022.3214
17.592840000000002 3.54 0.36 5000022.3214
17.592840000000002 3.52 0.36 5000022.3214
17.592840000000002 3.46 0.36 5000022.3214
17.592840000000002 3.34 0.36 5000022.3214
17.592840000000002 3.32 0.36 5000022.3214
17.592840000000002 3.22 0.36 5000022.3214
17.592840000000002 2.88 0.36 5000022.3214
17.592840000000002 2.74 0.36 5000022.3214
17.592840000000002 2.7 0.36 5000022.3214
21.41664 2.38 0.36 5000028.6944
21.41664 2.36 0.36 5000028.6944
21.41664 2.16 0.36 5000028.6944
21.41664 1.8 0.36 5000028.6944
21.41664 1.78 0.36 5000028.6944
21.41664 1.18 0.36 5000028.6944
21.41664 1.16 0.36 5000028.6944
44.33376 1.12 0.36 5000066.8896
21.41664 1.06 0.36 5000028.6944
21.41664 1.04 0.36 5000028.6944
28.29636 0.26 0.36 5000040.1606
28.29636 0.24 0.36 5000040.1606
28.29636 0.08 0.36 5000040.1606
28.29636 -0.12 0.36 5000040.1606
28.29636 -0.16 0.36 5000040.1606
15.15888 -0.3 0.36 5000018.2648
44.33376 -1.72 0.36 5000066.8896
124.19999999999999 -2.18 0.36 5000200.0
124.19999999999999 -2.22 0.36 5000200.0
124.19999999999999 -2.5 0.36 5000200.0
124.19999999999999 -2.52 0.36 5000200.0
124.19999999999999 -2.92 0.36 5000200.0
124.19999999999999 -3.02 0.36 5000200.0
124.19999999999999 -3.26 0.36 5000200.0
28.29636 -5.34 0.36 5000040.1606
28.29636 -5.36 0.36 5000040.1606
21.41664 -5.42 0.36 5000028.6944
28.29636 -5.82 0.36 5000040.1606
13.4736 5.12 0.34 5000015.456
15.15888 4.5 0.34 5000018.2648
15.15888 4.48 0.34 5000018.2648
17.592840000000002 3.84 0.34 5000022.3214
17.592840000000002 3.82 0.34 5000022.3214
17.592840000000002 3.76 0.34 5000022.3214
17.592840000000002 3.74 0.34 5000022.3214
17.592840000000002 3.7 0.34 5000022.3214
17.592840000000002 3.66 0.34 5000022.3214
17.592840000000002 3.54 0.34 5000022.3214
17.592840000000002 3.52 0.34 5000022.3214
17.592840000000002 3.46 0.34 5000022.3214
17.592840000000002 3.34 0.34 5000022.3214
17.592840000000002 3.32 0.34 5000022.3214
17.592840000000002 3.22 0.34 5000022.3214
17.592840000000002 2.88 0.34 5000022.3214
17.592840000000002 2.74 0.34 5000022.3214
17.592840000000002 2.7 0.34 5000022.3214
21.41664 2.58 0.34 5000028.6944
21.41664 2.36 0.34 5000028.6944
21.41664 2.16 0.34 5000028.6944
21.41664 1.8 0.34 5000028.6944
21.41664 1.78 0.34 5000028.6944
21.41664 1.2 0.34 5000028.6944
21.41664 1.18 0.34 5000028.6944
28.29636 0.24 0.34 5000040.1606
28.29636 0.08 0.34 5000040.1606
28.29636 0.04 0.34 5000040.1606
28.29636 0.0 0.34 5000040.1606
17.592840000000002 -0.06 0.34 5000022.3214
28.29636 -0.12 0.34 5000040.1606
15.15888 -1.08 0.34 5000018.2648
21.41664 -1.18 0.34 5000028.6944
124.19999999999999 -1.32 0.34 5000200.0
124.19999999999999 -1.4 0.34 5000200.0
124.19999999999999 -1.42 0.34 5000200.0
44.33376 -1.48 0.34 5000066.8896
44.33376 -1.72 0.34 5000066.8896
124.19999999999999 -1.88 0.34 5000200.0
124.19999999999999 -2.18 0.34 5000200.0
124.19999999999999 -2.5 0.34 5000200.0
124.19999999999999 -2.52 0.34 5000200.0
124.19999999999999 -2.92 0.34 5000200.0
124.19999999999999 -3.02 0.34 5000200.0
124.19999999999999 -3.24 0.34 5000200.0
124.19999999999999 -3.26 0.34 5000200.0
28.29636 -5.34 0.34 5000040.1606
28.29636 -5.36 0.34 5000040.1606
21.41664 -5.42 0.34 5000028.6944
17.592840000000002 -5.54 0.34 5000022.3214
13.4736 5.56 0.32 5000015.456
15.15888 5.28 0.32 5000018.2648
17.592840000000002 3.84 0.32 5000022.3214
17.592840000000002 3.82 0.32 5000022.3214
17.592840000000002 3.76 0.32 5000022.3214
17.592840000000002 3.74 0.32 5000022.3214
17.592840000000002 3.7 0.32 5000022.3214
17.592840000000002 3.66 0.32 5000022.3214
17.592840000000002 3.54 0.32 5000022.3214
17.592840000000002 3.52 0.32 5000022.3214
17.592840000000002 3.46 0.32 5000022.3214
17.592840000000002 3.34 0.32 5000022.3214
17.592840000000002 3.32 0.32 5000022.3214
17.592840000000002 3.22 0.32 5000022.3214
17.592840000000002 2.96 0.32 5000022.3214
17.592840000000002 2.88 0.32 5000022.3214
17.592840000000002 2.74 0.32 5000022.3214
17.592840000000002 2.7 0.32 5000022.3214
21.41664 2.58 0.32 5000028.6944
21.41664 2.16 0.32 5000028.6944
21.41664 1.8 0.32 5000028.6944
21.41664 1.78 0.32 5000028.6944
21.41664 1.34 0.32 5000028.6944
21.41664 1.22 0.32 5000028.6944
21.41664 1.2 0.32 5000028.6944
28.29636 0.68 0.32 5000040.1606
28.29636 0.24 0.32 5000040.1606
28.29636 0.04 0.32 5000040.1606
17.592840000000002 -0.06 0.32 5000022.3214
15.15888 -0.28 0.32 5000018.2648
44.33376 -0.84 0.32 5000066.8896
124.19999999999999 -1.32 0.32 5000200.0
124.19999999999999 -1.42 0.32 5000200.0
44.33376 -1.48 0.32 5000066.8896
44.33376 -1.72 0.32 5000066.8896
44.33376 -1.74 0.32 5000066.8896
124.19999999999999 -1.88 0.32 5000200.0
17.592840000000002 -1.94 0.32 5000022.3214
44.33376 -2.06 0.32 5000066.8896
44.33376 -2.7 0.32 5000066.8896
124.19999999999999 -2.92 0.32 5000200.0
124.19999999999999 -3.0 0.32 5000200.0
124.19999999999999 -3.02 0.32 5000200.0
44.33376 -3.08 0.32 5000066.8896
124.19999999999999 -3.2 0.32 5000200.0
124.19999999999999 -3.24 0.32 5000200.0
124.19999999999999 -3.26 0.32 5000200.0
124.19999999999999 -3.34 0.32 5000200.0
124.19999999999999 -5.18 0.32 5000200.0
28.29636 -5.34 0.32 5000040.1606
28.29636 -5.8 0.32 5000040.1606
17.592840000000002 -6.6 0.32 5000022.3214
13.4736 5.58 0.3 5000015.456
13.4736 5.56 0.3 5000015.456
13.4736 5.48 0.3 5000015.456
13.4736 5.44 0.3 5000015.456
13.4736 5.42 0.3 5000015.456
13.4736 5.4 0.3 5000015.456
13.4736 5.38 0.3 5000015.456
13.4736 5.34 0.3 5000015.456
13.4736 5.32 0.3 5000015.456
15.15888 5.28 0.3 5000018.2648
17.592840000000002 3.84 0.3 5000022.3214
17.592840000000002 3.82 0.3 5000022.3214
17.592840000000002 3.76 0.3 5000022.3214
17.592840000000002 3.74 0.3 5000022.3214
17.592840000000002 3.7 0.3 5000022.3214
17.592840000000002 3.66 0.3 5000022.3214
17.592840000000002 3.54 0.3 5000022.3214
17.592840000000002 3.52 0.3 5000022.3214
17.592840000000002 3.46 0.3 5000022.3214
17.592840000000002 3.34 0.3 5000022.3214
17.592840000000002 3.32 0.3 5000022.3214
17.592840000000002 2.96 0.3 5000022.3214
17.592840000000002 2.88 0.3 5000022.3214
17.592840000000002 2.74 0.3 5000022.3214
17.592840000000002 2.7 0.3 5000022.3214
21.41664 2.58 0.3 5000028.6944
21.41664 2.16 0.3 5000028.6944
21.41664 1.8 0.3 5000028.6944
21.41664 1.78 0.3 5000028.6944
21.41664 1.22 0.3 5000028.6944
21.41664 1.2 0.3 5000028.6944
15.15888 0.74 0.3 5000018.2648
28.29636 0.68 0.3 5000040.1606
28.29636 0.04 0.3 5000040.1606
44.33376 -1.72 0.3 5000066.8896
44.33376 -1.74 0.3 5000066.8896
124.19999999999999 -1.88 0.3 5000200.0
44.33376 -2.06 0.3 5000066.8896
124.19999999999999 -2.92 0.3 5000200.0
124.19999999999999 -3.0 0.3 5000200.0
44.33376 -3.08 0.3 5000066.8896
124.19999999999999 -3.2 0.3 5000200.0
124.19999999999999 -3.24 0.3 5000200.0
124.19999999999999 -3.42 0.3 5000200.0
28.29636 -5.8 0.3 5000040.1606
28.29636 -5.84 0.3 5000040.1606
17.592840000000002 -6.6 0.3 5000022.3214
13.4736 5.76 0.28 5000015.456
13.4736 5.74 0.28 5000015.456
13.4736 5.58 0.28 5000015.456
13.4736 5.56 0.28 5000015.456
13.4736 5.34 0.28 5000015.456
15.15888 5.28 0.28 5000018.2648
15.15888 4.46 0.28 5000018.2648
15.15888 4.44 0.28 5000018.2648
17.592840000000002 3.84 0.28 5000022.3214
17.592840000000002 3.82 0.28 5000022.3214
17.592840000000002 3.74 0.28 5000022.3214
17.592840000000002 3.7 0.28 5000022.3214
17.592840000000002 3.66 0.28 5000022.3214
17.592840000000002 3.54 0.28 5000022.3214
17.592840000000002 3.52 0.28 5000022.3214
17.592840000000002 3.46 0.28 5000022.3214
17.592840000000002 3.34 0.28 5000022.3214
17.592840000000002 3.32 0.28 5000022.3214
17.592840000000002 2.96 0.28 5000022.3214
17.592840000000002 2.88 0.28 5000022.3214
17.592840000000002 2.74 0.28 5000022.3214
17.592840000000002 2.7 0.28 5000022.3214
21.41664 2.58 0.28 5000028.6944
21.41664 2.16 0.28 5000028.6944
21.41664 1.8 0.28 5000028.6944
21.41664 1.78 0.28 5000028.6944
28.29636 0.9 0.28 5000040.1606
15.15888 0.78 0.28 5000018.2648
28.29636 0.68 0.28 5000040.1606
28.29636 0.04 0.28 5000040.1606
28.29636 -0.78 0.28 5000040.1606
44.33376 -1.74 0.28 5000066.8896
124.19999999999999 -1.88 0.28 5000200.0
44.33376 -2.06 0.28 5000066.8896
124.19999999999999 -2.92 0.28 5000200.0
124.19999999999999 -3.2 0.28 5000200.0
124.19999999999999 -3.24 0.28 5000200.0
124.19999999999999 -3.42 0.28 5000200.0
28.29636 -5.8 0.28 5000040.1606
28.29636 -5.84 0.28 5000040.1606
17.592840000000002 -6.58 0.28 5000022.3214
15.15888 4.94 0.26 5000018.2648
15.15888 4.46 0.26 5000018.2648
15.15888 4.44 0.26 5000018.2648
15.15888 4.42 0.26 5000018.2648
21.41664 4.28 0.26 5000028.6944
17.592840000000002 3.84 0.26 5000022.3214
17.592840000000002 3.82 0.26 5000022.3214
17.592840000000002 3.74 0.26 5000022.3214
17.592840000000002 3.7 0.26 5000022.3214
17.592840000000002 3.66 0.26 5000022.3214
17.592840000000002 3.54 0.26 5000022.3214
17.592840000000002 3.52 0.26 5000022.3214
17.592840000000002 3.46 0.26 5000022.3214
17.592840000000002 3.34 0.26 5000022.3214
17.592840000000002 3.32 0.26 5000022.3214
17.592840000000002 2.96 0.26 5000022.3214
17.592840000000002 2.88 0.26 5000022.3214
17.592840000000002 2.74 0.26 5000022.3214
17.592840000000002 2.7 0.26 5000022.3214
21.41664 2.58 0.26 5000028.6944
21.41664 2.16 0.26 5000028.6944
21.41664 1.8 0.26 5000028.6944
28.29636 0.9 0.26 5000040.1606
28.29636 0.68 0.26 5000040.1606
44.33376 0.48 0.26 5000066.8896
28.29636 -0.58 0.26 5000040.1606
124.19999999999999 -1.88 0.26 5000200.0
124.19999999999999 -2.18 0.26 5000200.0
124.19999999999999 -3.02 0.26 5000200.0
124.19999999999999 -3.2 0.26 5000200.0
28.29636 -5.34 0.26 5000040.1606
21.41664 -5.6 0.26 5000028.6944
28.29636 -5.8 0.26 5000040.1606
17.592840000000002 -5.9 0.26 5000022.3214
17.592840000000002 -6.58 0.26 5000022.3214
15.15888 4.96 0.24 5000018.2648
15.15888 4.94 0.24 5000018.2648
15.15888 4.46 0.24 5000018.2648
15.15888 4.44 0.24 5000018.2648
21.41664 4.32 0.24 5000028.6944
17.592840000000002 3.84 0.24 5000022.3214
17.592840000000002 3.82 0.24 5000022.3214
17.592840000000002 3.74 0.24 5000022.3214
17.592840000000002 3.7 0.24 5000022.3214
17.592840000000002 3.66 0.24 5000022.3214
17.592840000000002 3.54 0.24 5000022.3214
17.592840000000002 3.52 0.24 5000022.3214
17.592840000000002 3.32 0.24 5000022.3214
17.592840000000002 3.2 0.24 5000022.3214
17.592840000000002 2.96 0.24 5000022.3214
17.592840000000002 2.88 0.24 5000022.3214
17.592840000000002 2.74 0.24 5000022.3214
17.592840000000002 2.7 0.24 5000022.3214
21.41664 2.58 0.24 5000028.6944
21.41664 2.16 0.24 5000028.6944
21.41664 1.8 0.24 5000028.6944
17.592840000000002 1.22 0.24 5000022.3214
28.29636 0.9 0.24 5000040.1606
28.29636 0.68 0.24 5000040.1606
28.29636 0.42 0.24 5000040.1606
28.29636 0.4 0.24 5000040.1606
13.4736 -0.74 0.24 5000015.456
28.29636 -0.88 0.24 5000040.1606
124.19999999999999 -1.88 0.24 5000200.0
124.19999999999999 -2.18 0.24 5000200.0
124.19999999999999 -2.22 0.24 5000200.0
124.19999999999999 -2.5 0.24 5000200.0
124.19999999999999 -2.54 0.24 5000200.0
124.19999999999999 -2.78 0.24 5000200.0
44.33376 -3.02 0.24 5000066.8896
44.33376 -3.06 0.24 5000066.8896
124.19999999999999 -3.26 0.24 5000200.0
44.33376 -5.22 0.24 5000066.8896
28.29636 -5.34 0.24 5000040.1606
44.33376 -5.42 0.24 5000066.8896
28.29636 -5.8 0.24 5000040.1606
15.15888 -6.64 0.24 5000018.2648
15.15888 4.94 0.22 5000018.2648
15.15888 4.22 0.22 5000018.2648
15.15888 4.2 0.22 5000018.2648
17.592840000000002 3.84 0.22 5000022.3214
17.592840000000002 3.82 0.22 5000022.3214
17.592840000000002 3.76 0.22 5000022.3214
17.592840000000002 3.74 0.22 5000022.3214
17.592840000000002 3.54 0.22 5000022.3214
17.592840000000002 3.52 0.22 5000022.3214
17.592840000000002 3.32 0.22 5000022.3214
17.592840000000002 3.22 0.22 5000022.3214
17.592840000000002 3.2 0.22 5000022.3214
17.592840000000002 2.88 0.22 5000022.3214
17.592840000000002 2.74 0.22 5000022.3214
17.592840000000002 2.7 0.22 5000022.3214
21.41664 2.58 0.22 5000028.6944
21.41664 2.16 0.22 5000028.6944
21.41664 1.8 0.22 5000028.6944
21.41664 1.48 0.22 5000028.6944
21.41664 1.4 0.22 5000028.6944
17.592840000000002 1.24 0.22 5000022.3214
17.592840000000002 1.22 0.22 5000022.3214
28.29636 0.9 0.22 5000040.1606
28.29636 0.68 0.22 5000040.1606
28.29636 0.46 0.22 5000040.1606
28.29636 0.42 0.22 5000040.1606
28.29636 0.4 0.22 5000040.1606
28.29636 0.04 0.22 5000040.1606
17.592840000000002 -0.06 0.22 5000022.3214
13.4736 -0.2 0.22 5000015.456
124.19999999999999 -0.34 0.22 5000200.0
28.29636 -0.44 0.22 5000040.1606
28.29636 -0.56 0.22 5000040.1606
28.29636 -0.9 0.22 5000040.1606
44.33376 -1.32 0.22 5000066.8896
124.19999999999999 -1.88 0.22 5000200.0
124.19999999999999 -2.18 0.22 5000200.0
124.19999999999999 -2.22 0.22 5000200.0
124.19999999999999 -2.5 0.22 5000200.0
124.19999999999999 -2.76 0.22 5000200.0
124.19999999999999 -2.78 0.22 5000200.0
124.19999999999999 -3.26 0.22 5000200.0
28.29636 -5.38 0.22 5000040.1606
21.41664 -5.56 0.22 5000028.6944
21.41664 -5.84 0.22 5000028.6944
15.15888 5.44 0.2 5000018.2648
15.15888 5.28 0.2 5000018.2648
15.15888 5.26 0.2 5000018.2648
15.15888 4.72 0.2 5000018.2648
15.15888 4.58 0.2 5000018.2648
15.15888 4.26 0.2 5000018.2648
15.15888 4.24 0.2 5000018.2648
15.15888 4.22 0.2 5000018.2648
15.15888 4.2 0.2 5000018.2648
17.592840000000002 3.84 0.2 5000022.3214
17.592840000000002 3.82 0.2 5000022.3214
17.592840000000002 3.74 0.2 5000022.3214
17.592840000000002 3.54 0.2 5000022.3214
17.592840000000002 3.52 0.2 5000022.3214
17.592840000000002 3.4 0.2 5000022.3214
17.592840000000002 3.2 0.2 5000022.3214
17.592840000000002 2.88 0.2 5000022.3214
17.592840000000002 2.74 0.2 5000022.3214
17.592840000000002 2.7 0.2 5000022.3214
21.41664 2.58 0.2 5000028.6944
21.41664 2.16 0.2 5000028.6944
21.41664 1.8 0.2 5000028.6944
21.41664 1.48 0.2 5000028.6944
21.41664 1.32 0.2 5000028.6944
21.41664 1.28 0.2 5000028.6944
17.592840000000002 1.24 0.2 5000022.3214
28.29636 0.9 0.2 5000040.1606
28.29636 0.68 0.2 5000040.1606
28.29636 0.04 0.2 5000040.1606
13.4736 -0.2 0.2 5000015.456
13.4736 -0.7 0.2 5000015.456
15.15888 -1.1 0.2 5000018.2648
124.19999999999999 -1.88 0.2 5000200.0
124.19999999999999 -2.18 0.2 5000200.0
124.19999999999999 -2.22 0.2 5000200.0
124.19999999999999 -2.78 0.2 5000200.0
124.19999999999999 -3.26 0.2 5000200.0
124.19999999999999 -3.34 0.2 5000200.0
124.19999999999999 -3.36 0.2 5000200.0
21.41664 -5.56 0.2 5000028.6944
21.41664 -5.84 0.2 5000028.6944
15.15888 5.44 0.18 5000018.2648
15.15888 4.72 0.18 5000018.2648
15.15888 4.7 0.18 5000018.2648
15.15888 4.66 0.18 5000018.2648
15.15888 4.64 0.18 5000018.2648
15.15888 4.6 0.18 5000018.2648
15.15888 4.58 0.18 5000018.2648
15.15888 4.24 0.18 5000018.2648
15.15888 4.22 0.18 5000018.2648
17.592840000000002 3.84 0.18 5000022.3214
17.592840000000002 3.82 0.18 5000022.3214
17.592840000000002 3.54 0.18 5000022.3214
17.592840000000002 3.52 0.18 5000022.3214
17.592840000000002 3.42 0.18 5000022.3214
17.592840000000002 3.4 0.18 5000022.3214
17.592840000000002 3.2 0.18 5000022.3214
17.592840000000002 3.08 0.18 5000022.3214
17.592840000000002 2.88 0.18 5000022.3214
17.592840000000002 2.74 0.18 5000022.3214
17.592840000000002 2.7 0.18 5000022.3214
21.41664 2.58 0.18 5000028.6944
21.41664 2.16 0.18 5000028.6944
21.41664 1.8 0.18 5000028.6944
21.41664 1.48 0.18 5000028.6944
17.592840000000002 1.42 0.18 5000022.3214
21.41664 1.3 0.18 5000028.6944
21.41664 1.28 0.18 5000028.6944
28.29636 0.68 0.18 5000040.1606
28.29636 0.14 0.18 5000040.1606
28.29636 0.04 0.18 5000040.1606
13.4736 -0.2 0.18 5000015.456
44.33376 -1.2 0.18 5000066.8896
44.33376 -1.24 0.18 5000066.8896
28.29636 -1.32 0.18 5000040.1606
124.19999999999999 -1.88 0.18 5000200.0
124.19999999999999 -2.18 0.18 5000200.0
124.19999999999999 -2.22 0.18 5000200.0
124.19999999999999 -3.26 0.18 5000200.0
124.19999999999999 -3.34 0.18 5000200.0
124.19999999999999 -3.42 0.18 5000200.0
124.19999999999999 -3.86 0.18 5000200.0
124.19999999999999 -3.88 0.18 5000200.0
21.41664 -5.56 0.18 5000028.6944
21.41664 -5.86 0.18 5000028.6944
15.15888 -6.64 0.18 5000018.2648
15.15888 5.44 0.16 5000018.2648
15.15888 5.42 0.16 5000018.2648
15.15888 5.28 0.16 5000018.2648
15.15888 4.74 0.16 5000018.2648
15.15888 4.72 0.16 5000018.2648
15.15888 4.7 0.16 5000018.2648
15.15888 4.6 0.16 5000018.2648
15.15888 4.58 0.16 5000018.2648
17.592840000000002 3.54 0.16 5000022.3214
17.592840000000002 3.52 0.16 5000022.3214
17.592840000000002 3.4 0.16 5000022.3214
17.592840000000002 3.08 0.16 5000022.3214
17.592840000000002 2.88 0.16 5000022.3214
17.592840000000002 2.74 0.16 5000022.3214
21.41664 2.58 0.16 5000028.6944
21.41664 2.16 0.16 5000028.6944
21.41664 1.8 0.16 5000028.6944
21.41664 1.48 0.16 5000028.6944
17.592840000000002 1.42 0.16 5000022.3214
21.41664 1.28 0.16 5000028.6944
17.592840000000002 1.22 0.16 5000022.3214
28.29636 0.9 0.16 5000040.1606
28.29636 0.14 0.16 5000040.1606
28.29636 0.04 0.16 5000040.1606
13.4736 -0.2 0.16 5000015.456
12.23748 -0.48 0.16 5000013.3958
44.33376 -1.2 0.16 5000066.8896
44.33376 -1.24 0.16 5000066.8896
124.19999999999999 -1.88 0.16 5000200.0
124.19999999999999 -2.16 0.16 5000200.0
124.19999999999999 -2.18 0.16 5000200.0
124.19999999999999 -2.22 0.16 5000200.0
124.19999999999999 -3.28 0.16 5000200.0
124.19999999999999 -4.46 0.16 5000200.0
44.33376 -5.4 0.16 5000066.8896
21.41664 -5.56 0.16 5000028.6944
17.592840000000002 -5.62 0.16 5000022.3214
15.15888 5.42 0.14 5000018.2648
15.15888 5.4 0.14 5000018.2648
15.15888 4.74 0.14 5000018.2648
15.15888 4.72 0.14 5000018.2648
17.592840000000002 3.52 0.14 5000022.3214
17.592840000000002 3.4 0.14 5000022.3214
17.592840000000002 3.1 0.14 5000022.3214
17.592840000000002 3.08 0.14 5000022.3214
17.592840000000002 2.88 0.14 5000022.3214
17.592840000000002 2.74 0.14 5000022.3214
17.592840000000002 2.7 0.14 5000022.3214
21.41664 2.58 0.14 5000028.6944
21.41664 2.16 0.14 5000028.6944
21.41664 1.8 0.14 5000028.6944
21.41664 1.48 0.14 5000028.6944
21.41664 1.28 0.14 5000028.6944
17.592840000000002 1.22 0.14 5000022.3214
28.29636 0.9 0.14 5000040.1606
28.29636 0.66 0.14 5000040.1606
28.29636 0.14 0.14 5000040.1606
28.29636 0.04 0.14 5000040.1606
17.592840000000002 -0.3 0.14 5000022.3214
13.4736 -0.42 0.14 5000015.456
44.33376 -1.2 0.14 5000066.8896
44.33376 -1.24 0.14 5000066.8896
28.29636 -1.32 0.14 5000040.1606
44.33376 -2.06 0.14 5000066.8896
124.19999999999999 -2.16 0.14 5000200.0
124.19999999999999 -2.18 0.14 5000200.0
124.19999999999999 -2.22 0.14 5000200.0
124.19999999999999 -2.5 0.14 5000200.0
124.19999999999999 -2.92 0.14 5000200.0
7.004394 -3.7 0.14 5000004.67399
7.004394 -3.72 0.14 5000004.67399
124.19999999999999 -4.46 0.14 5000200.0
28.29636 -5.5 0.14 5000040.1606
21.41664 -5.56 0.14 5000028.6944
17.592840000000002 -5.66 0.14 5000022.3214
28.29636 -6.28 0.14 5000040.1606
17.592840000000002 -6.58 0.14 5000022.3214
15.15888 5.4 0.12 5000018.2648
15.15888 4.74 0.12 5000018.2648
15.15888 4.72 0.12 5000018.2648
17.592840000000002 3.4 0.12 5000022.3214
17.592840000000002 3.3 0.12 5000022.3214
17.592840000000002 3.16 0.12 5000022.3214
17.592840000000002 3.14 0.12 5000022.3214
17.592840000000002 2.88 0.12 5000022.3214
17.592840000000002 2.7 0.12 5000022.3214
21.41664 2.58 0.12 5000028.6944
21.41664 2.16 0.12 5000028.6944
21.41664 1.8 0.12 5000028.6944
21.41664 1.48 0.12 5000028.6944
21.41664 1.28 0.12 5000028.6944
17.592840000000002 1.22 0.12 5000022.3214
28.29636 0.14 0.12 5000040.1606
28.29636 0.04 0.12 5000040.1606
17.592840000000002 -0.32 0.12 5000022.3214
15.15888 -0.42 0.12 5000018.2648
13.4736 -0.7 0.12 5000015.456
9.023147999999999 -1.04 0.12 5000008.03858
44.33376 -1.24 0.12 5000066.8896
28.29636 -1.32 0.12 5000040.1606
44.33376 -2.06 0.12 5000066.8896
124.19999999999999 -2.16 0.12 5000200.0
124.19999999999999 -2.18 0.12 5000200.0
124.19999999999999 -2.5 0.12 5000200.0
124.19999999999999 -2.92 0.12 5000200.0
28.29636 -3.42 0.12 5000040.1606
28.29636 -3.46 0.12 5000040.1606
21.41664 -3.48 0.12 5000028.6944
12.23748 -3.54 0.12 5000013.3958
124.19999999999999 -4.04 0.12 5000200.0
124.19999999999999 -4.06 0.12 5000200.0
124.19999999999999 -4.08 0.12 5000200.0
28.29636 -4.1 0.12 5000040.1606
21.41664 -4.14 0.12 5000028.6944
21.41664 -4.16 0.12 5000028.6944
21.41664 -4.18 0.12 5000028.6944
17.592840000000002 -4.22 0.12 5000022.3214
17.592840000000002 -4.24 0.12 5000022.3214
17.592840000000002 -4.26 0.12 5000022.3214
44.33376 -4.32 0.12 5000066.8896
28.29636 -5.44 0.12 5000040.1606
28.29636 -5.48 0.12 5000040.1606
21.41664 -5.56 0.12 5000028.6944
17.592840000000002 -5.66 0.12 5000022.3214
17.592840000000002 3.42 0.1 5000022.3214
17.592840000000002 3.4 0.1 5000022.3214
17.592840000000002 3.3 0.1 5000022.3214
17.592840000000002 3.16 0.1 5000022.3214
17.592840000000002 3.14 0.1 5000022.3214
17.592840000000002 2.92 0.1 5000022.3214
17.592840000000002 2.88 0.1 5000022.3214
21.41664 2.58 0.1 5000028.6944
21.41664 2.16 0.1 5000028.6944
21.41664 1.8 0.1 5000028.6944
21.41664 1.48 0.1 5000028.6944
21.41664 1.28 0.1 5000028.6944
28.29636 0.9 0.1 5000040.1606
28.29636 0.14 0.1 5000040.1606
28.29636 0.04 0.1 5000040.1606
21.41664 -0.24 0.1 5000028.6944
17.592840000000002 -0.3 0.1 5000022.3214
17.592840000000002 -0.32 0.1 5000022.3214
15.15888 -0.46 0.1 5000018.2648
124.19999999999999 -0.96 0.1 5000200.0
9.023147999999999 -1.04 0.1 5000008.03858
28.29636 -1.32 0.1 5000040.1606
124.19999999999999 -2.16 0.1 5000200.0
124.19999999999999 -2.18 0.1 5000200.0
124.19999999999999 -2.2 0.1 5000200.0
124.19999999999999 -2.22 0.1 5000200.0
124.19999999999999 -2.5 0.1 5000200.0
124.19999999999999 -2.92 0.1 5000200.0
44.33376 -3.04 0.1 5000066.8896
44.33376 -3.06 0.1 5000066.8896
28.29636 -3.42 0.1 5000040.1606
124.19999999999999 -4.04 0.1 5000200.0
124.19999999999999 -4.06 0.1 5000200.0
124.19999999999999 -4.08 0.1 5000200.0
28.29636 -4.1 0.1 5000040.1606
28.29636 -4.12 0.1 5000040.1606
21.41664 -4.14 0.1 5000028.6944
21.41664 -4.16 0.1 5000028.6944
21.41664 -4.18 0.1 5000028.6944
17.592840000000002 -4.22 0.1 5000022.3214
17.592840000000002 -4.24 0.1 5000022.3214
21.41664 -4.38 0.1 5000028.6944
124.19999999999999 -4.46 0.1 5000200.0
21.41664 -5.56 0.1 5000028.6944
17.592840000000002 -5.66 0.1 5000022.3214
21.41664 -6.52 0.1 5000028.6944
15.15888 4.84 0.08 5000018.2648
15.15888 4.82 0.08 5000018.2648
15.15888 4.62 0.08 5000018.2648
15.15888 4.28 0.08 5000018.2648
17.592840000000002 3.42 0.08 5000022.3214
17.592840000000002 3.4 0.08 5000022.3214
17.592840000000002 3.3 0.08 5000022.3214
17.592840000000002 3.16 0.08 5000022.3214
17.592840000000002 3.14 0.08 5000022.3214
17.592840000000002 2.88 0.08 5000022.3214
21.41664 2.58 0.08 5000028.6944
21.41664 2.16 0.08 5000028.6944
21.41664 1.8 0.08 5000028.6944
21.41664 1.48 0.08 5000028.6944
21.41664 1.28 0.08 5000028.6944
28.29636 0.58 0.08 5000040.1606
28.29636 0.56 0.08 5000040.1606
28.29636 0.14 0.08 5000040.1606
21.41664 -0.24 0.08 5000028.6944
17.592840000000002 -0.32 0.08 5000022.3214
15.15888 -0.46 0.08 5000018.2648
124.19999999999999 -0.96 0.08 5000200.0
124.19999999999999 -1.12 0.08 5000200.0
28.29636 -1.26 0.08 5000040.1606
44.33376 -1.48 0.08 5000066.8896
9.941628000000001 -1.8 0.08 5000009.56938
124.19999999999999 -2.16 0.08 5000200.0
124.19999999999999 -2.18 0.08 5000200.0
44.33376 -2.22 0.08 5000066.8896
124.19999999999999 -2.5 0.08 5000200.0
124.19999999999999 -2.52 0.08 5000200.0
124.19999999999999 -2.92 0.08 5000200.0
44.33376 -3.04 0.08 5000066.8896
28.29636 -3.42 0.08 5000040.1606
124.19999999999999 -4.04 0.08 5000200.0
124.19999999999999 -4.06 0.08 5000200.0
44.33376 -5.34 0.08 5000066.8896
21.41664 -5.56 0.08 5000028.6944
17.592840000000002 -5.66 0.08 5000022.3214
15.15888 4.84 0.06 5000018.2648
15.15888 4.82 0.06 5000018.2648
15.15888 4.62 0.06 5000018.2648
15.15888 4.3 0.06 5000018.2648
15.15888 4.28 0.06 5000018.2648
17.592840000000002 3.16 0.06 5000022.3214
17.592840000000002 2.92 0.06 5000022.3214
17.592840000000002 2.72 0.06 5000022.3214
21.41664 2.58 0.06 5000028.6944
21.41664 2.16 0.06 5000028.6944
21.41664 1.8 0.06 5000028.6944
21.41664 1.78 0.06 5000028.6944
21.41664 1.42 0.06 5000028.6944
21.41664 1.34 0.06 5000028.6944
21.41664 1.28 0.06 5000028.6944
28.29636 0.58 0.06 5000040.1606
28.29636 0.18 0.06 5000040.1606
28.29636 0.14 0.06 5000040.1606
17.592840000000002 0.06 0.06 5000022.3214
44.33376 -0.24 0.06 5000066.8896
124.19999999999999 -1.12 0.06 5000200.0
44.33376 -1.2 0.06 5000066.8896
28.29636 -1.26 0.06 5000040.1606
44.33376 -1.46 0.06 5000066.8896
44.33376 -1.48 0.06 5000066.8896
44.33376 -1.72 0.06 5000066.8896
44.33376 -1.74 0.06 5000066.8896
17.592840000000002 -1.94 0.06 5000022.3214
17.592840000000002 -1.96 0.06 5000022.3214
44.33376 -2.18 0.06 5000066.8896
44.33376 -2.22 0.06 5000066.8896
124.19999999999999 -2.5 0.06 5000200.0
124.19999999999999 -2.52 0.06 5000200.0
13.4736 -2.58 0.06 5000015.456
124.19999999999999 -2.92 0.06 5000200.0
28.29636 -3.42 0.06 5000040.1606
124.19999999999999 -4.3 0.06 5000200.0
21.41664 -5.56 0.06 5000028.6944
21.41664 -5.58 0.06 5000028.6944
17.592840000000002 -5.66 0.06 5000022.3214
15.15888 4.84 0.04 5000018.2648
15.15888 4.82 0.04 5000018.2648
15.15888 4.32 0.04 5000018.2648
15.15888 4.3 0.04 5000018.2648
15.15888 4.28 0.04 5000018.2648
17.592840000000002 3.86 0.04 5000022.3214
17.592840000000002 3.18 0.04 5000022.3214
17.592840000000002 3.16 0.04 5000022.3214
17.592840000000002 2.72 0.04 5000022.3214
21.41664 2.58 0.04 5000028.6944
21.41664 2.16 0.04 5000028.6944
21.41664 1.8 0.04 5000028.6944
21.41664 1.78 0.04 5000028.6944
28.29636 1.5 0.04 5000040.1606
21.41664 1.42 0.04 5000028.6944
21.41664 1.4 0.04 5000028.6944
21.41664 1.34 0.04 5000028.6944
44.33376 0.24 0.04 5000066.8896
28.29636 0.22 0.04 5000040.1606
28.29636 0.18 0.04 5000040.1606
28.29636 0.14 0.04 5000040.1606
17.592840000000002 0.06 0.04 5000022.3214
12.23748 -0.08 0.04 5000013.3958
17.592840000000002 -0.32 0.04 5000022.3214
15.15888 -0.46 0.04 5000018.2648
124.19999999999999 -1.04 0.04 5000200.0
124.19999999999999 -1.12 0.04 5000200.0
44.33376 -1.2 0.04 5000066.8896
28.29636 -1.26 0.04 5000040.1606
44.33376 -1.48 0.04 5000066.8896
124.19999999999999 -1.66 0.04 5000200.0
44.33376 -1.72 0.04 5000066.8896
44.33376 -2.18 0.04 5000066.8896
44.33376 -2.2 0.04 5000066.8896
44.33376 -2.22 0.04 5000066.8896
124.19999999999999 -2.5 0.04 5000200.0
124.19999999999999 -2.52 0.04 5000200.0
124.19999999999999 -3.02 0.04 5000200.0
28.29636 -3.42 0.04 5000040.1606
124.19999999999999 -4.1 0.04 5000200.0
124.19999999999999 -4.28 0.04 5000200.0
124.19999999999999 -4.3 0.04 5000200.0
21.41664 -4.42 0.04 5000028.6944
21.41664 -5.56 0.04 5000028.6944
21.41664 -5.58 0.04 5000028.6944
17.592840000000002 -5.66 0.04 5000022.3214
15.15888 4.84 0.02 5000018.2648
17.592840000000002 3.86 0.02 5000022.3214
17.592840000000002 3.18 0.02 5000022.3214
17.592840000000002 3.16 0.02 5000022.3214
17.592840000000002 2.9 0.02 5000022.3214
21.41664 2.58 0.02 5000028.6944
21.41664 1.78 0.02 5000028.6944
21.41664 1.42 0.02 5000028.6944
21.41664 1.4 0.02 5000028.6944
21.41664 1.34 0.02 5000028.6944
21.41664 1.28 0.02 5000028.6944
28.29636 0.66 0.02 5000040.1606
28.29636 0.62 0.02 5000040.1606
28.29636 0.22 0.02 5000040.1606
28.29636 0.18 0.02 5000040.1606
28.29636 0.14 0.02 5000040.1606
17.592840000000002 0.06 0.02 5000022.3214
44.33376 -0.24 0.02 5000066.8896
17.592840000000002 -0.3 0.02 5000022.3214
17.592840000000002 -0.32 0.02 5000022.3214
15.15888 -0.46 0.02 5000018.2648
28.29636 -0.68 0.02 5000040.1606
124.19999999999999 -1.06 0.02 5000200.0
44.33376 -1.2 0.02 5000066.8896
124.19999999999999 -1.48 0.02 5000200.0
44.33376 -1.54 0.02 5000066.8896
124.19999999999999 -1.62 0.02 5000200.0
124.19999999999999 -1.64 0.02 5000200.0
124.19999999999999 -1.66 0.02 5000200.0
44.33376 -1.72 0.02 5000066.8896
44.33376 -2.12 0.02 5000066.8896
44.33376 -2.2 0.02 5000066.8896
124.19999999999999 -2.94 0.02 5000200.0
124.19999999999999 -3.02 0.02 5000200.0
124.19999999999999 -3.04 0.02 5000200.0
28.29636 -3.14 0.02 5000040.1606
28.29636 -3.42 0.02 5000040.1606
124.19999999999999 -4.1 0.02 5000200.0
124.19999999999999 -4.12 0.02 5000200.0
124.19999999999999 -4.16 0.02 5000200.0
44.33376 -4.18 0.02 5000066.8896
44.33376 -4.2 0.02 5000066.8896
44.33376 -4.24 0.02 5000066.8896
124.19999999999999 -4.28 0.02 5000200.0
21.41664 -5.56 0.02 5000028.6944
21.41664 -5.58 0.02 5000028.6944
17.592840000000002 -5.66 0.02 5000022.3214
15.15888 4.84 0.0 5000018.2648
17.592840000000002 3.18 0.0 5000022.3214
17.592840000000002 3.16 0.0 5000022.3214
17.592840000000002 2.9 0.0 5000022.3214
13.4736 2.78 0.0 5000015.456
17.592840000000002 2.72 0.0 5000022.3214
21.41664 2.58 0.0 5000028.6944
28.29636 0.66 0.0 5000040.1606
28.29636 0.62 0.0 5000040.1606
28.29636 0.18 0.0 5000040.1606
44.33376 -0.24 0.0 5000066.8896
17.592840000000002 -0.3 0.0 5000022.3214
17.592840000000002 -0.32 0.0 5000022.3214
15.15888 -0.46 0.0 5000018.2648
28.29636 -0.72 0.0 5000040.1606
44.33376 -1.2 0.0 5000066.8896
124.19999999999999 -1.48 0.0 5000200.0
44.33376 -1.54 0.0 5000066.8896
124.19999999999999 -1.62 0.0 5000200.0
124.19999999999999 -1.66 0.0 5000200.0
44.33376 -1.72 0.0 5000066.8896
17.592840000000002 -1.94 0.0 5000022.3214
44.33376 -2.12 0.0 5000066.8896
44.33376 -2.2 0.0 5000066.8896
124.19999999999999 -3.02 0.0 5000200.0
28.29636 -3.42 0.0 5000040.1606
124.19999999999999 -4.1 0.0 5000200.0
124.19999999999999 -4.12 0.0 5000200.0
124.19999999999999 -4.16 0.0 5000200.0
44.33376 -4.18 0.0 5000066.8896
44.33376 -4.2 0.0 5000066.8896
44.33376 -4.24 0.0 5000066.8896
124.19999999999999 -4.34 0.0 5000200.0
21.41664 -4.42 0.0 5000028.6944
21.41664 -4.44 0.0 5000028.6944
17.592840000000002 -4.48 0.0 5000022.3214
17.592840000000002 -4.5 0.0 5000022.3214
13.4736 -4.58 0.0 5000015.456
28.29636 -5.22 0.0 5000040.1606
21.41664 -5.56 0.0 5000028.6944
21.41664 -5.58 0.0 5000028.6944
17.592840000000002 -5.66 0.0 5000022.3214
15.15888 4.84 -0.02 5000018.2648
17.592840000000002 3.18 -0.02 5000022.3214
17.592840000000002 2.96 -0.02 5000022.3214
17.592840000000002 2.9 -0.02 5000022.3214
13.4736 2.78 -0.02 5000015.456
17.592840000000002 2.72 -0.02 5000022.3214
21.41664 2.58 -0.02 5000028.6944
21.41664 2.16 -0.02 5000028.6944
21.41664 1.54 -0.02 5000028.6944
28.29636 0.66 -0.02 5000040.1606
28.29636 0.62 -0.02 5000040.1606
44.33376 -0.24 -0.02 5000066.8896
17.592840000000002 -0.3 -0.02 5000022.3214
17.592840000000002 -0.32 -0.02 5000022.3214
15.15888 -0.44 -0.02 5000018.2648
10.54584 -0.6 -0.02 5000010.5764
8.089788 -0.94 -0.02 5000006.48298
11.29218 -1.14 -0.02 5000011.8203
44.33376 -1.2 -0.02 5000066.8896
124.19999999999999 -1.48 -0.02 5000200.0
44.33376 -1.54 -0.02 5000066.8896
124.19999999999999 -1.62 -0.02 5000200.0
44.33376 -1.66 -0.02 5000066.8896
44.33376 -1.72 -0.02 5000066.8896
17.592840000000002 -1.94 -0.02 5000022.3214
44.33376 -2.12 -0.02 5000066.8896
44.33376 -2.2 -0.02 5000066.8896
124.19999999999999 -3.02 -0.02 5000200.0
28.29636 -3.42 -0.02 5000040.1606
124.19999999999999 -4.04 -0.02 5000200.0
124.19999999999999 -4.1 -0.02 5000200.0
124.19999999999999 -4.16 -0.02 5000200.0
21.41664 -4.44 -0.02 5000028.6944
21.41664 -4.48 -0.02 5000028.6944
17.592840000000002 -4.5 -0.02 5000022.3214
28.29636 -5.34 -0.02 5000040.1606
21.41664 -5.56 -0.02 5000028.6944
15.15888 4.92 -0.04 5000018.2648
15.15888 4.84 -0.04 5000018.2648
17.592840000000002 2.96 -0.04 5000022.3214
17.592840000000002 2.9 -0.04 5000022.3214
17.592840000000002 2.86 -0.04 5000022.3214
13.4736 2.82 -0.04 5000015.456
13.4736 2.78 -0.04 5000015.456
17.592840000000002 2.72 -0.04 5000022.3214
17.592840000000002 2.7 -0.04 5000022.3214
17.592840000000002 2.68 -0.04 5000022.3214
21.41664 2.66 -0.04 5000028.6944
21.41664 2.62 -0.04 5000028.6944
21.41664 2.6 -0.04 5000028.6944
21.41664 2.58 -0.04 5000028.6944
21.41664 2.16 -0.04 5000028.6944
21.41664 2.14 -0.04 5000028.6944
44.33376 2.08 -0.04 5000066.8896
21.41664 2.0 -0.04 5000028.6944
21.41664 1.98 -0.04 5000028.6944
21.41664 1.96 -0.04 5000028.6944
17.592840000000002 1.94 -0.04 5000022.3214
17.592840000000002 1.88 -0.04 5000022.3214
17.592840000000002 1.86 -0.04 5000022.3214
17.592840000000002 1.84 -0.04 5000022.3214
21.41664 1.82 -0.04 5000028.6944
21.41664 1.8 -0.04 5000028.6944
21.41664 1.78 -0.04 5000028.6944
21.41664 1.18 -0.04 5000028.6944
28.29636 0.88 -0.04 5000040.1606
44.33376 -0.18 -0.04 5000066.8896
44.33376 -0.24 -0.04 5000066.8896
17.592840000000002 -0.3 -0.04 5000022.3214
10.54584 -0.6 -0.04 5000010.5764
28.29636 -1.1 -0.04 5000040.1606
44.33376 -1.2 -0.04 5000066.8896
124.19999999999999 -1.48 -0.04 5000200.0
44.33376 -1.54 -0.04 5000066.8896
44.33376 -1.58 -0.04 5000066.8896
124.19999999999999 -1.62 -0.04 5000200.0
44.33376 -1.66 -0.04 5000066.8896
28.29636 -1.72 -0.04 5000040.1606
17.592840000000002 -1.94 -0.04 5000022.3214
44.33376 -2.06 -0.04 5000066.8896
124.19999999999999 -2.96 -0.04 5000200.0
124.19999999999999 -3.02 -0.04 5000200.0
28.29636 -3.12 -0.04 5000040.1606
28.29636 -3.42 -0.04 5000040.1606
124.19999999999999 -4.02 -0.04 5000200.0
124.19999999999999 -4.04 -0.04 5000200.0
124.19999999999999 -4.1 -0.04 5000200.0
124.19999999999999 -4.26 -0.04 5000200.0
124.19999999999999 -4.3 -0.04 5000200.0
44.33376 -4.34 -0.04 5000066.8896
28.29636 -4.42 -0.04 5000040.1606
28.29636 -5.34 -0.04 5000040.1606
21.41664 -5.56 -0.04 5000028.6944
21.41664 -5.58 -0.04 5000028.6944
15.15888 4.94 -0.06 5000018.2648
15.15888 4.92 -0.06 5000018.2648
15.15888 4.84 -0.06 5000018.2648
17.592840000000002 2.9 -0.06 5000022.3214
17.592840000000002 2.72 -0.06 5000022.3214
44.33376 2.08 -0.06 5000066.8896
21.41664 2.0 -0.06 5000028.6944
21.41664 1.98 -0.06 5000028.6944
17.592840000000002 1.94 -0.06 5000022.3214
21.41664 1.78 -0.06 5000028.6944
28.29636 0.88 -0.06 5000040.1606
28.29636 0.38 -0.06 5000040.1606
124.19999999999999 0.04 -0.06 5000200.0
124.19999999999999 0.02 -0.06 5000200.0
44.33376 -0.14 -0.06 5000066.8896
44.33376 -0.18 -0.06 5000066.8896
44.33376 -0.24 -0.06 5000066.8896
28.29636 -0.68 -0.06 5000040.1606
28.29636 -0.72 -0.06 5000040.1606
28.29636 -1.1 -0.06 5000040.1606
44.33376 -1.2 -0.06 5000066.8896
124.19999999999999 -1.48 -0.06 5000200.0
44.33376 -1.54 -0.06 5000066.8896
44.33376 -1.58 -0.06 5000066.8896
124.19999999999999 -1.62 -0.06 5000200.0
44.33376 -1.66 -0.06 5000066.8896
28.29636 -1.72 -0.06 5000040.1606
17.592840000000002 -1.94 -0.06 5000022.3214
44.33376 -2.08 -0.06 5000066.8896
124.19999999999999 -2.38 -0.06 5000200.0
124.19999999999999 -2.96 -0.06 5000200.0
124.19999999999999 -3.02 -0.06 5000200.0
28.29636 -3.14 -0.06 5000040.1606
28.29636 -3.42 -0.06 5000040.1606
124.19999999999999 -4.16 -0.06 5000200.0
124.19999999999999 -4.26 -0.06 5000200.0
124.19999999999999 -4.3 -0.06 5000200.0
44.33376 -4.34 -0.06 5000066.8896
28.29636 -4.42 -0.06 5000040.1606
28.29636 -4.44 -0.06 5000040.1606
28.29636 -4.46 -0.06 5000040.1606
28.29636 -5.34 -0.06 5000040.1606
21.41664 -5.4 -0.06 5000028.6944
21.41664 -5.56 -0.06 5000028.6944
21.41664 -5.58 -0.06 5000028.6944
17.592840000000002 -5.64 -0.06 5000022.3214
15.15888 -6.6 -0.06 5000018.2648
15.15888 4.92 -0.08 5000018.2648
15.15888 4.84 -0.08 5000018.2648
17.592840000000002 2.96 -0.08 5000022.3214
17.592840000000002 1.32 -0.08 5000022.3214
21.41664 0.94 -0.08 5000028.6944
28.29636 0.38 -0.08 5000040.1606
28.29636 -0.14 -0.08 5000040.1606
12.23748 -0.5 -0.08 5000013.3958
28.29636 -0.72 -0.08 5000040.1606
28.29636 -0.92 -0.08 5000040.1606
28.29636 -0.98 -0.08 5000040.1606
11.29218 -1.1 -0.08 5000011.8203
44.33376 -1.2 -0.08 5000066.8896
28.29636 -1.26 -0.08 5000040.1606
124.19999999999999 -1.48 -0.08 5000200.0
44.33376 -1.54 -0.08 5000066.8896
44.33376 -1.58 -0.08 5000066.8896
124.19999999999999 -1.62 -0.08 5000200.0
44.33376 -1.64 -0.08 5000066.8896
44.33376 -1.66 -0.08 5000066.8896
28.29636 -1.72 -0.08 5000040.1606
28.29636 -1.74 -0.08 5000040.1606
28.29636 -1.76 -0.08 5000040.1606
17.592840000000002 -1.94 -0.08 5000022.3214
44.33376 -2.08 -0.08 5000066.8896
124.19999999999999 -2.96 -0.08 5000200.0
124.19999999999999 -3.06 -0.08 5000200.0
28.29636 -3.14 -0.08 5000040.1606
28.29636 -3.16 -0.08 5000040.1606
28.29636 -3.42 -0.08 5000040.1606
124.19999999999999 -4.26 -0.08 5000200.0
124.19999999999999 -4.3 -0.08 5000200.0
44.33376 -4.34 -0.08 5000066.8896
44.33376 -4.38 -0.08 5000066.8896
28.29636 -4.42 -0.08 5000040.1606
28.29636 -4.44 -0.08 5000040.1606
28.29636 -4.46 -0.08 5000040.1606
12.23748 -4.96 -0.08 5000013.3958
28.29636 -5.34 -0.08 5000040.1606
21.41664 -5.4 -0.08 5000028.6944
21.41664 -5.56 -0.08 5000028.6944
21.41664 -5.58 -0.08 5000028.6944
15.15888 -6.6 -0.08 5000018.2648
15.15888 4.92 -0.1 5000018.2648
15.15888 4.84 -0.1 5000018.2648
21.41664 2.48 -0.1 5000028.6944
21.41664 2.14 -0.1 5000028.6944
21.41664 1.84 -0.1 5000028.6944
21.41664 1.82 -0.1 5000028.6944
21.41664 1.38 -0.1 5000028.6944
21.41664 0.94 -0.1 5000028.6944
15.15888 -0.26 -0.1 5000018.2648
28.29636 -0.94 -0.1 5000040.1606
44.33376 -1.2 -0.1 5000066.8896
124.19999999999999 -1.48 -0.1 5000200.0
44.33376 -1.54 -0.1 5000066.8896
44.33376 -2.08 -0.1 5000066.8896
124.19999999999999 -2.36 -0.1 5000200.0
21.41664 -2.4 -0.1 5000028.6944
28.29636 -2.52 -0.1 5000040.1606
124.19999999999999 -2.96 -0.1 5000200.0
124.19999999999999 -3.04 -0.1 5000200.0
124.19999999999999 -3.06 -0.1 5000200.0
28.29636 -3.12 -0.1 5000040.1606
28.29636 -3.14 -0.1 5000040.1606
28.29636 -3.16 -0.1 5000040.1606
28.29636 -3.2 -0.1 5000040.1606
28.29636 -3.42 -0.1 5000040.1606
124.19999999999999 -4.3 -0.1 5000200.0
44.33376 -4.34 -0.1 5000066.8896
44.33376 -4.36 -0.1 5000066.8896
44.33376 -4.38 -0.1 5000066.8896
28.29636 -4.42 -0.1 5000040.1606
28.29636 -4.44 -0.1 5000040.1606
13.4736 -4.54 -0.1 5000015.456
12.23748 -4.58 -0.1 5000013.3958
12.23748 -4.6 -0.1 5000013.3958
28.29636 -5.34 -0.1 5000040.1606
28.29636 -5.48 -0.1 5000040.1606
21.41664 -5.56 -0.1 5000028.6944
21.41664 -5.58 -0.1 5000028.6944
15.15888 -6.6 -0.1 5000018.2648
15.15888 4.92 -0.12 5000018.2648
15.15888 4.84 -0.12 5000018.2648
21.41664 1.48 -0.12 5000028.6944
21.41664 1.38 -0.12 5000028.6944
21.41664 0.94 -0.12 5000028.6944
21.41664 -0.04 -0.12 5000028.6944
15.15888 -0.18 -0.12 5000018.2648
28.29636 -0.34 -0.12 5000040.1606
21.41664 -0.42 -0.12 5000028.6944
28.29636 -0.94 -0.12 5000040.1606
44.33376 -2.08 -0.12 5000066.8896
44.33376 -2.24 -0.12 5000066.8896
124.19999999999999 -2.36 -0.12 5000200.0
21.41664 -2.4 -0.12 5000028.6944
21.41664 -2.44 -0.12 5000028.6944
28.29636 -2.52 -0.12 5000040.1606
124.19999999999999 -2.86 -0.12 5000200.0
124.19999999999999 -2.98 -0.12 5000200.0
124.19999999999999 -3.02 -0.12 5000200.0
124.19999999999999 -3.04 -0.12 5000200.0
124.19999999999999 -3.06 -0.12 5000200.0
28.29636 -3.12 -0.12 5000040.1606
28.29636 -3.14 -0.12 5000040.1606
28.29636 -3.16 -0.12 5000040.1606
28.29636 -3.42 -0.12 5000040.1606
124.19999999999999 -4.06 -0.12 5000200.0
124.19999999999999 -4.08 -0.12 5000200.0
124.19999999999999 -4.12 -0.12 5000200.0
28.29636 -4.18 -0.12 5000040.1606
28.29636 -4.2 -0.12 5000040.1606
28.29636 -5.34 -0.12 5000040.1606
21.41664 -5.4 -0.12 5000028.6944
28.29636 -5.48 -0.12 5000040.1606
21.41664 -5.56 -0.12 5000028.6944
21.41664 -5.58 -0.12 5000028.6944
15.15888 -6.6 -0.12 5000018.2648
15.15888 5.38 -0.14 5000018.2648
15.15888 5.14 -0.14 5000018.2648
15.15888 4.92 -0.14 5000018.2648
15.15888 4.84 -0.14 5000018.2648
15.15888 4.82 -0.14 5000018.2648
17.592840000000002 3.0 -0.14 5000022.3214
17.592840000000002 2.98 -0.14 5000022.3214
21.41664 1.48 -0.14 5000028.6944
21.41664 1.38 -0.14 5000028.6944
21.41664 0.96 -0.14 5000028.6944
21.41664 0.94 -0.14 5000028.6944
21.41664 0.9 -0.14 5000028.6944
21.41664 -0.04 -0.14 5000028.6944
13.4736 -0.22 -0.14 5000015.456
28.29636 -0.92 -0.14 5000040.1606
124.19999999999999 -1.9 -0.14 5000200.0
44.33376 -2.08 -0.14 5000066.8896
44.33376 -2.22 -0.14 5000066.8896
44.33376 -2.24 -0.14 5000066.8896
124.19999999999999 -2.36 -0.14 5000200.0
21.41664 -2.4 -0.14 5000028.6944
21.41664 -2.44 -0.14 5000028.6944
28.29636 -2.52 -0.14 5000040.1606
44.33376 -2.72 -0.14 5000066.8896
124.19999999999999 -2.86 -0.14 5000200.0
124.19999999999999 -3.02 -0.14 5000200.0
28.29636 -3.42 -0.14 5000040.1606
124.19999999999999 -4.08 -0.14 5000200.0
28.29636 -4.16 -0.14 5000040.1606
28.29636 -5.18 -0.14 5000040.1606
28.29636 -5.22 -0.14 5000040.1606
44.33376 -5.28 -0.14 5000066.8896
28.29636 -5.34 -0.14 5000040.1606
21.41664 -5.4 -0.14 5000028.6944
21.41664 -5.58 -0.14 5000028.6944
15.15888 -6.6 -0.14 5000018.2648
15.15888 5.38 -0.16 5000018.2648
15.15888 5.14 -0.16 5000018.2648
15.15888 4.92 -0.16 5000018.2648
15.15888 4.84 -0.16 5000018.2648
15.15888 4.82 -0.16 5000018.2648
17.592840000000002 3.0 -0.16 5000022.3214
17.592840000000002 2.98 -0.16 5000022.3214
21.41664 2.46 -0.16 5000028.6944
21.41664 2.44 -0.16 5000028.6944
21.41664 2.18 -0.16 5000028.6944
21.41664 1.74 -0.16 5000028.6944
21.41664 1.38 -0.16 5000028.6944
21.41664 1.02 -0.16 5000028.6944
21.41664 0.9 -0.16 5000028.6944
15.15888 0.54 -0.16 5000018.2648
21.41664 0.5 -0.16 5000028.6944
21.41664 -0.04 -0.16 5000028.6944
21.41664 -0.06 -0.16 5000028.6944
13.4736 -0.22 -0.16 5000015.456
44.33376 -2.06 -0.16 5000066.8896
44.33376 -2.08 -0.16 5000066.8896
44.33376 -2.16 -0.16 5000066.8896
44.33376 -2.18 -0.16 5000066.8896
44.33376 -2.22 -0.16 5000066.8896
124.19999999999999 -2.36 -0.16 5000200.0
21.41664 -2.4 -0.16 5000028.6944
44.33376 -2.72 -0.16 5000066.8896
44.33376 -2.76 -0.16 5000066.8896
124.19999999999999 -2.8 -0.16 5000200.0
124.19999999999999 -3.24 -0.16 5000200.0
28.29636 -3.42 -0.16 5000040.1606
28.29636 -3.7 -0.16 5000040.1606
21.41664 -3.78 -0.16 5000028.6944
44.33376 -4.08 -0.16 5000066.8896
44.33376 -4.86 -0.16 5000066.8896
124.19999999999999 -5.1 -0.16 5000200.0
28.29636 -5.22 -0.16 5000040.1606
44.33376 -5.28 -0.16 5000066.8896
28.29636 -5.34 -0.16 5000040.1606
21.41664 -5.4 -0.16 5000028.6944
21.41664 -5.58 -0.16 5000028.6944
15.15888 -6.6 -0.16 5000018.2648
15.15888 5.38 -0.18 5000018.2648
15.15888 5.14 -0.18 5000018.2648
15.15888 4.92 -0.18 5000018.2648
15.15888 4.84 -0.18 5000018.2648
15.15888 4.82 -0.18 5000018.2648
17.592840000000002 2.98 -0.18 5000022.3214
21.41664 2.46 -0.18 5000028.6944
21.41664 2.44 -0.18 5000028.6944
21.41664 2.18 -0.18 5000028.6944
21.41664 1.74 -0.18 5000028.6944
21.41664 1.5 -0.18 5000028.6944
21.41664 1.38 -0.18 5000028.6944
124.19999999999999 0.84 -0.18 5000200.0
124.19999999999999 0.82 -0.18 5000200.0
124.19999999999999 0.8 -0.18 5000200.0
21.41664 0.68 -0.18 5000028.6944
15.15888 0.56 -0.18 5000018.2648
15.15888 0.54 -0.18 5000018.2648
15.15888 0.52 -0.18 5000018.2648
17.592840000000002 0.44 -0.18 5000022.3214
21.41664 -0.04 -0.18 5000028.6944
13.4736 -0.22 -0.18 5000015.456
13.4736 -0.26 -0.18 5000015.456
44.33376 -2.06 -0.18 5000066.8896
44.33376 -2.08 -0.18 5000066.8896
44.33376 -2.2 -0.18 5000066.8896
124.19999999999999 -3.26 -0.18 5000200.0
28.29636 -3.42 -0.18 5000040.1606
28.29636 -3.7 -0.18 5000040.1606
21.41664 -3.78 -0.18 5000028.6944
124.19999999999999 -4.08 -0.18 5000200.0
44.33376 -4.86 -0.18 5000066.8896
44.33376 -4.88 -0.18 5000066.8896
28.29636 -4.96 -0.18 5000040.1606
28.29636 -5.22 -0.18 5000040.1606
44.33376 -5.28 -0.18 5000066.8896
28.29636 -5.34 -0.18 5000040.1606
28.29636 -5.36 -0.18 5000040.1606
21.41664 -5.58 -0.18 5000028.6944
15.15888 -6.6 -0.18 5000018.2648
15.15888 5.38 -0.2 5000018.2648
15.15888 5.14 -0.2 5000018.2648
15.15888 4.92 -0.2 5000018.2648
15.15888 4.84 -0.2 5000018.2648
15.15888 4.82 -0.2 5000018.2648
21.41664 1.74 -0.2 5000028.6944
21.41664 1.5 -0.2 5000028.6944
21.41664 1.36 -0.2 5000028.6944
28.29636 0.74 -0.2 5000040.1606
21.41664 0.68 -0.2 5000028.6944
15.15888 0.56 -0.2 5000018.2648
21.41664 -0.04 -0.2 5000028.6944
21.41664 -1.2 -0.2 5000028.6944
44.33376 -2.06 -0.2 5000066.8896
44.33376 -2.08 -0.2 5000066.8896
44.33376 -2.16 -0.2 5000066.8896
28.29636 -2.2 -0.2 5000040.1606
124.19999999999999 -2.54 -0.2 5000200.0
28.29636 -2.6 -0.2 5000040.1606
44.33376 -3.12 -0.2 5000066.8896
124.19999999999999 -3.26 -0.2 5000200.0
28.29636 -3.42 -0.2 5000040.1606
28.29636 -3.7 -0.2 5000040.1606
21.41664 -3.78 -0.2 5000028.6944
28.29636 -4.08 -0.2 5000040.1606
124.19999999999999 -5.1 -0.2 5000200.0
124.19999999999999 -5.12 -0.2 5000200.0
28.29636 -5.2 -0.2 5000040.1606
28.29636 -5.22 -0.2 5000040.1606
44.33376 -5.28 -0.2 5000066.8896
28.29636 -5.34 -0.2 5000040.1606
28.29636 -5.4 -0.2 5000040.1606
21.41664 -5.58 -0.2 5000028.6944
15.15888 -6.6 -0.2 5000018.2648
15.15888 5.66 -0.22 5000018.2648
15.15888 5.38 -0.22 5000018.2648
15.15888 5.14 -0.22 5000018.2648
15.15888 4.92 -0.22 5000018.2648
15.15888 4.84 -0.22 5000018.2648
15.15888 4.82 -0.22 5000018.2648
17.592840000000002 3.54 -0.22 5000022.3214
21.41664 1.5 -0.22 5000028.6944
21.41664 1.36 -0.22 5000028.6944
21.41664 0.94 -0.22 5000028.6944
21.41664 0.68 -0.22 5000028.6944
15.15888 0.56 -0.22 5000018.2648
15.15888 0.42 -0.22 5000018.2648
21.41664 -0.04 -0.22 5000028.6944
21.41664 -1.22 -0.22 5000028.6944
124.19999999999999 -1.98 -0.22 5000200.0
124.19999999999999 -2.06 -0.22 5000200.0
124.19999999999999 -2.08 -0.22 5000200.0
28.29636 -2.16 -0.22 5000040.1606
28.29636 -2.2 -0.22 5000040.1606
124.19999999999999 -2.54 -0.22 5000200.0
28.29636 -2.58 -0.22 5000040.1606
28.29636 -2.6 -0.22 5000040.1606
28.29636 -3.42 -0.22 5000040.1606
28.29636 -3.68 -0.22 5000040.1606
124.19999999999999 -5.1 -0.22 5000200.0
28.29636 -5.2 -0.22 5000040.1606
28.29636 -5.22 -0.22 5000040.1606
44.33376 -5.28 -0.22 5000066.8896
28.29636 -5.34 -0.22 5000040.1606
28.29636 -5.36 -0.22 5000040.1606
21.41664 -5.58 -0.22 5000028.6944
15.15888 -6.6 -0.22 5000018.2648
15.15888 5.38 -0.24 5000018.2648
15.15888 5.14 -0.24 5000018.2648
15.15888 4.92 -0.24 5000018.2648
15.15888 4.84 -0.24 5000018.2648
15.15888 4.82 -0.24 5000018.2648
17.592840000000002 3.54 -0.24 5000022.3214
17.592840000000002 3.5 -0.24 5000022.3214
17.592840000000002 3.48 -0.24 5000022.3214
15.15888 2.96 -0.24 5000018.2648
21.41664 1.5 -0.24 5000028.6944
21.41664 1.38 -0.24 5000028.6944
21.41664 1.36 -0.24 5000028.6944
21.41664 0.68 -0.24 5000028.6944
15.15888 0.6 -0.24 5000018.2648
15.15888 0.58 -0.24 5000018.2648
15.15888 0.56 -0.24 5000018.2648
15.15888 0.42 -0.24 5000018.2648
17.592840000000002 0.36 -0.24 5000022.3214
17.592840000000002 0.34 -0.24 5000022.3214
21.41664 -0.04 -0.24 5000028.6944
28.29636 -0.4 -0.24 5000040.1606
17.592840000000002 -0.5 -0.24 5000022.3214
12.23748 -0.7 -0.24 5000013.3958
28.29636 -0.86 -0.24 5000040.1606
124.19999999999999 -1.14 -0.24 5000200.0
21.41664 -1.22 -0.24 5000028.6944
124.19999999999999 -1.98 -0.24 5000200.0
124.19999999999999 -2.06 -0.24 5000200.0
124.19999999999999 -2.08 -0.24 5000200.0
28.29636 -2.2 -0.24 5000040.1606
44.33376 -3.32 -0.24 5000066.8896
44.33376 -3.34 -0.24 5000066.8896
28.29636 -3.42 -0.24 5000040.1606
28.29636 -3.64 -0.24 5000040.1606
28.29636 -4.08 -0.24 5000040.1606
124.19999999999999 -5.12 -0.24 5000200.0
28.29636 -5.2 -0.24 5000040.1606
