VERSION .7
FIELDS x y z rgb
SIZE 4 4 4 4
TYPE F F F F
COUNT 1 1 1 1
WIDTH 1521
HEIGHT 1
VIEWPOINT 0 0 0 1 0 0 0
POINTS 1521
DATA ascii
124.19999999999999 -2.54 0.82 200.0
124.19999999999999 -2.92 0.82 200.0
124.19999999999999 -3.22 0.82 200.0
124.19999999999999 -3.7 0.82 200.0
124.19999999999999 -3.78 0.82 200.0
15.15888 5.88 0.8 18.2648
15.15888 5.86 0.8 18.2648
15.15888 5.84 0.8 18.2648
17.592840000000002 3.68 0.8 22.3214
17.592840000000002 3.66 0.8 22.3214
17.592840000000002 3.64 0.8 22.3214
21.41664 2.78 0.8 28.6944
21.41664 2.76 0.8 28.6944
17.592840000000002 1.84 0.8 22.3214
17.592840000000002 1.82 0.8 22.3214
21.41664 1.04 0.8 28.6944
28.29636 0.22 0.8 40.1606
28.29636 0.2 0.8 40.1606
28.29636 0.16 0.8 40.1606
124.19999999999999 -0.08 0.8 200.0
21.41664 -0.26 0.8 28.6944
21.41664 -0.5 0.8 28.6944
17.592840000000002 -0.56 0.8 22.3214
44.33376 -1.06 0.8 66.8896
21.41664 -1.2 0.8 28.6944
44.33376 -1.46 0.8 66.8896
124.19999999999999 -1.9 0.8 200.0
124.19999999999999 -1.92 0.8 200.0
124.19999999999999 -2.74 0.8 200.0
124.19999999999999 -2.76 0.8 200.0
124.19999999999999 -3.18 0.8 200.0
124.19999999999999 -3.2 0.8 200.0
124.19999999999999 -3.7 0.8 200.0
124.19999999999999 -3.78 0.8 200.0
21.41664 -5.44 0.8 28.6944
15.15888 5.88 0.78 18.2648
15.15888 5.86 0.78 18.2648
15.15888 5.84 0.78 18.2648
17.592840000000002 3.68 0.78 22.3214
17.592840000000002 3.66 0.78 22.3214
21.41664 2.76 0.78 28.6944
17.592840000000002 1.7 0.78 22.3214
17.592840000000002 1.66 0.78 22.3214
17.592840000000002 1.36 0.78 22.3214
21.41664 1.04 0.78 28.6944
21.41664 1.0 0.78 28.6944
28.29636 0.42 0.78 40.1606
28.29636 0.22 0.78 40.1606
28.29636 0.2 0.78 40.1606
28.29636 0.16 0.78 40.1606
21.41664 -0.26 0.78 28.6944
17.592840000000002 -0.42 0.78 22.3214
21.41664 -0.74 0.78 28.6944
21.41664 -1.2 0.78 28.6944
44.33376 -1.46 0.78 66.8896
124.19999999999999 -1.62 0.78 200.0
124.19999999999999 -1.9 0.78 200.0
124.19999999999999 -1.92 0.78 200.0
124.19999999999999 -3.18 0.78 200.0
124.19999999999999 -3.78 0.78 200.0
21.41664 -5.44 0.78 28.6944
15.15888 -6.58 0.78 18.2648
15.15888 5.88 0.76 18.2648
15.15888 5.86 0.76 18.2648
15.15888 5.84 0.76 18.2648
17.592840000000002 3.68 0.76 22.3214
21.41664 2.76 0.76 28.6944
17.592840000000002 1.92 0.76 22.3214
17.592840000000002 1.78 0.76 22.3214
17.592840000000002 1.72 0.76 22.3214
17.592840000000002 1.7 0.76 22.3214
17.592840000000002 1.36 0.76 22.3214
17.592840000000002 1.3 0.76 22.3214
21.41664 1.04 0.76 28.6944
21.41664 1.0 0.76 28.6944
28.29636 0.22 0.76 40.1606
28.29636 0.2 0.76 40.1606
28.29636 0.16 0.76 40.1606
21.41664 0.14 0.76 28.6944
17.592840000000002 -0.16 0.76 22.3214
21.41664 -0.26 0.76 28.6944
124.19999999999999 -0.66 0.76 200.0
124.19999999999999 -0.84 0.76 200.0
44.33376 -0.92 0.76 66.8896
44.33376 -0.94 0.76 66.8896
28.29636 -0.98 0.76 40.1606
44.33376 -1.46 0.76 66.8896
124.19999999999999 -1.62 0.76 200.0
124.19999999999999 -1.74 0.76 200.0
44.33376 -1.82 0.76 66.8896
124.19999999999999 -1.9 0.76 200.0
124.19999999999999 -1.94 0.76 200.0
15.15888 -2.26 0.76 18.2648
124.19999999999999 -2.74 0.76 200.0
124.19999999999999 -3.18 0.76 200.0
21.41664 -5.44 0.76 28.6944
21.41664 -5.6 0.76 28.6944
15.15888 -6.54 0.76 18.2648
15.15888 5.88 0.74 18.2648
15.15888 5.86 0.74 18.2648
15.15888 5.84 0.74 18.2648
15.15888 5.18 0.74 18.2648
17.592840000000002 3.68 0.74 22.3214
21.41664 2.76 0.74 28.6944
17.592840000000002 1.94 0.74 22.3214
17.592840000000002 1.92 0.74 22.3214
17.592840000000002 1.78 0.74 22.3214
17.592840000000002 1.7 0.74 22.3214
21.41664 1.38 0.74 28.6944
17.592840000000002 1.32 0.74 22.3214
21.41664 1.04 0.74 28.6944
21.41664 1.0 0.74 28.6944
28.29636 0.22 0.74 40.1606
28.29636 0.2 0.74 40.1606
28.29636 0.16 0.74 40.1606
28.29636 0.14 0.74 40.1606
28.29636 -0.04 0.74 40.1606
17.592840000000002 -0.16 0.74 22.3214
21.41664 -0.26 0.74 28.6944
44.33376 -0.76 0.74 66.8896
124.19999999999999 -0.84 0.74 200.0
124.19999999999999 -0.86 0.74 200.0
44.33376 -0.92 0.74 66.8896
28.29636 -0.98 0.74 40.1606
44.33376 -1.46 0.74 66.8896
124.19999999999999 -1.74 0.74 200.0
44.33376 -1.82 0.74 66.8896
124.19999999999999 -1.9 0.74 200.0
124.19999999999999 -1.92 0.74 200.0
15.15888 -2.3 0.74 18.2648
124.19999999999999 -2.66 0.74 200.0
124.19999999999999 -2.74 0.74 200.0
124.19999999999999 -2.76 0.74 200.0
21.41664 -5.32 0.74 28.6944
21.41664 -5.6 0.74 28.6944
17.592840000000002 -5.68 0.74 22.3214
15.15888 5.88 0.72 18.2648
15.15888 5.86 0.72 18.2648
15.15888 5.18 0.72 18.2648
15.15888 4.92 0.72 18.2648
17.592840000000002 3.68 0.72 22.3214
21.41664 2.76 0.72 28.6944
17.592840000000002 1.92 0.72 22.3214
17.592840000000002 1.62 0.72 22.3214
21.41664 1.36 0.72 28.6944
21.41664 1.04 0.72 28.6944
21.41664 1.0 0.72 28.6944
28.29636 0.34 0.72 40.1606
28.29636 0.2 0.72 40.1606
28.29636 0.14 0.72 40.1606
28.29636 -0.04 0.72 40.1606
124.19999999999999 -0.68 0.72 200.0
124.19999999999999 -0.76 0.72 200.0
124.19999999999999 -0.84 0.72 200.0
124.19999999999999 -0.86 0.72 200.0
44.33376 -0.92 0.72 66.8896
28.29636 -0.98 0.72 40.1606
124.19999999999999 -1.74 0.72 200.0
124.19999999999999 -1.9 0.72 200.0
124.19999999999999 -1.92 0.72 200.0
124.19999999999999 -1.96 0.72 200.0
124.19999999999999 -2.24 0.72 200.0
124.19999999999999 -2.5 0.72 200.0
124.19999999999999 -2.66 0.72 200.0
124.19999999999999 -2.76 0.72 200.0
124.19999999999999 -2.98 0.72 200.0
124.19999999999999 -3.54 0.72 200.0
21.41664 -5.3 0.72 28.6944
21.41664 -5.32 0.72 28.6944
17.592840000000002 -5.68 0.72 22.3214
15.15888 -6.52 0.72 18.2648
15.15888 5.88 0.7 18.2648
15.15888 5.86 0.7 18.2648
15.15888 5.84 0.7 18.2648
15.15888 5.18 0.7 18.2648
15.15888 4.94 0.7 18.2648
15.15888 4.92 0.7 18.2648
21.41664 2.76 0.7 28.6944
17.592840000000002 1.64 0.7 22.3214
21.41664 1.38 0.7 28.6944
21.41664 1.04 0.7 28.6944
21.41664 1.0 0.7 28.6944
28.29636 0.14 0.7 40.1606
28.29636 -0.04 0.7 40.1606
28.29636 -0.08 0.7 40.1606
124.19999999999999 -0.2 0.7 200.0
124.19999999999999 -0.68 0.7 200.0
124.19999999999999 -0.76 0.7 200.0
124.19999999999999 -0.84 0.7 200.0
44.33376 -0.92 0.7 66.8896
28.29636 -0.98 0.7 40.1606
124.19999999999999 -1.9 0.7 200.0
124.19999999999999 -1.92 0.7 200.0
124.19999999999999 -1.94 0.7 200.0
124.19999999999999 -2.24 0.7 200.0
124.19999999999999 -2.5 0.7 200.0
124.19999999999999 -2.66 0.7 200.0
124.19999999999999 -2.8 0.7 200.0
124.19999999999999 -2.98 0.7 200.0
21.41664 -5.3 0.7 28.6944
15.15888 -6.52 0.7 18.2648
15.15888 5.88 0.68 18.2648
15.15888 5.86 0.68 18.2648
15.15888 5.84 0.68 18.2648
15.15888 5.18 0.68 18.2648
15.15888 5.16 0.68 18.2648
15.15888 4.98 0.68 18.2648
15.15888 4.96 0.68 18.2648
15.15888 4.94 0.68 18.2648
15.15888 4.92 0.68 18.2648
17.592840000000002 3.7 0.68 22.3214
21.41664 2.76 0.68 28.6944
21.41664 1.4 0.68 28.6944
21.41664 1.38 0.68 28.6944
21.41664 1.0 0.68 28.6944
21.41664 0.06 0.68 28.6944
28.29636 -0.08 0.68 40.1606
124.19999999999999 -0.68 0.68 200.0
124.19999999999999 -0.76 0.68 200.0
124.19999999999999 -0.78 0.68 200.0
124.19999999999999 -0.84 0.68 200.0
124.19999999999999 -0.86 0.68 200.0
44.33376 -0.92 0.68 66.8896
28.29636 -0.98 0.68 40.1606
124.19999999999999 -1.9 0.68 200.0
124.19999999999999 -1.92 0.68 200.0
124.19999999999999 -2.24 0.68 200.0
124.19999999999999 -2.26 0.68 200.0
124.19999999999999 -2.28 0.68 200.0
28.29636 -2.4 0.68 40.1606
124.19999999999999 -2.5 0.68 200.0
124.19999999999999 -2.66 0.68 200.0
124.19999999999999 -2.8 0.68 200.0
124.19999999999999 -2.98 0.68 200.0
124.19999999999999 -3.14 0.68 200.0
21.41664 -5.3 0.68 28.6944
28.29636 -5.56 0.68 40.1606
15.15888 5.88 0.66 18.2648
15.15888 5.86 0.66 18.2648
15.15888 5.84 0.66 18.2648
15.15888 5.18 0.66 18.2648
15.15888 5.16 0.66 18.2648
15.15888 5.0 0.66 18.2648
15.15888 4.98 0.66 18.2648
15.15888 4.96 0.66 18.2648
15.15888 4.94 0.66 18.2648
21.41664 2.76 0.66 28.6944
28.29636 0.56 0.66 40.1606
21.41664 0.06 0.66 28.6944
28.29636 -0.06 0.66 40.1606
124.19999999999999 -0.78 0.66 200.0
124.19999999999999 -0.86 0.66 200.0
44.33376 -0.92 0.66 66.8896
28.29636 -0.98 0.66 40.1606
44.33376 -1.8 0.66 66.8896
124.19999999999999 -2.26 0.66 200.0
124.19999999999999 -2.66 0.66 200.0
124.19999999999999 -2.72 0.66 200.0
124.19999999999999 -2.76 0.66 200.0
124.19999999999999 -2.8 0.66 200.0
124.19999999999999 -2.98 0.66 200.0
124.19999999999999 -3.22 0.66 200.0
28.29636 -3.38 0.66 40.1606
124.19999999999999 -3.56 0.66 200.0
21.41664 -5.3 0.66 28.6944
15.15888 -6.54 0.66 18.2648
15.15888 5.88 0.64 18.2648
15.15888 5.86 0.64 18.2648
15.15888 5.84 0.64 18.2648
15.15888 5.18 0.64 18.2648
15.15888 5.16 0.64 18.2648
15.15888 5.0 0.64 18.2648
15.15888 4.98 0.64 18.2648
15.15888 4.36 0.64 18.2648
21.41664 2.76 0.64 28.6944
17.592840000000002 1.72 0.64 22.3214
17.592840000000002 1.66 0.64 22.3214
17.592840000000002 1.64 0.64 22.3214
17.592840000000002 1.62 0.64 22.3214
12.23748 1.52 0.64 13.3958
12.23748 1.5 0.64 13.3958
21.41664 0.94 0.64 28.6944
28.29636 0.56 0.64 40.1606
21.41664 0.06 0.64 28.6944
15.15888 -0.02 0.64 18.2648
17.592840000000002 -0.06 0.64 22.3214
124.19999999999999 -0.78 0.64 200.0
124.19999999999999 -0.86 0.64 200.0
44.33376 -0.92 0.64 66.8896
44.33376 -0.94 0.64 66.8896
28.29636 -0.98 0.64 40.1606
124.19999999999999 -1.74 0.64 200.0
44.33376 -1.8 0.64 66.8896
124.19999999999999 -2.66 0.64 200.0
124.19999999999999 -2.76 0.64 200.0
124.19999999999999 -2.8 0.64 200.0
124.19999999999999 -2.98 0.64 200.0
124.19999999999999 -3.22 0.64 200.0
44.33376 -3.32 0.64 66.8896
124.19999999999999 -3.56 0.64 200.0
21.41664 -5.3 0.64 28.6944
15.15888 -6.52 0.64 18.2648
15.15888 -6.54 0.64 18.2648
15.15888 5.88 0.62 18.2648
15.15888 5.86 0.62 18.2648
15.15888 5.84 0.62 18.2648
15.15888 5.18 0.62 18.2648
15.15888 5.16 0.62 18.2648
15.15888 5.1 0.62 18.2648
15.15888 5.0 0.62 18.2648
15.15888 4.98 0.62 18.2648
15.15888 4.36 0.62 18.2648
21.41664 2.76 0.62 28.6944
17.592840000000002 1.74 0.62 22.3214
17.592840000000002 1.72 0.62 22.3214
17.592840000000002 1.7 0.62 22.3214
17.592840000000002 1.68 0.62 22.3214
17.592840000000002 1.64 0.62 22.3214
21.41664 1.44 0.62 28.6944
21.41664 1.42 0.62 28.6944
21.41664 1.04 0.62 28.6944
21.41664 0.06 0.62 28.6944
124.19999999999999 -0.78 0.62 200.0
124.19999999999999 -0.86 0.62 200.0
44.33376 -0.92 0.62 66.8896
44.33376 -0.94 0.62 66.8896
28.29636 -0.98 0.62 40.1606
124.19999999999999 -1.62 0.62 200.0
124.19999999999999 -1.74 0.62 200.0
44.33376 -1.8 0.62 66.8896
44.33376 -1.82 0.62 66.8896
124.19999999999999 -2.66 0.62 200.0
124.19999999999999 -2.8 0.62 200.0
124.19999999999999 -2.98 0.62 200.0
124.19999999999999 -3.56 0.62 200.0
21.41664 -5.3 0.62 28.6944
21.41664 -5.64 0.62 28.6944
21.41664 -5.66 0.62 28.6944
15.15888 5.88 0.6 18.2648
15.15888 5.86 0.6 18.2648
15.15888 5.84 0.6 18.2648
15.15888 5.18 0.6 18.2648
15.15888 5.16 0.6 18.2648
15.15888 5.1 0.6 18.2648
15.15888 5.08 0.6 18.2648
15.15888 5.0 0.6 18.2648
15.15888 4.36 0.6 18.2648
21.41664 2.78 0.6 28.6944
21.41664 2.76 0.6 28.6944
17.592840000000002 1.74 0.6 22.3214
21.41664 1.44 0.6 28.6944
21.41664 1.42 0.6 28.6944
17.592840000000002 1.1 0.6 22.3214
17.592840000000002 1.08 0.6 22.3214
21.41664 1.04 0.6 28.6944
21.41664 1.0 0.6 28.6944
21.41664 0.98 0.6 28.6944
28.29636 -0.44 0.6 40.1606
124.19999999999999 -0.86 0.6 200.0
44.33376 -0.92 0.6 66.8896
44.33376 -0.94 0.6 66.8896
28.29636 -0.98 0.6 40.1606
44.33376 -2.44 0.6 66.8896
124.19999999999999 -2.54 0.6 200.0
124.19999999999999 -2.66 0.6 200.0
124.19999999999999 -2.76 0.6 200.0
124.19999999999999 -2.98 0.6 200.0
124.19999999999999 -3.56 0.6 200.0
28.29636 -5.2 0.6 40.1606
28.29636 -5.58 0.6 40.1606
21.41664 -5.64 0.6 28.6944
15.15888 5.88 0.58 18.2648
15.15888 5.86 0.58 18.2648
15.15888 5.84 0.58 18.2648
15.15888 5.18 0.58 18.2648
15.15888 5.16 0.58 18.2648
15.15888 5.1 0.58 18.2648
15.15888 5.08 0.58 18.2648
15.15888 5.0 0.58 18.2648
15.15888 4.36 0.58 18.2648
15.15888 4.24 0.58 18.2648
15.15888 4.2 0.58 18.2648
17.592840000000002 3.7 0.58 22.3214
17.592840000000002 3.68 0.58 22.3214
21.41664 2.78 0.58 28.6944
21.41664 2.76 0.58 28.6944
21.41664 1.92 0.58 28.6944
17.592840000000002 1.14 0.58 22.3214
17.592840000000002 1.08 0.58 22.3214
21.41664 1.0 0.58 28.6944
21.41664 0.98 0.58 28.6944
21.41664 -0.18 0.58 28.6944
124.19999999999999 -0.86 0.58 200.0
44.33376 -0.92 0.58 66.8896
28.29636 -0.98 0.58 40.1606
124.19999999999999 -1.92 0.58 200.0
124.19999999999999 -1.96 0.58 200.0
124.19999999999999 -2.28 0.58 200.0
124.19999999999999 -2.76 0.58 200.0
124.19999999999999 -2.98 0.58 200.0
124.19999999999999 -3.16 0.58 200.0
28.29636 -5.58 0.58 40.1606
21.41664 -5.64 0.58 28.6944
13.4736 5.88 0.56 15.456
13.4736 5.86 0.56 15.456
13.4736 5.84 0.56 15.456
15.15888 5.18 0.56 18.2648
15.15888 5.08 0.56 18.2648
15.15888 4.36 0.56 18.2648
17.592840000000002 4.26 0.56 22.3214
17.592840000000002 4.24 0.56 22.3214
17.592840000000002 4.2 0.56 22.3214
12.23748 4.1 0.56 13.3958
17.592840000000002 3.98 0.56 22.3214
17.592840000000002 3.7 0.56 22.3214
17.592840000000002 3.68 0.56 22.3214
21.41664 2.76 0.56 28.6944
21.41664 1.92 0.56 28.6944
21.41664 1.9 0.56 28.6944
21.41664 1.2 0.56 28.6944
21.41664 1.18 0.56 28.6944
21.41664 1.0 0.56 28.6944
44.33376 -0.08 0.56 66.8896
124.19999999999999 -0.86 0.56 200.0
28.29636 -0.98 0.56 40.1606
15.15888 -1.5 0.56 18.2648
124.19999999999999 -1.62 0.56 200.0
124.19999999999999 -1.92 0.56 200.0
124.19999999999999 -2.24 0.56 200.0
124.19999999999999 -2.74 0.56 200.0
124.19999999999999 -2.76 0.56 200.0
124.19999999999999 -2.98 0.56 200.0
21.41664 -5.4 0.56 28.6944
21.41664 -5.64 0.56 28.6944
17.592840000000002 -5.7 0.56 22.3214
15.15888 -6.54 0.56 18.2648
15.15888 5.18 0.54 18.2648
15.15888 5.16 0.54 18.2648
15.15888 5.08 0.54 18.2648
15.15888 4.36 0.54 18.2648
17.592840000000002 4.26 0.54 22.3214
17.592840000000002 4.24 0.54 22.3214
17.592840000000002 4.02 0.54 22.3214
17.592840000000002 4.0 0.54 22.3214
17.592840000000002 3.98 0.54 22.3214
15.15888 3.94 0.54 18.2648
17.592840000000002 3.8 0.54 22.3214
17.592840000000002 3.7 0.54 22.3214
17.592840000000002 3.68 0.54 22.3214
17.592840000000002 3.42 0.54 22.3214
17.592840000000002 3.4 0.54 22.3214
21.41664 2.76 0.54 28.6944
21.41664 1.9 0.54 28.6944
21.41664 1.54 0.54 28.6944
21.41664 1.52 0.54 28.6944
21.41664 1.22 0.54 28.6944
28.29636 -0.54 0.54 40.1606
28.29636 -0.58 0.54 40.1606
124.19999999999999 -1.62 0.54 200.0
17.592840000000002 -1.68 0.54 22.3214
124.19999999999999 -1.92 0.54 200.0
124.19999999999999 -2.24 0.54 200.0
124.19999999999999 -2.66 0.54 200.0
124.19999999999999 -2.74 0.54 200.0
124.19999999999999 -2.92 0.54 200.0
124.19999999999999 -2.98 0.54 200.0
21.41664 -5.4 0.54 28.6944
21.41664 -5.64 0.54 28.6944
17.592840000000002 -5.7 0.54 22.3214
15.15888 -6.54 0.54 18.2648
15.15888 5.18 0.52 18.2648
15.15888 5.16 0.52 18.2648
15.15888 5.08 0.52 18.2648
15.15888 4.36 0.52 18.2648
17.592840000000002 4.24 0.52 22.3214
17.592840000000002 4.16 0.52 22.3214
17.592840000000002 4.02 0.52 22.3214
17.592840000000002 3.98 0.52 22.3214
17.592840000000002 3.94 0.52 22.3214
17.592840000000002 3.8 0.52 22.3214
17.592840000000002 3.68 0.52 22.3214
17.592840000000002 3.42 0.52 22.3214
17.592840000000002 3.4 0.52 22.3214
17.592840000000002 3.36 0.52 22.3214
17.592840000000002 3.32 0.52 22.3214
21.41664 2.76 0.52 28.6944
15.15888 1.76 0.52 18.2648
21.41664 1.56 0.52 28.6944
21.41664 1.54 0.52 28.6944
17.592840000000002 1.28 0.52 22.3214
21.41664 0.98 0.52 28.6944
17.592840000000002 -0.02 0.52 22.3214
28.29636 -0.58 0.52 40.1606
44.33376 -1.48 0.52 66.8896
17.592840000000002 -1.68 0.52 22.3214
124.19999999999999 -1.92 0.52 200.0
10.54584 -2.02 0.52 10.5764
124.19999999999999 -2.66 0.52 200.0
124.19999999999999 -2.74 0.52 200.0
124.19999999999999 -2.76 0.52 200.0
124.19999999999999 -2.92 0.52 200.0
124.19999999999999 -2.98 0.52 200.0
21.41664 -5.64 0.52 28.6944
15.15888 -6.54 0.52 18.2648
15.15888 5.18 0.5 18.2648
15.15888 5.16 0.5 18.2648
15.15888 5.08 0.5 18.2648
15.15888 4.36 0.5 18.2648
17.592840000000002 4.24 0.5 22.3214
17.592840000000002 4.16 0.5 22.3214
17.592840000000002 4.02 0.5 22.3214
17.592840000000002 3.98 0.5 22.3214
17.592840000000002 3.94 0.5 22.3214
17.592840000000002 3.8 0.5 22.3214
17.592840000000002 3.68 0.5 22.3214
17.592840000000002 3.42 0.5 22.3214
17.592840000000002 3.36 0.5 22.3214
17.592840000000002 3.32 0.5 22.3214
17.592840000000002 2.9 0.5 22.3214
17.592840000000002 2.86 0.5 22.3214
21.41664 2.76 0.5 28.6944
17.592840000000002 1.74 0.5 22.3214
17.592840000000002 1.72 0.5 22.3214
21.41664 1.56 0.5 28.6944
17.592840000000002 1.3 0.5 22.3214
21.41664 0.98 0.5 28.6944
17.592840000000002 -0.02 0.5 22.3214
28.29636 -0.58 0.5 40.1606
21.41664 -0.66 0.5 28.6944
21.41664 -0.68 0.5 28.6944
17.592840000000002 -0.72 0.5 22.3214
17.592840000000002 -0.74 0.5 22.3214
44.33376 -0.92 0.5 66.8896
44.33376 -1.2 0.5 66.8896
44.33376 -1.22 0.5 66.8896
44.33376 -1.46 0.5 66.8896
44.33376 -1.48 0.5 66.8896
17.592840000000002 -1.68 0.5 22.3214
124.19999999999999 -1.92 0.5 200.0
124.19999999999999 -2.5 0.5 200.0
124.19999999999999 -2.66 0.5 200.0
124.19999999999999 -2.74 0.5 200.0
124.19999999999999 -2.76 0.5 200.0
124.19999999999999 -2.92 0.5 200.0
124.19999999999999 -2.98 0.5 200.0
15.15888 -6.52 0.5 18.2648
15.15888 5.18 0.48 18.2648
15.15888 5.16 0.48 18.2648
15.15888 5.08 0.48 18.2648
15.15888 4.36 0.48 18.2648
17.592840000000002 4.24 0.48 22.3214
17.592840000000002 4.02 0.48 22.3214
17.592840000000002 3.94 0.48 22.3214
17.592840000000002 3.8 0.48 22.3214
17.592840000000002 3.68 0.48 22.3214
17.592840000000002 3.42 0.48 22.3214
17.592840000000002 3.32 0.48 22.3214
17.592840000000002 3.16 0.48 22.3214
17.592840000000002 2.92 0.48 22.3214
17.592840000000002 2.9 0.48 22.3214
17.592840000000002 2.86 0.48 22.3214
21.41664 2.76 0.48 28.6944
17.592840000000002 1.7 0.48 22.3214
17.592840000000002 1.32 0.48 22.3214
21.41664 1.04 0.48 28.6944
21.41664 0.98 0.48 28.6944
17.592840000000002 -0.02 0.48 22.3214
44.33376 -0.94 0.48 66.8896
44.33376 -1.2 0.48 66.8896
44.33376 -1.46 0.48 66.8896
124.19999999999999 -1.62 0.48 200.0
17.592840000000002 -1.66 0.48 22.3214
17.592840000000002 -1.68 0.48 22.3214
15.15888 -1.74 0.48 18.2648
124.19999999999999 -1.92 0.48 200.0
124.19999999999999 -2.5 0.48 200.0
124.19999999999999 -2.52 0.48 200.0
124.19999999999999 -2.66 0.48 200.0
124.19999999999999 -2.76 0.48 200.0
124.19999999999999 -2.98 0.48 200.0
44.33376 -3.08 0.48 66.8896
44.33376 -5.38 0.48 66.8896
15.15888 -6.52 0.48 18.2648
15.15888 5.62 0.46 18.2648
15.15888 5.18 0.46 18.2648
15.15888 5.16 0.46 18.2648
15.15888 5.08 0.46 18.2648
15.15888 5.06 0.46 18.2648
15.15888 4.36 0.46 18.2648
17.592840000000002 4.24 0.46 22.3214
17.592840000000002 4.2 0.46 22.3214
17.592840000000002 4.02 0.46 22.3214
17.592840000000002 3.94 0.46 22.3214
17.592840000000002 3.8 0.46 22.3214
17.592840000000002 3.68 0.46 22.3214
17.592840000000002 3.42 0.46 22.3214
17.592840000000002 3.32 0.46 22.3214
17.592840000000002 3.16 0.46 22.3214
17.592840000000002 2.92 0.46 22.3214
17.592840000000002 2.9 0.46 22.3214
21.41664 2.76 0.46 28.6944
21.41664 2.56 0.46 28.6944
17.592840000000002 1.34 0.46 22.3214
17.592840000000002 1.32 0.46 22.3214
124.19999999999999 1.18 0.46 200.0
21.41664 1.04 0.46 28.6944
17.592840000000002 -0.02 0.46 22.3214
28.29636 -0.4 0.46 40.1606
44.33376 -0.92 0.46 66.8896
44.33376 -1.46 0.46 66.8896
17.592840000000002 -1.68 0.46 22.3214
124.19999999999999 -1.92 0.46 200.0
124.19999999999999 -2.24 0.46 200.0
124.19999999999999 -2.66 0.46 200.0
124.19999999999999 -2.76 0.46 200.0
124.19999999999999 -2.98 0.46 200.0
124.19999999999999 -3.16 0.46 200.0
21.41664 -5.46 0.46 28.6944
17.592840000000002 -5.52 0.46 22.3214
21.41664 -5.64 0.46 28.6944
15.15888 -6.5 0.46 18.2648
15.15888 -6.52 0.46 18.2648
15.15888 5.18 0.44 18.2648
15.15888 5.16 0.44 18.2648
15.15888 5.08 0.44 18.2648
15.15888 5.06 0.44 18.2648
15.15888 4.36 0.44 18.2648
17.592840000000002 4.24 0.44 22.3214
17.592840000000002 4.02 0.44 22.3214
17.592840000000002 3.94 0.44 22.3214
17.592840000000002 3.8 0.44 22.3214
17.592840000000002 3.68 0.44 22.3214
17.592840000000002 3.42 0.44 22.3214
17.592840000000002 3.32 0.44 22.3214
17.592840000000002 3.16 0.44 22.3214
21.41664 2.76 0.44 28.6944
21.41664 2.56 0.44 28.6944
21.41664 2.54 0.44 28.6944
17.592840000000002 1.34 0.44 22.3214
17.592840000000002 1.32 0.44 22.3214
28.29636 1.08 0.44 40.1606
17.592840000000002 0.98 0.44 22.3214
21.41664 0.1 0.44 28.6944
28.29636 -0.4 0.44 40.1606
44.33376 -1.46 0.44 66.8896
124.19999999999999 -1.92 0.44 200.0
124.19999999999999 -2.24 0.44 200.0
124.19999999999999 -2.66 0.44 200.0
124.19999999999999 -2.76 0.44 200.0
124.19999999999999 -2.98 0.44 200.0
124.19999999999999 -3.14 0.44 200.0
124.19999999999999 -3.16 0.44 200.0
124.19999999999999 -3.34 0.44 200.0
21.41664 -5.64 0.44 28.6944
17.592840000000002 -5.7 0.44 22.3214
15.15888 -6.5 0.44 18.2648
15.15888 5.18 0.42 18.2648
15.15888 5.16 0.42 18.2648
15.15888 5.08 0.42 18.2648
15.15888 5.06 0.42 18.2648
15.15888 4.36 0.42 18.2648
17.592840000000002 4.26 0.42 22.3214
17.592840000000002 4.24 0.42 22.3214
17.592840000000002 4.02 0.42 22.3214
17.592840000000002 3.94 0.42 22.3214
17.592840000000002 3.8 0.42 22.3214
17.592840000000002 3.68 0.42 22.3214
17.592840000000002 3.42 0.42 22.3214
17.592840000000002 3.32 0.42 22.3214
17.592840000000002 3.16 0.42 22.3214
21.41664 2.82 0.42 28.6944
21.41664 2.8 0.42 28.6944
21.41664 2.78 0.42 28.6944
21.41664 2.76 0.42 28.6944
21.41664 2.56 0.42 28.6944
21.41664 2.54 0.42 28.6944
21.41664 2.16 0.42 28.6944
21.41664 2.14 0.42 28.6944
21.41664 1.88 0.42 28.6944
17.592840000000002 1.38 0.42 22.3214
17.592840000000002 1.34 0.42 22.3214
17.592840000000002 1.32 0.42 22.3214
124.19999999999999 1.22 0.42 200.0
28.29636 1.08 0.42 40.1606
17.592840000000002 1.0 0.42 22.3214
17.592840000000002 0.98 0.42 22.3214
28.29636 -0.4 0.42 40.1606
44.33376 -1.46 0.42 66.8896
124.19999999999999 -1.92 0.42 200.0
124.19999999999999 -2.24 0.42 200.0
13.4736 -2.32 0.42 15.456
124.19999999999999 -2.66 0.42 200.0
124.19999999999999 -2.76 0.42 200.0
124.19999999999999 -2.98 0.42 200.0
124.19999999999999 -3.14 0.42 200.0
28.29636 -5.14 0.42 40.1606
21.41664 -5.2 0.42 28.6944
21.41664 -5.64 0.42 28.6944
17.592840000000002 -5.7 0.42 22.3214
15.15888 -6.5 0.42 18.2648
13.4736 5.76 0.4 15.456
15.15888 5.16 0.4 18.2648
15.15888 5.06 0.4 18.2648
15.15888 4.36 0.4 18.2648
17.592840000000002 4.26 0.4 22.3214
17.592840000000002 4.24 0.4 22.3214
17.592840000000002 4.16 0.4 22.3214
17.592840000000002 4.02 0.4 22.3214
17.592840000000002 3.98 0.4 22.3214
17.592840000000002 3.94 0.4 22.3214
17.592840000000002 3.8 0.4 22.3214
17.592840000000002 3.68 0.4 22.3214
17.592840000000002 3.42 0.4 22.3214
17.592840000000002 3.32 0.4 22.3214
17.592840000000002 3.16 0.4 22.3214
17.592840000000002 3.0 0.4 22.3214
21.41664 2.82 0.4 28.6944
21.41664 2.8 0.4 28.6944
21.41664 2.78 0.4 28.6944
21.41664 2.76 0.4 28.6944
21.41664 2.18 0.4 28.6944
21.41664 2.16 0.4 28.6944
21.41664 2.14 0.4 28.6944
21.41664 1.52 0.4 28.6944
21.41664 1.5 0.4 28.6944
21.41664 1.42 0.4 28.6944
17.592840000000002 1.38 0.4 22.3214
28.29636 0.56 0.4 40.1606
28.29636 0.54 0.4 40.1606
21.41664 0.18 0.4 28.6944
21.41664 0.16 0.4 28.6944
28.29636 0.14 0.4 40.1606
28.29636 0.06 0.4 40.1606
15.15888 0.0 0.4 18.2648
44.33376 -1.46 0.4 66.8896
124.19999999999999 -1.62 0.4 200.0
17.592840000000002 -1.68 0.4 22.3214
124.19999999999999 -1.92 0.4 200.0
124.19999999999999 -1.96 0.4 200.0
124.19999999999999 -2.24 0.4 200.0
124.19999999999999 -2.26 0.4 200.0
28.29636 -2.4 0.4 40.1606
124.19999999999999 -2.66 0.4 200.0
124.19999999999999 -2.76 0.4 200.0
124.19999999999999 -2.98 0.4 200.0
28.29636 -5.14 0.4 40.1606
21.41664 -5.2 0.4 28.6944
21.41664 -5.64 0.4 28.6944
17.592840000000002 -5.7 0.4 22.3214
15.15888 -6.56 0.4 18.2648
15.15888 -6.58 0.4 18.2648
15.15888 5.06 0.38 18.2648
15.15888 4.36 0.38 18.2648
17.592840000000002 4.26 0.38 22.3214
17.592840000000002 4.24 0.38 22.3214
17.592840000000002 4.16 0.38 22.3214
17.592840000000002 4.02 0.38 22.3214
17.592840000000002 3.98 0.38 22.3214
17.592840000000002 3.94 0.38 22.3214
17.592840000000002 3.8 0.38 22.3214
17.592840000000002 3.68 0.38 22.3214
17.592840000000002 3.42 0.38 22.3214
17.592840000000002 3.32 0.38 22.3214
17.592840000000002 3.16 0.38 22.3214
17.592840000000002 3.0 0.38 22.3214
21.41664 2.76 0.38 28.6944
21.41664 2.56 0.38 28.6944
21.41664 2.16 0.38 28.6944
21.41664 1.54 0.38 28.6944
21.41664 1.52 0.38 28.6944
28.29636 0.54 0.38 40.1606
28.29636 0.38 0.38 40.1606
28.29636 0.32 0.38 40.1606
28.29636 0.22 0.38 40.1606
124.19999999999999 -1.06 0.38 200.0
124.19999999999999 -1.14 0.38 200.0
44.33376 -1.16 0.38 66.8896
44.33376 -1.2 0.38 66.8896
44.33376 -1.46 0.38 66.8896
17.592840000000002 -1.68 0.38 22.3214
44.33376 -1.82 0.38 66.8896
124.19999999999999 -1.92 0.38 200.0
124.19999999999999 -1.96 0.38 200.0
124.19999999999999 -2.24 0.38 200.0
124.19999999999999 -2.26 0.38 200.0
28.29636 -2.4 0.38 40.1606
124.19999999999999 -2.66 0.38 200.0
124.19999999999999 -2.76 0.38 200.0
124.19999999999999 -2.98 0.38 200.0
28.29636 -5.12 0.38 40.1606
28.29636 -5.18 0.38 40.1606
21.41664 -5.2 0.38 28.6944
21.41664 -5.24 0.38 28.6944
21.41664 -5.34 0.38 28.6944
15.15888 -6.56 0.38 18.2648
15.15888 5.06 0.36 18.2648
15.15888 4.36 0.36 18.2648
17.592840000000002 4.26 0.36 22.3214
17.592840000000002 4.24 0.36 22.3214
17.592840000000002 4.16 0.36 22.3214
17.592840000000002 4.02 0.36 22.3214
17.592840000000002 3.98 0.36 22.3214
17.592840000000002 3.94 0.36 22.3214
17.592840000000002 3.8 0.36 22.3214
17.592840000000002 3.68 0.36 22.3214
17.592840000000002 3.42 0.36 22.3214
17.592840000000002 3.32 0.36 22.3214
17.592840000000002 3.16 0.36 22.3214
17.592840000000002 3.0 0.36 22.3214
21.41664 2.16 0.36 28.6944
21.41664 1.56 0.36 28.6944
21.41664 1.54 0.36 28.6944
28.29636 0.54 0.36 40.1606
28.29636 0.34 0.36 40.1606
28.29636 0.32 0.36 40.1606
44.33376 -0.56 0.36 66.8896
124.19999999999999 -1.06 0.36 200.0
124.19999999999999 -1.14 0.36 200.0
44.33376 -1.16 0.36 66.8896
44.33376 -1.2 0.36 66.8896
28.29636 -1.22 0.36 40.1606
44.33376 -1.46 0.36 66.8896
17.592840000000002 -1.68 0.36 22.3214
44.33376 -1.8 0.36 66.8896
124.19999999999999 -2.26 0.36 200.0
124.19999999999999 -2.66 0.36 200.0
124.19999999999999 -2.74 0.36 200.0
124.19999999999999 -2.76 0.36 200.0
124.19999999999999 -2.98 0.36 200.0
124.19999999999999 -4.92 0.36 200.0
124.19999999999999 -5.04 0.36 200.0
28.29636 -5.12 0.36 40.1606
21.41664 -5.64 0.36 28.6944
17.592840000000002 -5.72 0.36 22.3214
17.592840000000002 -6.46 0.36 22.3214
15.15888 4.36 0.34 18.2648
17.592840000000002 4.26 0.34 22.3214
17.592840000000002 4.24 0.34 22.3214
17.592840000000002 4.2 0.34 22.3214
17.592840000000002 4.02 0.34 22.3214
17.592840000000002 3.94 0.34 22.3214
17.592840000000002 3.8 0.34 22.3214
17.592840000000002 3.42 0.34 22.3214
17.592840000000002 3.4 0.34 22.3214
17.592840000000002 3.32 0.34 22.3214
17.592840000000002 3.16 0.34 22.3214
17.592840000000002 2.98 0.34 22.3214
21.41664 2.16 0.34 28.6944
17.592840000000002 1.7 0.34 22.3214
21.41664 1.56 0.34 28.6944
21.41664 1.54 0.34 28.6944
13.4736 1.06 0.34 15.456
28.29636 1.0 0.34 40.1606
28.29636 0.98 0.34 40.1606
28.29636 0.34 0.34 40.1606
28.29636 0.32 0.34 40.1606
28.29636 -0.04 0.34 40.1606
124.19999999999999 -1.06 0.34 200.0
44.33376 -1.16 0.34 66.8896
44.33376 -1.2 0.34 66.8896
28.29636 -1.22 0.34 40.1606
44.33376 -1.46 0.34 66.8896
44.33376 -1.48 0.34 66.8896
17.592840000000002 -1.68 0.34 22.3214
124.19999999999999 -1.74 0.34 200.0
44.33376 -1.8 0.34 66.8896
44.33376 -2.44 0.34 66.8896
124.19999999999999 -2.66 0.34 200.0
124.19999999999999 -2.74 0.34 200.0
124.19999999999999 -2.76 0.34 200.0
44.33376 -2.84 0.34 66.8896
124.19999999999999 -2.98 0.34 200.0
124.19999999999999 -5.02 0.34 200.0
28.29636 -5.12 0.34 40.1606
21.41664 -5.34 0.34 28.6944
21.41664 -5.66 0.34 28.6944
17.592840000000002 -6.46 0.34 22.3214
13.4736 5.06 0.32 15.456
13.4736 5.04 0.32 15.456
15.15888 4.36 0.32 18.2648
17.592840000000002 4.26 0.32 22.3214
17.592840000000002 4.24 0.32 22.3214
17.592840000000002 4.02 0.32 22.3214
17.592840000000002 3.94 0.32 22.3214
17.592840000000002 3.8 0.32 22.3214
17.592840000000002 3.42 0.32 22.3214
17.592840000000002 3.32 0.32 22.3214
28.29636 3.26 0.32 40.1606
17.592840000000002 3.16 0.32 22.3214
17.592840000000002 2.98 0.32 22.3214
21.41664 2.16 0.32 28.6944
21.41664 2.14 0.32 28.6944
21.41664 1.58 0.32 28.6944
21.41664 1.54 0.32 28.6944
21.41664 1.24 0.32 28.6944
21.41664 1.22 0.32 28.6944
13.4736 1.06 0.32 15.456
28.29636 0.98 0.32 40.1606
28.29636 0.34 0.32 40.1606
15.15888 -0.68 0.32 18.2648
44.33376 -1.46 0.32 66.8896
44.33376 -1.48 0.32 66.8896
44.33376 -1.8 0.32 66.8896
124.19999999999999 -2.66 0.32 200.0
124.19999999999999 -2.74 0.32 200.0
124.19999999999999 -2.98 0.32 200.0
124.19999999999999 -3.16 0.32 200.0
124.19999999999999 -5.02 0.32 200.0
17.592840000000002 -5.72 0.32 22.3214
15.15888 5.56 0.3 18.2648
13.4736 5.04 0.3 15.456
13.4736 5.02 0.3 15.456
13.4736 4.86 0.3 15.456
13.4736 4.84 0.3 15.456
15.15888 4.36 0.3 18.2648
17.592840000000002 4.24 0.3 22.3214
17.592840000000002 4.2 0.3 22.3214
17.592840000000002 4.02 0.3 22.3214
17.592840000000002 4.0 0.3 22.3214
17.592840000000002 3.94 0.3 22.3214
17.592840000000002 3.8 0.3 22.3214
17.592840000000002 3.4 0.3 22.3214
17.592840000000002 3.32 0.3 22.3214
17.592840000000002 3.16 0.3 22.3214
17.592840000000002 2.98 0.3 22.3214
21.41664 2.16 0.3 28.6944
28.29636 1.82 0.3 40.1606
17.592840000000002 1.58 0.3 22.3214
21.41664 1.24 0.3 28.6944
21.41664 1.22 0.3 28.6944
28.29636 0.98 0.3 40.1606
28.29636 0.34 0.3 40.1606
28.29636 -0.32 0.3 40.1606
44.33376 -1.8 0.3 66.8896
124.19999999999999 -2.98 0.3 200.0
17.592840000000002 -6.44 0.3 22.3214
15.15888 -6.5 0.3 18.2648
15.15888 -6.52 0.3 18.2648
15.15888 5.56 0.28 18.2648
13.4736 5.04 0.28 15.456
13.4736 5.02 0.28 15.456
15.15888 4.82 0.28 18.2648
15.15888 4.36 0.28 18.2648
17.592840000000002 4.26 0.28 22.3214
17.592840000000002 4.24 0.28 22.3214
17.592840000000002 4.02 0.28 22.3214
17.592840000000002 4.0 0.28 22.3214
17.592840000000002 3.8 0.28 22.3214
17.592840000000002 3.4 0.28 22.3214
17.592840000000002 3.32 0.28 22.3214
17.592840000000002 3.16 0.28 22.3214
17.592840000000002 2.98 0.28 22.3214
21.41664 2.16 0.28 28.6944
17.592840000000002 1.74 0.28 22.3214
17.592840000000002 1.58 0.28 22.3214
28.29636 0.98 0.28 40.1606
28.29636 0.72 0.28 40.1606
28.29636 0.34 0.28 40.1606
12.23748 -0.44 0.28 13.3958
21.41664 -1.16 0.28 28.6944
124.19999999999999 -1.92 0.28 200.0
124.19999999999999 -1.96 0.28 200.0
15.15888 -2.26 0.28 18.2648
15.15888 -2.28 0.28 18.2648
124.19999999999999 -2.66 0.28 200.0
44.33376 -2.78 0.28 66.8896
124.19999999999999 -2.98 0.28 200.0
28.29636 -5.12 0.28 40.1606
44.33376 -5.46 0.28 66.8896
15.15888 -6.5 0.28 18.2648
13.4736 5.94 0.26 15.456
15.15888 5.56 0.26 18.2648
15.15888 4.76 0.26 18.2648
15.15888 4.36 0.26 18.2648
15.15888 4.34 0.26 18.2648
17.592840000000002 4.26 0.26 22.3214
17.592840000000002 4.24 0.26 22.3214
17.592840000000002 4.02 0.26 22.3214
17.592840000000002 4.0 0.26 22.3214
17.592840000000002 3.8 0.26 22.3214
17.592840000000002 3.68 0.26 22.3214
17.592840000000002 3.66 0.26 22.3214
17.592840000000002 3.4 0.26 22.3214
17.592840000000002 3.32 0.26 22.3214
17.592840000000002 3.16 0.26 22.3214
17.592840000000002 2.98 0.26 22.3214
21.41664 2.16 0.26 28.6944
17.592840000000002 1.74 0.26 22.3214
17.592840000000002 1.58 0.26 22.3214
28.29636 0.98 0.26 40.1606
44.33376 0.78 0.26 66.8896
28.29636 0.76 0.26 40.1606
28.29636 0.72 0.26 40.1606
28.29636 0.7 0.26 40.1606
28.29636 0.34 0.26 40.1606
13.4736 0.1 0.26 15.456
17.592840000000002 -0.02 0.26 22.3214
28.29636 -0.16 0.26 40.1606
17.592840000000002 -0.28 0.26 22.3214
12.23748 -0.44 0.26 13.3958
28.29636 -0.62 0.26 40.1606
44.33376 -1.04 0.26 66.8896
124.19999999999999 -1.92 0.26 200.0
124.19999999999999 -1.96 0.26 200.0
124.19999999999999 -2.5 0.26 200.0
124.19999999999999 -2.52 0.26 200.0
44.33376 -2.76 0.26 66.8896
124.19999999999999 -2.98 0.26 200.0
124.19999999999999 -4.94 0.26 200.0
28.29636 -5.12 0.26 40.1606
28.29636 -5.2 0.26 40.1606
28.29636 -5.22 0.26 40.1606
21.41664 -5.36 0.26 28.6944
21.41664 -5.66 0.26 28.6944
13.4736 5.94 0.24 15.456
15.15888 5.3 0.24 18.2648
15.15888 4.82 0.24 18.2648
15.15888 4.8 0.24 18.2648
15.15888 4.78 0.24 18.2648
15.15888 4.76 0.24 18.2648
15.15888 4.36 0.24 18.2648
15.15888 4.34 0.24 18.2648
17.592840000000002 4.26 0.24 22.3214
17.592840000000002 4.24 0.24 22.3214
17.592840000000002 4.02 0.24 22.3214
17.592840000000002 4.0 0.24 22.3214
17.592840000000002 3.9 0.24 22.3214
17.592840000000002 3.88 0.24 22.3214
17.592840000000002 3.68 0.24 22.3214
17.592840000000002 3.66 0.24 22.3214
17.592840000000002 3.4 0.24 22.3214
17.592840000000002 3.32 0.24 22.3214
28.29636 3.26 0.24 40.1606
17.592840000000002 3.16 0.24 22.3214
17.592840000000002 2.98 0.24 22.3214
21.41664 2.16 0.24 28.6944
21.41664 1.84 0.24 28.6944
21.41664 1.68 0.24 28.6944
21.41664 1.64 0.24 28.6944
21.41664 1.2 0.24 28.6944
28.29636 0.98 0.24 40.1606
28.29636 0.72 0.24 40.1606
28.29636 0.34 0.24 40.1606
13.4736 0.1 0.24 15.456
17.592840000000002 -0.02 0.24 22.3214
28.29636 -0.16 0.24 40.1606
17.592840000000002 -0.28 0.24 22.3214
28.29636 -0.62 0.24 40.1606
15.15888 -0.82 0.24 18.2648
124.19999999999999 -1.92 0.24 200.0
124.19999999999999 -1.96 0.24 200.0
124.19999999999999 -2.5 0.24 200.0
124.19999999999999 -2.52 0.24 200.0
124.19999999999999 -2.98 0.24 200.0
28.29636 -5.1 0.24 40.1606
28.29636 -5.26 0.24 40.1606
21.41664 -5.36 0.24 28.6944
21.41664 -5.66 0.24 28.6944
13.4736 5.94 0.22 15.456
15.15888 5.32 0.22 18.2648
15.15888 5.3 0.22 18.2648
15.15888 5.18 0.22 18.2648
15.15888 5.16 0.22 18.2648
15.15888 4.8 0.22 18.2648
15.15888 4.78 0.22 18.2648
15.15888 4.76 0.22 18.2648
17.592840000000002 4.36 0.22 22.3214
17.592840000000002 4.34 0.22 22.3214
17.592840000000002 4.02 0.22 22.3214
17.592840000000002 4.0 0.22 22.3214
17.592840000000002 3.9 0.22 22.3214
17.592840000000002 3.88 0.22 22.3214
17.592840000000002 3.66 0.22 22.3214
17.592840000000002 3.4 0.22 22.3214
17.592840000000002 3.32 0.22 22.3214
17.592840000000002 3.16 0.22 22.3214
17.592840000000002 2.98 0.22 22.3214
21.41664 2.16 0.22 28.6944
21.41664 1.84 0.22 28.6944
21.41664 1.64 0.22 28.6944
21.41664 1.62 0.22 28.6944
124.19999999999999 1.14 0.22 200.0
28.29636 0.98 0.22 40.1606
28.29636 0.44 0.22 40.1606
28.29636 0.34 0.22 40.1606
13.4736 0.1 0.22 15.456
17.592840000000002 -0.28 0.22 22.3214
124.19999999999999 -1.92 0.22 200.0
124.19999999999999 -1.96 0.22 200.0
124.19999999999999 -2.98 0.22 200.0
124.19999999999999 -3.0 0.22 200.0
124.19999999999999 -3.06 0.22 200.0
124.19999999999999 -3.08 0.22 200.0
124.19999999999999 -3.6 0.22 200.0
28.29636 -5.26 0.22 40.1606
21.41664 -5.36 0.22 28.6944
21.41664 -5.66 0.22 28.6944
15.15888 -6.5 0.22 18.2648
15.15888 5.34 0.2 18.2648
15.15888 5.32 0.2 18.2648
15.15888 5.3 0.2 18.2648
17.592840000000002 5.24 0.2 22.3214
17.592840000000002 5.22 0.2 22.3214
15.15888 5.18 0.2 18.2648
15.15888 5.16 0.2 18.2648
17.592840000000002 4.02 0.2 22.3214
17.592840000000002 4.0 0.2 22.3214
17.592840000000002 3.88 0.2 22.3214
17.592840000000002 3.54 0.2 22.3214
17.592840000000002 3.4 0.2 22.3214
17.592840000000002 3.36 0.2 22.3214
17.592840000000002 3.32 0.2 22.3214
17.592840000000002 3.16 0.2 22.3214
17.592840000000002 2.98 0.2 22.3214
21.41664 2.16 0.2 28.6944
21.41664 1.84 0.2 28.6944
21.41664 1.62 0.2 28.6944
28.29636 0.98 0.2 40.1606
28.29636 0.44 0.2 40.1606
28.29636 0.34 0.2 40.1606
28.29636 0.32 0.2 40.1606
21.41664 0.04 0.2 28.6944
44.33376 -0.94 0.2 66.8896
44.33376 -0.98 0.2 66.8896
124.19999999999999 -1.92 0.2 200.0
124.19999999999999 -1.96 0.2 200.0
124.19999999999999 -3.0 0.2 200.0
124.19999999999999 -3.6 0.2 200.0
124.19999999999999 -3.78 0.2 200.0
28.29636 -5.26 0.2 40.1606
21.41664 -5.36 0.2 28.6944
15.15888 5.34 0.18 18.2648
15.15888 5.32 0.18 18.2648
15.15888 5.3 0.18 18.2648
15.15888 5.16 0.18 18.2648
15.15888 5.0 0.18 18.2648
17.592840000000002 4.02 0.18 22.3214
17.592840000000002 4.0 0.18 22.3214
17.592840000000002 3.88 0.18 22.3214
17.592840000000002 3.54 0.18 22.3214
17.592840000000002 3.4 0.18 22.3214
17.592840000000002 3.36 0.18 22.3214
17.592840000000002 3.32 0.18 22.3214
17.592840000000002 3.16 0.18 22.3214
17.592840000000002 2.98 0.18 22.3214
21.41664 2.18 0.18 28.6944
21.41664 2.16 0.18 28.6944
21.41664 1.84 0.18 28.6944
21.41664 1.62 0.18 28.6944
28.29636 0.44 0.18 40.1606
28.29636 0.34 0.18 40.1606
28.29636 0.32 0.18 40.1606
17.592840000000002 0.22 0.18 22.3214
17.592840000000002 -0.02 0.18 22.3214
28.29636 -0.62 0.18 40.1606
44.33376 -0.98 0.18 66.8896
124.19999999999999 -1.74 0.18 200.0
124.19999999999999 -1.92 0.18 200.0
124.19999999999999 -1.96 0.18 200.0
124.19999999999999 -4.0 0.18 200.0
124.19999999999999 -4.2 0.18 200.0
28.29636 -5.26 0.18 40.1606
21.41664 -5.36 0.18 28.6944
15.15888 5.34 0.16 18.2648
15.15888 5.32 0.16 18.2648
17.592840000000002 3.88 0.16 22.3214
17.592840000000002 3.76 0.16 22.3214
17.592840000000002 3.54 0.16 22.3214
17.592840000000002 3.4 0.16 22.3214
17.592840000000002 3.36 0.16 22.3214
17.592840000000002 3.32 0.16 22.3214
17.592840000000002 3.16 0.16 22.3214
17.592840000000002 2.98 0.16 22.3214
21.41664 2.16 0.16 28.6944
21.41664 1.78 0.16 28.6944
21.41664 1.62 0.16 28.6944
28.29636 0.44 0.16 40.1606
28.29636 0.34 0.16 40.1606
28.29636 0.32 0.16 40.1606
17.592840000000002 0.22 0.16 22.3214
17.592840000000002 -0.02 0.16 22.3214
13.4736 -0.12 0.16 15.456
28.29636 -0.62 0.16 40.1606
44.33376 -0.98 0.16 66.8896
28.29636 -1.06 0.16 40.1606
124.19999999999999 -1.74 0.16 200.0
124.19999999999999 -1.92 0.16 200.0
124.19999999999999 -1.96 0.16 200.0
124.19999999999999 -2.24 0.16 200.0
124.19999999999999 -2.66 0.16 200.0
124.19999999999999 -2.8 0.16 200.0
28.29636 -3.24 0.16 40.1606
11.29218 -3.36 0.16 11.8203
21.41664 -3.92 0.16 28.6944
124.19999999999999 -4.02 0.16 200.0
28.29636 -5.26 0.16 40.1606
21.41664 -5.36 0.16 28.6944
17.592840000000002 -6.44 0.16 22.3214
17.592840000000002 3.9 0.14 22.3214
17.592840000000002 3.88 0.14 22.3214
17.592840000000002 3.78 0.14 22.3214
17.592840000000002 3.76 0.14 22.3214
17.592840000000002 3.62 0.14 22.3214
17.592840000000002 3.6 0.14 22.3214
17.592840000000002 3.4 0.14 22.3214
17.592840000000002 3.36 0.14 22.3214
17.592840000000002 3.32 0.14 22.3214
17.592840000000002 3.16 0.14 22.3214
17.592840000000002 2.98 0.14 22.3214
21.41664 2.16 0.14 28.6944
21.41664 1.62 0.14 28.6944
28.29636 0.44 0.14 40.1606
28.29636 0.32 0.14 40.1606
17.592840000000002 0.22 0.14 22.3214
17.592840000000002 -0.02 0.14 22.3214
17.592840000000002 -0.04 0.14 22.3214
44.33376 -0.98 0.14 66.8896
28.29636 -1.06 0.14 40.1606
124.19999999999999 -1.92 0.14 200.0
124.19999999999999 -2.24 0.14 200.0
124.19999999999999 -2.26 0.14 200.0
124.19999999999999 -2.66 0.14 200.0
124.19999999999999 -2.74 0.14 200.0
28.29636 -3.18 0.14 40.1606
28.29636 -3.2 0.14 40.1606
28.29636 -3.24 0.14 40.1606
124.19999999999999 -3.8 0.14 200.0
124.19999999999999 -3.82 0.14 200.0
44.33376 -3.84 0.14 66.8896
44.33376 -3.86 0.14 66.8896
44.33376 -3.88 0.14 66.8896
21.41664 -3.92 0.14 28.6944
21.41664 -3.94 0.14 28.6944
124.19999999999999 -4.0 0.14 200.0
124.19999999999999 -4.04 0.14 200.0
124.19999999999999 -4.2 0.14 200.0
12.23748 -4.32 0.14 13.3958
28.29636 -5.26 0.14 40.1606
21.41664 -5.36 0.14 28.6944
17.592840000000002 -6.42 0.14 22.3214
17.592840000000002 -6.44 0.14 22.3214
15.15888 -6.48 0.14 18.2648
15.15888 5.44 0.12 18.2648
17.592840000000002 3.9 0.12 22.3214
17.592840000000002 3.88 0.12 22.3214
17.592840000000002 3.78 0.12 22.3214
17.592840000000002 3.76 0.12 22.3214
17.592840000000002 3.62 0.12 22.3214
17.592840000000002 3.6 0.12 22.3214
17.592840000000002 3.4 0.12 22.3214
17.592840000000002 3.36 0.12 22.3214
17.592840000000002 3.16 0.12 22.3214
17.592840000000002 2.98 0.12 22.3214
21.41664 2.16 0.12 28.6944
21.41664 1.62 0.12 28.6944
28.29636 0.88 0.12 40.1606
28.29636 0.44 0.12 40.1606
28.29636 0.32 0.12 40.1606
44.33376 0.16 0.12 66.8896
17.592840000000002 -0.02 0.12 22.3214
17.592840000000002 -0.04 0.12 22.3214
15.15888 -0.18 0.12 18.2648
28.29636 -1.06 0.12 40.1606
124.19999999999999 -1.9 0.12 200.0
124.19999999999999 -1.92 0.12 200.0
124.19999999999999 -1.94 0.12 200.0
44.33376 -1.96 0.12 66.8896
124.19999999999999 -2.24 0.12 200.0
124.19999999999999 -2.66 0.12 200.0
124.19999999999999 -2.74 0.12 200.0
28.29636 -3.2 0.12 40.1606
124.19999999999999 -3.8 0.12 200.0
124.19999999999999 -3.82 0.12 200.0
44.33376 -3.84 0.12 66.8896
44.33376 -3.86 0.12 66.8896
44.33376 -3.88 0.12 66.8896
21.41664 -3.92 0.12 28.6944
124.19999999999999 -4.04 0.12 200.0
124.19999999999999 -4.2 0.12 200.0
21.41664 -5.36 0.12 28.6944
17.592840000000002 -6.42 0.12 22.3214
15.15888 -6.48 0.12 18.2648
15.15888 5.44 0.1 18.2648
15.15888 5.42 0.1 18.2648
15.15888 5.22 0.1 18.2648
15.15888 5.2 0.1 18.2648
15.15888 4.86 0.1 18.2648
15.15888 4.84 0.1 18.2648
17.592840000000002 3.62 0.1 22.3214
17.592840000000002 3.4 0.1 22.3214
17.592840000000002 3.36 0.1 22.3214
17.592840000000002 3.16 0.1 22.3214
17.592840000000002 2.98 0.1 22.3214
21.41664 2.54 0.1 28.6944
21.41664 2.16 0.1 28.6944
21.41664 1.78 0.1 28.6944
17.592840000000002 1.66 0.1 22.3214
21.41664 1.62 0.1 28.6944
28.29636 0.88 0.1 40.1606
28.29636 0.44 0.1 40.1606
28.29636 0.32 0.1 40.1606
15.15888 -0.18 0.1 18.2648
124.19999999999999 -0.86 0.1 200.0
28.29636 -1.0 0.1 40.1606
15.15888 -1.2 0.1 18.2648
17.592840000000002 -1.68 0.1 22.3214
44.33376 -1.82 0.1 66.8896
124.19999999999999 -1.9 0.1 200.0
124.19999999999999 -1.92 0.1 200.0
44.33376 -1.96 0.1 66.8896
124.19999999999999 -2.24 0.1 200.0
124.19999999999999 -2.26 0.1 200.0
13.4736 -2.32 0.1 15.456
28.29636 -2.4 0.1 40.1606
124.19999999999999 -2.66 0.1 200.0
124.19999999999999 -2.76 0.1 200.0
28.29636 -3.2 0.1 40.1606
28.29636 -5.12 0.1 40.1606
21.41664 -5.32 0.1 28.6944
21.41664 -5.36 0.1 28.6944
17.592840000000002 -5.5 0.1 22.3214
15.15888 -6.48 0.1 18.2648
15.15888 5.44 0.08 18.2648
15.15888 5.2 0.08 18.2648
15.15888 4.88 0.08 18.2648
15.15888 4.86 0.08 18.2648
15.15888 4.84 0.08 18.2648
15.15888 4.38 0.08 18.2648
17.592840000000002 3.62 0.08 22.3214
17.592840000000002 3.4 0.08 22.3214
17.592840000000002 3.34 0.08 22.3214
17.592840000000002 3.16 0.08 22.3214
17.592840000000002 2.98 0.08 22.3214
21.41664 2.16 0.08 28.6944
21.41664 1.78 0.08 28.6944
17.592840000000002 1.68 0.08 22.3214
28.29636 0.88 0.08 40.1606
28.29636 0.48 0.08 40.1606
28.29636 0.44 0.08 40.1606
17.592840000000002 -0.02 0.08 22.3214
124.19999999999999 -0.78 0.08 200.0
124.19999999999999 -0.86 0.08 200.0
44.33376 -0.94 0.08 66.8896
28.29636 -1.0 0.08 40.1606
44.33376 -1.2 0.08 66.8896
44.33376 -1.22 0.08 66.8896
44.33376 -1.46 0.08 66.8896
44.33376 -1.48 0.08 66.8896
17.592840000000002 -1.68 0.08 22.3214
44.33376 -1.92 0.08 66.8896
44.33376 -1.96 0.08 66.8896
44.33376 -2.0 0.08 66.8896
10.54584 -2.02 0.08 10.5764
124.19999999999999 -2.24 0.08 200.0
124.19999999999999 -2.26 0.08 200.0
28.29636 -2.4 0.08 40.1606
124.19999999999999 -2.66 0.08 200.0
28.29636 -3.2 0.08 40.1606
124.19999999999999 -4.08 0.08 200.0
28.29636 -5.12 0.08 40.1606
21.41664 -5.32 0.08 28.6944
21.41664 -5.36 0.08 28.6944
17.592840000000002 -5.5 0.08 22.3214
15.15888 5.44 0.06 18.2648
15.15888 4.86 0.06 18.2648
15.15888 4.84 0.06 18.2648
15.15888 4.38 0.06 18.2648
17.592840000000002 3.64 0.06 22.3214
17.592840000000002 3.62 0.06 22.3214
17.592840000000002 3.4 0.06 22.3214
17.592840000000002 3.34 0.06 22.3214
17.592840000000002 3.16 0.06 22.3214
17.592840000000002 2.98 0.06 22.3214
21.41664 2.54 0.06 28.6944
21.41664 2.16 0.06 28.6944
21.41664 1.86 0.06 28.6944
21.41664 1.78 0.06 28.6944
17.592840000000002 1.72 0.06 22.3214
17.592840000000002 1.7 0.06 22.3214
17.592840000000002 1.68 0.06 22.3214
28.29636 0.52 0.06 40.1606
28.29636 0.48 0.06 40.1606
28.29636 0.44 0.06 40.1606
13.4736 0.22 0.06 15.456
17.592840000000002 -0.02 0.06 22.3214
15.15888 -0.18 0.06 18.2648
124.19999999999999 -0.78 0.06 200.0
124.19999999999999 -0.86 0.06 200.0
44.33376 -0.94 0.06 66.8896
28.29636 -1.0 0.06 40.1606
44.33376 -1.2 0.06 66.8896
44.33376 -1.22 0.06 66.8896
44.33376 -1.28 0.06 66.8896
124.19999999999999 -1.36 0.06 200.0
124.19999999999999 -1.4 0.06 200.0
44.33376 -1.46 0.06 66.8896
17.592840000000002 -1.68 0.06 22.3214
44.33376 -1.86 0.06 66.8896
44.33376 -1.92 0.06 66.8896
44.33376 -1.94 0.06 66.8896
44.33376 -1.96 0.06 66.8896
124.19999999999999 -2.66 0.06 200.0
124.19999999999999 -2.78 0.06 200.0
28.29636 -3.2 0.06 40.1606
124.19999999999999 -3.84 0.06 200.0
124.19999999999999 -4.02 0.06 200.0
124.19999999999999 -4.06 0.06 200.0
124.19999999999999 -4.08 0.06 200.0
28.29636 -5.32 0.06 40.1606
21.41664 -5.36 0.06 28.6944
17.592840000000002 -5.5 0.06 22.3214
15.15888 -6.48 0.06 18.2648
15.15888 5.44 0.04 18.2648
17.592840000000002 3.64 0.04 22.3214
17.592840000000002 3.62 0.04 22.3214
17.592840000000002 3.4 0.04 22.3214
17.592840000000002 3.34 0.04 22.3214
17.592840000000002 3.16 0.04 22.3214
17.592840000000002 2.98 0.04 22.3214
21.41664 2.16 0.04 28.6944
17.592840000000002 1.7 0.04 22.3214
17.592840000000002 1.68 0.04 22.3214
21.41664 1.6 0.04 28.6944
28.29636 0.98 0.04 40.1606
28.29636 0.52 0.04 40.1606
28.29636 0.48 0.04 40.1606
44.33376 0.1 0.04 66.8896
44.33376 0.06 0.04 66.8896
17.592840000000002 -0.02 0.04 22.3214
17.592840000000002 -0.04 0.04 22.3214
15.15888 -0.18 0.04 18.2648
28.29636 -0.44 0.04 40.1606
44.33376 -0.94 0.04 66.8896
44.33376 -1.22 0.04 66.8896
44.33376 -1.28 0.04 66.8896
124.19999999999999 -1.36 0.04 200.0
124.19999999999999 -1.4 0.04 200.0
44.33376 -1.46 0.04 66.8896
17.592840000000002 -1.68 0.04 22.3214
44.33376 -1.86 0.04 66.8896
44.33376 -1.94 0.04 66.8896
44.33376 -1.96 0.04 66.8896
124.19999999999999 -2.66 0.04 200.0
124.19999999999999 -2.72 0.04 200.0
124.19999999999999 -2.78 0.04 200.0
28.29636 -2.88 0.04 40.1606
28.29636 -3.2 0.04 40.1606
124.19999999999999 -3.82 0.04 200.0
124.19999999999999 -3.84 0.04 200.0
124.19999999999999 -3.88 0.04 200.0
44.33376 -3.9 0.04 66.8896
44.33376 -3.92 0.04 66.8896
44.33376 -3.96 0.04 66.8896
124.19999999999999 -4.06 0.04 200.0
124.19999999999999 -4.08 0.04 200.0
21.41664 -4.12 0.04 28.6944
21.41664 -4.14 0.04 28.6944
17.592840000000002 -4.18 0.04 22.3214
17.592840000000002 -4.2 0.04 22.3214
17.592840000000002 -4.22 0.04 22.3214
28.29636 -4.98 0.04 40.1606
28.29636 -5.32 0.04 40.1606
21.41664 -5.36 0.04 28.6944
21.41664 -5.38 0.04 28.6944
17.592840000000002 -5.5 0.04 22.3214
17.592840000000002 -6.42 0.04 22.3214
15.15888 -6.48 0.04 18.2648
15.15888 5.44 0.02 18.2648
17.592840000000002 3.64 0.02 22.3214
17.592840000000002 3.62 0.02 22.3214
17.592840000000002 3.4 0.02 22.3214
17.592840000000002 3.34 0.02 22.3214
17.592840000000002 3.16 0.02 22.3214
17.592840000000002 2.98 0.02 22.3214
124.19999999999999 1.12 0.02 200.0
28.29636 0.98 0.02 40.1606
21.41664 0.92 0.02 28.6944
28.29636 0.1 0.02 40.1606
28.29636 0.06 0.02 40.1606
17.592840000000002 -0.02 0.02 22.3214
17.592840000000002 -0.04 0.02 22.3214
15.15888 -0.16 0.02 18.2648
15.15888 -0.18 0.02 18.2648
28.29636 -0.44 0.02 40.1606
44.33376 -0.94 0.02 66.8896
124.19999999999999 -1.22 0.02 200.0
44.33376 -1.28 0.02 66.8896
44.33376 -1.32 0.02 66.8896
124.19999999999999 -1.36 0.02 200.0
124.19999999999999 -1.4 0.02 200.0
44.33376 -1.46 0.02 66.8896
17.592840000000002 -1.68 0.02 22.3214
44.33376 -1.86 0.02 66.8896
44.33376 -1.94 0.02 66.8896
44.33376 -1.96 0.02 66.8896
124.19999999999999 -2.66 0.02 200.0
124.19999999999999 -2.72 0.02 200.0
124.19999999999999 -2.78 0.02 200.0
28.29636 -2.88 0.02 40.1606
28.29636 -2.9 0.02 40.1606
28.29636 -3.2 0.02 40.1606
5.99991 -3.5 0.02 2.99985
5.99991 -3.54 0.02 2.99985
124.19999999999999 -3.82 0.02 200.0
124.19999999999999 -3.84 0.02 200.0
124.19999999999999 -3.88 0.02 200.0
124.19999999999999 -3.9 0.02 200.0
44.33376 -3.92 0.02 66.8896
44.33376 -3.96 0.02 66.8896
124.19999999999999 -4.0 0.02 200.0
124.19999999999999 -4.06 0.02 200.0
21.41664 -4.12 0.02 28.6944
21.41664 -4.14 0.02 28.6944
17.592840000000002 -4.18 0.02 22.3214
17.592840000000002 -4.2 0.02 22.3214
12.23748 -4.36 0.02 13.3958
12.23748 -4.4 0.02 13.3958
28.29636 -4.98 0.02 40.1606
28.29636 -5.32 0.02 40.1606
21.41664 -5.36 0.02 28.6944
15.15888 -6.48 0.02 18.2648
