VERSION .7
FIELDS x y z rgb
SIZE 4 4 4 4
TYPE F F F F
COUNT 1 1 1 1
WIDTH 1613
HEIGHT 1
VIEWPOINT 0 0 0 1 0 0 0
POINTS 1613
DATA ascii
17.592840000000002 2.7 3.92 22.3214
17.592840000000002 2.66 3.92 22.3214
28.29636 1.08 3.92 40.1606
28.29636 0.66 3.92 40.1606
28.29636 0.64 3.92 40.1606
28.29636 0.6 3.92 40.1606
28.29636 -5.24 3.92 40.1606
13.4736 5.92 3.9 15.456
13.4736 5.9 3.9 15.456
15.15888 5.7 3.9 18.2648
15.15888 4.98 3.9 18.2648
15.15888 4.86 3.9 18.2648
17.592840000000002 3.32 3.9 22.3214
17.592840000000002 3.24 3.9 22.3214
17.592840000000002 3.02 3.9 22.3214
17.592840000000002 2.7 3.9 22.3214
21.41664 2.32 3.9 28.6944
21.41664 2.3 3.9 28.6944
21.41664 1.6 3.9 28.6944
21.41664 1.58 3.9 28.6944
28.29636 0.64 3.9 40.1606
28.29636 0.62 3.9 40.1606
28.29636 0.58 3.9 40.1606
28.29636 -5.06 3.9 40.1606
44.33376 -5.14 3.9 66.8896
15.15888 5.9 3.88 18.2648
15.15888 4.98 3.88 18.2648
15.15888 4.86 3.88 18.2648
17.592840000000002 3.32 3.88 22.3214
17.592840000000002 3.24 3.88 22.3214
17.592840000000002 2.7 3.88 22.3214
17.592840000000002 2.66 3.88 22.3214
21.41664 2.32 3.88 28.6944
21.41664 2.3 3.88 28.6944
21.41664 1.66 3.88 28.6944
21.41664 1.64 3.88 28.6944
21.41664 1.58 3.88 28.6944
21.41664 1.56 3.88 28.6944
28.29636 0.62 3.88 40.1606
28.29636 0.6 3.88 40.1606
28.29636 0.56 3.88 40.1606
15.15888 4.98 3.86 18.2648
15.15888 4.86 3.86 18.2648
17.592840000000002 3.32 3.86 22.3214
17.592840000000002 3.3 3.86 22.3214
17.592840000000002 3.24 3.86 22.3214
17.592840000000002 2.7 3.86 22.3214
17.592840000000002 2.66 3.86 22.3214
21.41664 2.3 3.86 28.6944
21.41664 1.82 3.86 28.6944
21.41664 1.78 3.86 28.6944
21.41664 1.74 3.86 28.6944
17.592840000000002 1.34 3.86 22.3214
28.29636 0.6 3.86 40.1606
28.29636 0.58 3.86 40.1606
15.15888 4.98 3.84 18.2648
15.15888 4.86 3.84 18.2648
15.15888 4.62 3.84 18.2648
17.592840000000002 3.32 3.84 22.3214
17.592840000000002 3.3 3.84 22.3214
17.592840000000002 3.24 3.84 22.3214
17.592840000000002 2.7 3.84 22.3214
17.592840000000002 2.66 3.84 22.3214
21.41664 1.92 3.84 28.6944
21.41664 1.9 3.84 28.6944
28.29636 0.58 3.84 40.1606
28.29636 0.56 3.84 40.1606
28.29636 0.52 3.84 40.1606
15.15888 4.98 3.82 18.2648
15.15888 4.86 3.82 18.2648
15.15888 4.62 3.82 18.2648
17.592840000000002 3.32 3.82 22.3214
17.592840000000002 3.3 3.82 22.3214
17.592840000000002 3.24 3.82 22.3214
17.592840000000002 3.04 3.82 22.3214
17.592840000000002 2.7 3.82 22.3214
21.41664 1.94 3.82 28.6944
21.41664 1.92 3.82 28.6944
17.592840000000002 1.32 3.82 22.3214
28.29636 0.56 3.82 40.1606
28.29636 0.54 3.82 40.1606
28.29636 0.5 3.82 40.1606
15.15888 4.98 3.8 18.2648
15.15888 4.86 3.8 18.2648
15.15888 4.62 3.8 18.2648
17.592840000000002 3.32 3.8 22.3214
17.592840000000002 3.3 3.8 22.3214
17.592840000000002 3.24 3.8 22.3214
17.592840000000002 2.7 3.8 22.3214
17.592840000000002 1.3 3.8 22.3214
28.29636 0.54 3.8 40.1606
28.29636 0.52 3.8 40.1606
15.15888 5.52 3.78 18.2648
15.15888 4.98 3.78 18.2648
15.15888 4.86 3.78 18.2648
15.15888 4.62 3.78 18.2648
17.592840000000002 3.32 3.78 22.3214
17.592840000000002 3.3 3.78 22.3214
17.592840000000002 3.24 3.78 22.3214
17.592840000000002 2.7 3.78 22.3214
21.41664 2.24 3.78 28.6944
21.41664 1.36 3.78 28.6944
17.592840000000002 1.3 3.78 22.3214
28.29636 0.52 3.78 40.1606
28.29636 0.5 3.78 40.1606
28.29636 0.44 3.78 40.1606
15.15888 5.52 3.76 18.2648
15.15888 5.5 3.76 18.2648
15.15888 4.98 3.76 18.2648
15.15888 4.86 3.76 18.2648
15.15888 4.62 3.76 18.2648
17.592840000000002 3.3 3.76 22.3214
17.592840000000002 3.24 3.76 22.3214
17.592840000000002 2.82 3.76 22.3214
17.592840000000002 2.7 3.76 22.3214
21.41664 1.36 3.76 28.6944
28.29636 0.5 3.76 40.1606
28.29636 0.48 3.76 40.1606
15.15888 5.52 3.74 18.2648
15.15888 5.5 3.74 18.2648
15.15888 5.48 3.74 18.2648
15.15888 4.98 3.74 18.2648
15.15888 4.86 3.74 18.2648
15.15888 4.62 3.74 18.2648
17.592840000000002 4.22 3.74 22.3214
17.592840000000002 3.3 3.74 22.3214
17.592840000000002 3.24 3.74 22.3214
17.592840000000002 2.82 3.74 22.3214
17.592840000000002 2.7 3.74 22.3214
21.41664 1.36 3.74 28.6944
28.29636 0.48 3.74 40.1606
28.29636 0.46 3.74 40.1606
15.15888 5.52 3.72 18.2648
15.15888 5.5 3.72 18.2648
15.15888 4.98 3.72 18.2648
15.15888 4.86 3.72 18.2648
15.15888 4.62 3.72 18.2648
17.592840000000002 4.24 3.72 22.3214
17.592840000000002 3.3 3.72 22.3214
17.592840000000002 3.24 3.72 22.3214
17.592840000000002 2.7 3.72 22.3214
17.592840000000002 2.66 3.72 22.3214
21.41664 2.22 3.72 28.6944
15.15888 2.0 3.72 18.2648
21.41664 1.36 3.72 28.6944
28.29636 0.46 3.72 40.1606
28.29636 0.44 3.72 40.1606
21.41664 -5.16 3.72 28.6944
15.15888 4.98 3.7 18.2648
15.15888 4.86 3.7 18.2648
17.592840000000002 4.24 3.7 22.3214
17.592840000000002 3.3 3.7 22.3214
17.592840000000002 3.24 3.7 22.3214
17.592840000000002 2.7 3.7 22.3214
17.592840000000002 2.66 3.7 22.3214
21.41664 2.22 3.7 28.6944
21.41664 2.0 3.7 28.6944
21.41664 1.36 3.7 28.6944
15.15888 0.74 3.7 18.2648
28.29636 0.44 3.7 40.1606
28.29636 0.42 3.7 40.1606
44.33376 -5.0 3.7 66.8896
28.29636 -5.32 3.7 40.1606
15.15888 4.98 3.68 18.2648
15.15888 4.86 3.68 18.2648
17.592840000000002 4.36 3.68 22.3214
17.592840000000002 4.24 3.68 22.3214
17.592840000000002 3.32 3.68 22.3214
17.592840000000002 3.3 3.68 22.3214
17.592840000000002 3.24 3.68 22.3214
17.592840000000002 2.68 3.68 22.3214
17.592840000000002 2.66 3.68 22.3214
21.41664 2.22 3.68 28.6944
21.41664 2.1 3.68 28.6944
21.41664 1.96 3.68 28.6944
21.41664 1.36 3.68 28.6944
15.15888 0.72 3.68 18.2648
28.29636 0.42 3.68 40.1606
28.29636 0.4 3.68 40.1606
28.29636 0.34 3.68 40.1606
44.33376 -5.0 3.68 66.8896
28.29636 -5.32 3.68 40.1606
15.15888 4.98 3.66 18.2648
15.15888 4.86 3.66 18.2648
17.592840000000002 4.36 3.66 22.3214
17.592840000000002 4.24 3.66 22.3214
17.592840000000002 3.3 3.66 22.3214
17.592840000000002 3.24 3.66 22.3214
28.29636 2.76 3.66 40.1606
21.41664 2.68 3.66 28.6944
21.41664 2.22 3.66 28.6944
21.41664 2.1 3.66 28.6944
21.41664 2.08 3.66 28.6944
21.41664 1.96 3.66 28.6944
21.41664 1.36 3.66 28.6944
17.592840000000002 0.78 3.66 22.3214
21.41664 0.72 3.66 28.6944
28.29636 0.4 3.66 40.1606
28.29636 0.38 3.66 40.1606
44.33376 -5.0 3.66 66.8896
28.29636 -5.06 3.66 40.1606
28.29636 -5.32 3.66 40.1606
21.41664 -6.64 3.66 28.6944
15.15888 4.98 3.64 18.2648
15.15888 4.86 3.64 18.2648
17.592840000000002 4.36 3.64 22.3214
17.592840000000002 4.24 3.64 22.3214
17.592840000000002 3.3 3.64 22.3214
17.592840000000002 3.24 3.64 22.3214
21.41664 2.68 3.64 28.6944
21.41664 2.22 3.64 28.6944
21.41664 2.08 3.64 28.6944
21.41664 1.96 3.64 28.6944
21.41664 1.94 3.64 28.6944
21.41664 1.36 3.64 28.6944
28.29636 0.88 3.64 40.1606
28.29636 0.84 3.64 40.1606
17.592840000000002 0.78 3.64 22.3214
21.41664 0.7 3.64 28.6944
28.29636 0.38 3.64 40.1606
28.29636 0.36 3.64 40.1606
44.33376 -5.0 3.64 66.8896
44.33376 -5.22 3.64 66.8896
28.29636 -5.3 3.64 40.1606
15.15888 4.98 3.62 18.2648
15.15888 4.86 3.62 18.2648
17.592840000000002 4.36 3.62 22.3214
17.592840000000002 4.24 3.62 22.3214
17.592840000000002 3.3 3.62 22.3214
17.592840000000002 3.24 3.62 22.3214
21.41664 2.22 3.62 28.6944
21.41664 2.08 3.62 28.6944
21.41664 1.94 3.62 28.6944
21.41664 1.36 3.62 28.6944
28.29636 0.88 3.62 40.1606
28.29636 0.84 3.62 40.1606
17.592840000000002 0.78 3.62 22.3214
17.592840000000002 0.76 3.62 22.3214
28.29636 0.7 3.62 40.1606
28.29636 0.36 3.62 40.1606
28.29636 0.34 3.62 40.1606
28.29636 0.32 3.62 40.1606
44.33376 -5.0 3.62 66.8896
44.33376 -5.22 3.62 66.8896
28.29636 -5.3 3.62 40.1606
15.15888 4.98 3.6 18.2648
15.15888 4.96 3.6 18.2648
15.15888 4.86 3.6 18.2648
15.15888 4.64 3.6 18.2648
17.592840000000002 4.36 3.6 22.3214
17.592840000000002 3.3 3.6 22.3214
17.592840000000002 3.24 3.6 22.3214
21.41664 2.22 3.6 28.6944
21.41664 2.08 3.6 28.6944
21.41664 1.94 3.6 28.6944
21.41664 1.4 3.6 28.6944
21.41664 1.36 3.6 28.6944
28.29636 0.88 3.6 40.1606
28.29636 0.84 3.6 40.1606
17.592840000000002 0.78 3.6 22.3214
17.592840000000002 0.76 3.6 22.3214
28.29636 0.7 3.6 40.1606
28.29636 0.68 3.6 40.1606
28.29636 0.34 3.6 40.1606
28.29636 0.32 3.6 40.1606
44.33376 -5.0 3.6 66.8896
28.29636 -5.3 3.6 40.1606
15.15888 4.86 3.58 18.2648
17.592840000000002 4.36 3.58 22.3214
17.592840000000002 3.3 3.58 22.3214
17.592840000000002 3.24 3.58 22.3214
21.41664 2.22 3.58 28.6944
21.41664 2.08 3.58 28.6944
21.41664 1.94 3.58 28.6944
21.41664 1.36 3.58 28.6944
28.29636 0.88 3.58 40.1606
28.29636 0.84 3.58 40.1606
17.592840000000002 0.78 3.58 22.3214
28.29636 0.68 3.58 40.1606
28.29636 0.32 3.58 40.1606
28.29636 0.3 3.58 40.1606
44.33376 -5.2 3.58 66.8896
15.15888 5.0 3.56 18.2648
15.15888 4.86 3.56 18.2648
15.15888 4.64 3.56 18.2648
15.15888 4.62 3.56 18.2648
17.592840000000002 4.36 3.56 22.3214
17.592840000000002 3.94 3.56 22.3214
17.592840000000002 3.3 3.56 22.3214
17.592840000000002 3.24 3.56 22.3214
21.41664 2.22 3.56 28.6944
21.41664 2.08 3.56 28.6944
44.33376 2.02 3.56 66.8896
21.41664 1.94 3.56 28.6944
21.41664 1.4 3.56 28.6944
21.41664 1.36 3.56 28.6944
28.29636 0.88 3.56 40.1606
28.29636 0.84 3.56 40.1606
17.592840000000002 0.78 3.56 22.3214
28.29636 0.68 3.56 40.1606
28.29636 0.3 3.56 40.1606
28.29636 0.28 3.56 40.1606
15.15888 5.0 3.54 18.2648
15.15888 4.86 3.54 18.2648
15.15888 4.64 3.54 18.2648
15.15888 4.62 3.54 18.2648
17.592840000000002 4.36 3.54 22.3214
17.592840000000002 3.94 3.54 22.3214
17.592840000000002 3.3 3.54 22.3214
17.592840000000002 3.24 3.54 22.3214
21.41664 2.56 3.54 28.6944
21.41664 2.22 3.54 28.6944
21.41664 2.08 3.54 28.6944
21.41664 1.94 3.54 28.6944
21.41664 1.4 3.54 28.6944
21.41664 1.36 3.54 28.6944
28.29636 0.88 3.54 40.1606
28.29636 0.28 3.54 40.1606
28.29636 0.26 3.54 40.1606
28.29636 0.24 3.54 40.1606
17.592840000000002 -6.68 3.54 22.3214
15.15888 5.0 3.52 18.2648
17.592840000000002 4.84 3.52 22.3214
15.15888 4.62 3.52 18.2648
17.592840000000002 4.36 3.52 22.3214
17.592840000000002 4.22 3.52 22.3214
17.592840000000002 3.94 3.52 22.3214
17.592840000000002 3.3 3.52 22.3214
17.592840000000002 3.24 3.52 22.3214
21.41664 2.56 3.52 28.6944
21.41664 2.54 3.52 28.6944
21.41664 2.22 3.52 28.6944
21.41664 2.08 3.52 28.6944
21.41664 1.94 3.52 28.6944
21.41664 1.4 3.52 28.6944
21.41664 1.36 3.52 28.6944
28.29636 0.88 3.52 40.1606
28.29636 0.24 3.52 40.1606
28.29636 0.22 3.52 40.1606
15.15888 5.0 3.5 18.2648
15.15888 4.98 3.5 18.2648
17.592840000000002 4.8 3.5 22.3214
15.15888 4.62 3.5 18.2648
17.592840000000002 4.36 3.5 22.3214
17.592840000000002 3.94 3.5 22.3214
17.592840000000002 3.3 3.5 22.3214
17.592840000000002 3.24 3.5 22.3214
17.592840000000002 3.22 3.5 22.3214
21.41664 2.54 3.5 28.6944
21.41664 2.08 3.5 28.6944
21.41664 2.04 3.5 28.6944
21.41664 1.94 3.5 28.6944
21.41664 1.36 3.5 28.6944
28.29636 0.88 3.5 40.1606
28.29636 0.22 3.5 40.1606
28.29636 0.2 3.5 40.1606
15.15888 -6.4 3.5 18.2648
15.15888 5.0 3.48 18.2648
15.15888 4.62 3.48 18.2648
17.592840000000002 4.36 3.48 22.3214
17.592840000000002 3.94 3.48 22.3214
17.592840000000002 3.9 3.48 22.3214
17.592840000000002 3.3 3.48 22.3214
17.592840000000002 3.24 3.48 22.3214
21.41664 2.08 3.48 28.6944
17.592840000000002 1.64 3.48 22.3214
15.15888 1.5 3.48 18.2648
21.41664 1.36 3.48 28.6944
28.29636 0.2 3.48 40.1606
28.29636 0.18 3.48 40.1606
15.15888 -6.4 3.48 18.2648
15.15888 4.62 3.46 18.2648
17.592840000000002 4.36 3.46 22.3214
17.592840000000002 3.3 3.46 22.3214
17.592840000000002 3.24 3.46 22.3214
21.41664 2.08 3.46 28.6944
21.41664 1.64 3.46 28.6944
17.592840000000002 1.62 3.46 22.3214
15.15888 1.48 3.46 18.2648
28.29636 0.9 3.46 40.1606
28.29636 0.76 3.46 40.1606
28.29636 0.18 3.46 40.1606
28.29636 0.16 3.46 40.1606
17.592840000000002 4.36 3.44 22.3214
17.592840000000002 3.86 3.44 22.3214
17.592840000000002 3.84 3.44 22.3214
17.592840000000002 3.82 3.44 22.3214
17.592840000000002 3.3 3.44 22.3214
17.592840000000002 3.24 3.44 22.3214
21.41664 2.08 3.44 28.6944
21.41664 1.94 3.44 28.6944
21.41664 1.68 3.44 28.6944
21.41664 1.6 3.44 28.6944
15.15888 1.48 3.44 18.2648
28.29636 0.82 3.44 40.1606
28.29636 0.8 3.44 40.1606
28.29636 0.16 3.44 40.1606
28.29636 0.14 3.44 40.1606
15.15888 5.0 3.42 18.2648
17.592840000000002 4.34 3.42 22.3214
17.592840000000002 4.22 3.42 22.3214
17.592840000000002 3.86 3.42 22.3214
17.592840000000002 3.84 3.42 22.3214
17.592840000000002 3.3 3.42 22.3214
17.592840000000002 3.24 3.42 22.3214
21.41664 2.08 3.42 28.6944
21.41664 1.94 3.42 28.6944
21.41664 1.6 3.42 28.6944
21.41664 1.44 3.42 28.6944
21.41664 1.36 3.42 28.6944
21.41664 1.34 3.42 28.6944
28.29636 0.14 3.42 40.1606
28.29636 0.12 3.42 40.1606
15.15888 5.1 3.4 18.2648
17.592840000000002 4.22 3.4 22.3214
17.592840000000002 3.86 3.4 22.3214
17.592840000000002 3.84 3.4 22.3214
17.592840000000002 3.3 3.4 22.3214
17.592840000000002 3.24 3.4 22.3214
21.41664 2.28 3.4 28.6944
21.41664 2.26 3.4 28.6944
28.29636 1.66 3.4 40.1606
21.41664 1.6 3.4 28.6944
21.41664 1.44 3.4 28.6944
21.41664 1.34 3.4 28.6944
28.29636 0.12 3.4 40.1606
28.29636 0.1 3.4 40.1606
28.29636 0.04 3.4 40.1606
15.15888 5.1 3.38 18.2648
17.592840000000002 4.22 3.38 22.3214
17.592840000000002 3.86 3.38 22.3214
17.592840000000002 3.84 3.38 22.3214
13.4736 3.36 3.38 15.456
17.592840000000002 3.3 3.38 22.3214
17.592840000000002 3.24 3.38 22.3214
21.41664 2.26 3.38 28.6944
21.41664 2.0 3.38 28.6944
21.41664 1.86 3.38 28.6944
21.41664 1.6 3.38 28.6944
21.41664 0.6 3.38 28.6944
28.29636 0.1 3.38 40.1606
28.29636 0.08 3.38 40.1606
15.15888 4.56 3.36 18.2648
17.592840000000002 4.36 3.36 22.3214
17.592840000000002 3.86 3.36 22.3214
17.592840000000002 3.84 3.36 22.3214
17.592840000000002 3.66 3.36 22.3214
17.592840000000002 3.3 3.36 22.3214
17.592840000000002 3.24 3.36 22.3214
21.41664 2.12 3.36 28.6944
21.41664 2.0 3.36 28.6944
21.41664 1.6 3.36 28.6944
28.29636 0.8 3.36 40.1606
28.29636 0.54 3.36 40.1606
28.29636 0.16 3.36 40.1606
28.29636 0.08 3.36 40.1606
28.29636 0.06 3.36 40.1606
15.15888 4.56 3.34 18.2648
17.592840000000002 4.36 3.34 22.3214
17.592840000000002 4.34 3.34 22.3214
17.592840000000002 3.86 3.34 22.3214
17.592840000000002 3.84 3.34 22.3214
17.592840000000002 3.66 3.34 22.3214
17.592840000000002 3.64 3.34 22.3214
17.592840000000002 3.24 3.34 22.3214
21.41664 2.34 3.34 28.6944
21.41664 1.84 3.34 28.6944
28.29636 0.92 3.34 40.1606
28.29636 0.38 3.34 40.1606
28.29636 0.16 3.34 40.1606
28.29636 0.14 3.34 40.1606
28.29636 0.06 3.34 40.1606
28.29636 0.04 3.34 40.1606
17.592840000000002 4.36 3.32 22.3214
17.592840000000002 4.34 3.32 22.3214
17.592840000000002 3.86 3.32 22.3214
17.592840000000002 3.84 3.32 22.3214
17.592840000000002 3.66 3.32 22.3214
17.592840000000002 3.4 3.32 22.3214
17.592840000000002 3.34 3.32 22.3214
17.592840000000002 3.24 3.32 22.3214
21.41664 2.34 3.32 28.6944
21.41664 1.94 3.32 28.6944
21.41664 1.92 3.32 28.6944
21.41664 1.44 3.32 28.6944
17.592840000000002 1.38 3.32 22.3214
28.29636 0.92 3.32 40.1606
28.29636 0.72 3.32 40.1606
28.29636 0.6 3.32 40.1606
28.29636 0.38 3.32 40.1606
44.33376 0.22 3.32 66.8896
44.33376 0.16 3.32 66.8896
28.29636 0.14 3.32 40.1606
28.29636 0.02 3.32 40.1606
17.592840000000002 4.34 3.3 22.3214
17.592840000000002 3.86 3.3 22.3214
17.592840000000002 3.84 3.3 22.3214
17.592840000000002 3.66 3.3 22.3214
17.592840000000002 3.4 3.3 22.3214
17.592840000000002 3.38 3.3 22.3214
21.41664 2.34 3.3 28.6944
44.33376 2.06 3.3 66.8896
21.41664 1.94 3.3 28.6944
21.41664 1.92 3.3 28.6944
21.41664 1.76 3.3 28.6944
124.19999999999999 1.54 3.3 200.0
21.41664 1.44 3.3 28.6944
17.592840000000002 1.38 3.3 22.3214
28.29636 0.92 3.3 40.1606
28.29636 0.6 3.3 40.1606
28.29636 0.38 3.3 40.1606
28.29636 0.3 3.3 40.1606
124.19999999999999 0.14 3.3 200.0
28.29636 0.0 3.3 40.1606
15.15888 4.52 3.28 18.2648
17.592840000000002 4.34 3.28 22.3214
17.592840000000002 3.86 3.28 22.3214
17.592840000000002 3.84 3.28 22.3214
17.592840000000002 3.66 3.28 22.3214
17.592840000000002 3.54 3.28 22.3214
17.592840000000002 3.4 3.28 22.3214
17.592840000000002 3.38 3.28 22.3214
17.592840000000002 3.24 3.28 22.3214
21.41664 2.28 3.28 28.6944
21.41664 1.92 3.28 28.6944
21.41664 1.74 3.28 28.6944
124.19999999999999 1.54 3.28 200.0
17.592840000000002 1.34 3.28 22.3214
28.29636 0.38 3.28 40.1606
28.29636 0.2 3.28 40.1606
124.19999999999999 0.14 3.28 200.0
28.29636 -0.02 3.28 40.1606
15.15888 5.06 3.26 18.2648
15.15888 4.56 3.26 18.2648
17.592840000000002 3.86 3.26 22.3214
17.592840000000002 3.84 3.26 22.3214
17.592840000000002 3.66 3.26 22.3214
17.592840000000002 3.54 3.26 22.3214
17.592840000000002 3.48 3.26 22.3214
17.592840000000002 3.42 3.26 22.3214
17.592840000000002 3.4 3.26 22.3214
17.592840000000002 3.24 3.26 22.3214
17.592840000000002 3.22 3.26 22.3214
21.41664 2.28 3.26 28.6944
21.41664 1.44 3.26 28.6944
21.41664 1.38 3.26 28.6944
21.41664 1.36 3.26 28.6944
21.41664 1.34 3.26 28.6944
28.29636 0.38 3.26 40.1606
21.41664 0.28 3.26 28.6944
124.19999999999999 0.14 3.26 200.0
124.19999999999999 0.12 3.26 200.0
124.19999999999999 0.08 3.26 200.0
28.29636 -0.04 3.26 40.1606
28.29636 -0.06 3.26 40.1606
44.33376 -5.0 3.26 66.8896
15.15888 5.06 3.24 18.2648
15.15888 5.0 3.24 18.2648
15.15888 4.46 3.24 18.2648
15.15888 4.44 3.24 18.2648
17.592840000000002 3.86 3.24 22.3214
17.592840000000002 3.84 3.24 22.3214
17.592840000000002 3.66 3.24 22.3214
17.592840000000002 3.54 3.24 22.3214
17.592840000000002 3.48 3.24 22.3214
17.592840000000002 3.4 3.24 22.3214
17.592840000000002 3.22 3.24 22.3214
21.41664 1.34 3.24 28.6944
28.29636 0.38 3.24 40.1606
124.19999999999999 0.12 3.24 200.0
28.29636 0.06 3.24 40.1606
28.29636 -0.06 3.24 40.1606
28.29636 -0.08 3.24 40.1606
44.33376 -5.0 3.24 66.8896
15.15888 5.06 3.22 18.2648
15.15888 4.88 3.22 18.2648
15.15888 4.48 3.22 18.2648
17.592840000000002 3.86 3.22 22.3214
17.592840000000002 3.84 3.22 22.3214
17.592840000000002 3.66 3.22 22.3214
17.592840000000002 3.48 3.22 22.3214
17.592840000000002 3.4 3.22 22.3214
17.592840000000002 3.22 3.22 22.3214
21.41664 1.64 3.22 28.6944
21.41664 1.6 3.22 28.6944
21.41664 1.34 3.22 28.6944
28.29636 0.28 3.22 40.1606
124.19999999999999 0.08 3.22 200.0
28.29636 -0.04 3.22 40.1606
28.29636 -0.08 3.22 40.1606
28.29636 -0.1 3.22 40.1606
44.33376 -5.0 3.22 66.8896
15.15888 4.96 3.2 18.2648
15.15888 4.94 3.2 18.2648
15.15888 4.48 3.2 18.2648
17.592840000000002 3.84 3.2 22.3214
17.592840000000002 3.66 3.2 22.3214
17.592840000000002 3.48 3.2 22.3214
17.592840000000002 3.22 3.2 22.3214
21.41664 1.6 3.2 28.6944
21.41664 1.58 3.2 28.6944
21.41664 1.34 3.2 28.6944
28.29636 0.34 3.2 40.1606
28.29636 0.28 3.2 40.1606
21.41664 0.26 3.2 28.6944
124.19999999999999 0.06 3.2 200.0
124.19999999999999 0.02 3.2 200.0
28.29636 -0.06 3.2 40.1606
28.29636 -0.1 3.2 40.1606
28.29636 -0.12 3.2 40.1606
17.592840000000002 -6.72 3.2 22.3214
15.15888 5.12 3.18 18.2648
15.15888 4.96 3.18 18.2648
17.592840000000002 3.84 3.18 22.3214
17.592840000000002 3.66 3.18 22.3214
17.592840000000002 3.48 3.18 22.3214
17.592840000000002 3.22 3.18 22.3214
21.41664 1.58 3.18 28.6944
44.33376 1.44 3.18 66.8896
21.41664 1.34 3.18 28.6944
28.29636 0.34 3.18 40.1606
28.29636 0.32 3.18 40.1606
28.29636 0.24 3.18 40.1606
28.29636 -0.12 3.18 40.1606
28.29636 -0.14 3.18 40.1606
28.29636 -5.32 3.18 40.1606
17.592840000000002 -6.7 3.18 22.3214
15.15888 4.96 3.16 18.2648
17.592840000000002 3.84 3.16 22.3214
17.592840000000002 3.66 3.16 22.3214
17.592840000000002 3.48 3.16 22.3214
17.592840000000002 3.28 3.16 22.3214
17.592840000000002 3.22 3.16 22.3214
21.41664 1.34 3.16 28.6944
28.29636 0.24 3.16 40.1606
124.19999999999999 0.02 3.16 200.0
28.29636 -0.1 3.16 40.1606
28.29636 -0.14 3.16 40.1606
28.29636 -0.16 3.16 40.1606
21.41664 -5.04 3.16 28.6944
28.29636 -5.3 3.16 40.1606
17.592840000000002 3.84 3.14 22.3214
17.592840000000002 3.66 3.14 22.3214
17.592840000000002 3.64 3.14 22.3214
17.592840000000002 3.48 3.14 22.3214
17.592840000000002 3.28 3.14 22.3214
17.592840000000002 3.22 3.14 22.3214
21.41664 1.5 3.14 28.6944
44.33376 1.42 3.14 66.8896
21.41664 1.34 3.14 28.6944
28.29636 0.24 3.14 40.1606
124.19999999999999 0.0 3.14 200.0
28.29636 -0.12 3.14 40.1606
28.29636 -0.16 3.14 40.1606
28.29636 -0.18 3.14 40.1606
21.41664 -5.04 3.14 28.6944
44.33376 -5.24 3.14 66.8896
28.29636 -5.3 3.14 40.1606
21.41664 -6.64 3.14 28.6944
15.15888 4.42 3.12 18.2648
17.592840000000002 3.86 3.12 22.3214
17.592840000000002 3.84 3.12 22.3214
17.592840000000002 3.66 3.12 22.3214
17.592840000000002 3.64 3.12 22.3214
17.592840000000002 3.48 3.12 22.3214
17.592840000000002 3.28 3.12 22.3214
17.592840000000002 3.22 3.12 22.3214
17.592840000000002 3.0 3.12 22.3214
21.41664 1.94 3.12 28.6944
21.41664 1.5 3.12 28.6944
21.41664 1.48 3.12 28.6944
28.29636 1.36 3.12 40.1606
28.29636 0.24 3.12 40.1606
17.592840000000002 0.16 3.12 22.3214
17.592840000000002 0.08 3.12 22.3214
28.29636 -0.14 3.12 40.1606
28.29636 -0.18 3.12 40.1606
28.29636 -0.2 3.12 40.1606
13.4736 -0.78 3.12 15.456
21.41664 -5.8 3.12 28.6944
21.41664 -6.62 3.12 28.6944
15.15888 5.12 3.1 18.2648
15.15888 4.42 3.1 18.2648
15.15888 3.96 3.1 18.2648
17.592840000000002 3.86 3.1 22.3214
17.592840000000002 3.84 3.1 22.3214
17.592840000000002 3.66 3.1 22.3214
17.592840000000002 3.64 3.1 22.3214
17.592840000000002 3.48 3.1 22.3214
17.592840000000002 3.28 3.1 22.3214
17.592840000000002 3.22 3.1 22.3214
17.592840000000002 3.0 3.1 22.3214
15.15888 2.94 3.1 18.2648
21.41664 2.0 3.1 28.6944
21.41664 1.92 3.1 28.6944
21.41664 1.5 3.1 28.6944
21.41664 1.48 3.1 28.6944
28.29636 1.36 3.1 40.1606
28.29636 0.24 3.1 40.1606
17.592840000000002 0.16 3.1 22.3214
124.19999999999999 -0.06 3.1 200.0
28.29636 -0.16 3.1 40.1606
28.29636 -0.2 3.1 40.1606
28.29636 -0.22 3.1 40.1606
13.4736 -0.78 3.1 15.456
15.15888 4.42 3.08 18.2648
15.15888 3.96 3.08 18.2648
17.592840000000002 3.86 3.08 22.3214
17.592840000000002 3.84 3.08 22.3214
17.592840000000002 3.78 3.08 22.3214
17.592840000000002 3.66 3.08 22.3214
17.592840000000002 3.64 3.08 22.3214
17.592840000000002 3.48 3.08 22.3214
17.592840000000002 3.28 3.08 22.3214
17.592840000000002 3.22 3.08 22.3214
17.592840000000002 3.0 3.08 22.3214
21.41664 2.02 3.08 28.6944
21.41664 2.0 3.08 28.6944
21.41664 1.92 3.08 28.6944
21.41664 1.9 3.08 28.6944
21.41664 1.5 3.08 28.6944
15.15888 0.92 3.08 18.2648
28.29636 0.24 3.08 40.1606
21.41664 0.06 3.08 28.6944
28.29636 -0.24 3.08 40.1606
15.15888 -0.78 3.08 18.2648
44.33376 -4.96 3.08 66.8896
15.15888 4.42 3.06 18.2648
15.15888 4.02 3.06 18.2648
17.592840000000002 3.84 3.06 22.3214
17.592840000000002 3.66 3.06 22.3214
17.592840000000002 3.64 3.06 22.3214
17.592840000000002 3.48 3.06 22.3214
17.592840000000002 3.28 3.06 22.3214
17.592840000000002 3.22 3.06 22.3214
17.592840000000002 3.0 3.06 22.3214
21.41664 1.94 3.06 28.6944
21.41664 1.92 3.06 28.6944
28.29636 1.08 3.06 40.1606
28.29636 0.9 3.06 40.1606
28.29636 0.54 3.06 40.1606
28.29636 0.24 3.06 40.1606
21.41664 0.06 3.06 28.6944
124.19999999999999 -0.1 3.06 200.0
44.33376 -0.2 3.06 66.8896
28.29636 -0.26 3.06 40.1606
21.41664 -5.36 3.06 28.6944
15.15888 4.42 3.04 18.2648
17.592840000000002 3.66 3.04 22.3214
17.592840000000002 3.64 3.04 22.3214
17.592840000000002 3.48 3.04 22.3214
17.592840000000002 3.28 3.04 22.3214
17.592840000000002 3.22 3.04 22.3214
21.41664 1.94 3.04 28.6944
28.29636 1.12 3.04 40.1606
28.29636 1.08 3.04 40.1606
28.29636 0.88 3.04 40.1606
28.29636 0.52 3.04 40.1606
15.15888 0.3 3.04 18.2648
28.29636 0.24 3.04 40.1606
21.41664 0.18 3.04 28.6944
21.41664 0.06 3.04 28.6944
124.19999999999999 -0.1 3.04 200.0
124.19999999999999 -0.12 3.04 200.0
44.33376 -0.22 3.04 66.8896
28.29636 -0.28 3.04 40.1606
21.41664 -0.78 3.04 28.6944
21.41664 -0.8 3.04 28.6944
44.33376 -4.94 3.04 66.8896
17.592840000000002 3.64 3.02 22.3214
17.592840000000002 3.48 3.02 22.3214
17.592840000000002 3.28 3.02 22.3214
17.592840000000002 3.22 3.02 22.3214
124.19999999999999 1.42 3.02 200.0
124.19999999999999 1.26 3.02 200.0
28.29636 1.12 3.02 40.1606
28.29636 1.06 3.02 40.1606
28.29636 0.88 3.02 40.1606
28.29636 0.5 3.02 40.1606
28.29636 0.48 3.02 40.1606
28.29636 0.28 3.02 40.1606
28.29636 0.24 3.02 40.1606
21.41664 0.18 3.02 28.6944
21.41664 0.16 3.02 28.6944
124.19999999999999 -0.14 3.02 200.0
44.33376 -0.26 3.02 66.8896
28.29636 -0.3 3.02 40.1606
17.592840000000002 -0.48 3.02 22.3214
17.592840000000002 -0.5 3.02 22.3214
21.41664 -0.68 3.02 28.6944
21.41664 -0.7 3.02 28.6944
21.41664 -0.72 3.02 28.6944
21.41664 -0.74 3.02 28.6944
21.41664 -0.78 3.02 28.6944
21.41664 -0.8 3.02 28.6944
44.33376 -4.94 3.02 66.8896
28.29636 -5.24 3.02 40.1606
17.592840000000002 3.64 3.0 22.3214
17.592840000000002 3.48 3.0 22.3214
17.592840000000002 3.28 3.0 22.3214
17.592840000000002 3.22 3.0 22.3214
28.29636 1.06 3.0 40.1606
28.29636 0.48 3.0 40.1606
28.29636 0.46 3.0 40.1606
28.29636 0.24 3.0 40.1606
21.41664 0.18 3.0 28.6944
21.41664 0.16 3.0 28.6944
124.19999999999999 -0.16 3.0 200.0
44.33376 -0.28 3.0 66.8896
28.29636 -0.32 3.0 40.1606
17.592840000000002 -0.48 3.0 22.3214
21.41664 -0.52 3.0 28.6944
21.41664 -0.6 3.0 28.6944
21.41664 -0.62 3.0 28.6944
21.41664 -0.64 3.0 28.6944
21.41664 -0.66 3.0 28.6944
21.41664 -0.72 3.0 28.6944
21.41664 -0.74 3.0 28.6944
17.592840000000002 3.64 2.98 22.3214
17.592840000000002 3.48 2.98 22.3214
17.592840000000002 3.46 2.98 22.3214
17.592840000000002 3.28 2.98 22.3214
17.592840000000002 3.22 2.98 22.3214
17.592840000000002 3.0 2.98 22.3214
28.29636 1.06 2.98 40.1606
28.29636 0.44 2.98 40.1606
28.29636 0.24 2.98 40.1606
21.41664 0.18 2.98 28.6944
124.19999999999999 -0.18 2.98 200.0
44.33376 -0.3 2.98 66.8896
28.29636 -0.34 2.98 40.1606
21.41664 -0.56 2.98 28.6944
21.41664 -0.58 2.98 28.6944
21.41664 -0.6 2.98 28.6944
21.41664 -0.74 2.98 28.6944
44.33376 -4.92 2.98 66.8896
17.592840000000002 3.48 2.96 22.3214
17.592840000000002 3.46 2.96 22.3214
17.592840000000002 3.28 2.96 22.3214
17.592840000000002 3.22 2.96 22.3214
17.592840000000002 3.0 2.96 22.3214
21.41664 1.82 2.96 28.6944
28.29636 0.42 2.96 40.1606
28.29636 0.24 2.96 40.1606
28.29636 0.18 2.96 40.1606
28.29636 0.16 2.96 40.1606
28.29636 0.1 2.96 40.1606
28.29636 -0.36 2.96 40.1606
21.41664 -0.54 2.96 28.6944
21.41664 -0.56 2.96 28.6944
44.33376 -4.92 2.96 66.8896
15.15888 3.58 2.94 18.2648
17.592840000000002 3.48 2.94 22.3214
17.592840000000002 3.46 2.94 22.3214
17.592840000000002 3.28 2.94 22.3214
17.592840000000002 3.22 2.94 22.3214
21.41664 2.32 2.94 28.6944
21.41664 2.3 2.94 28.6944
21.41664 1.8 2.94 28.6944
28.29636 0.4 2.94 40.1606
28.29636 0.24 2.94 40.1606
28.29636 0.18 2.94 40.1606
28.29636 0.16 2.94 40.1606
28.29636 0.1 2.94 40.1606
124.19999999999999 -0.22 2.94 200.0
44.33376 -0.38 2.94 66.8896
21.41664 -0.5 2.94 28.6944
21.41664 -0.52 2.94 28.6944
28.29636 -5.16 2.94 40.1606
15.15888 4.6 2.92 18.2648
15.15888 3.6 2.92 18.2648
15.15888 3.58 2.92 18.2648
17.592840000000002 3.48 2.92 22.3214
17.592840000000002 3.46 2.92 22.3214
17.592840000000002 3.28 2.92 22.3214
17.592840000000002 3.22 2.92 22.3214
21.41664 2.3 2.92 28.6944
28.29636 0.6 2.92 40.1606
28.29636 0.38 2.92 40.1606
28.29636 0.24 2.92 40.1606
28.29636 0.16 2.92 40.1606
28.29636 0.1 2.92 40.1606
21.41664 0.04 2.92 28.6944
124.19999999999999 -0.24 2.92 200.0
44.33376 -0.34 2.92 66.8896
44.33376 -0.36 2.92 66.8896
28.29636 -5.16 2.92 40.1606
15.15888 -6.52 2.92 18.2648
15.15888 4.6 2.9 18.2648
15.15888 3.62 2.9 18.2648
17.592840000000002 3.46 2.9 22.3214
17.592840000000002 3.28 2.9 22.3214
17.592840000000002 3.22 2.9 22.3214
21.41664 2.6 2.9 28.6944
21.41664 2.58 2.9 28.6944
28.29636 0.88 2.9 40.1606
28.29636 0.64 2.9 40.1606
28.29636 0.62 2.9 40.1606
28.29636 0.16 2.9 40.1606
28.29636 0.1 2.9 40.1606
28.29636 -0.1 2.9 40.1606
124.19999999999999 -0.26 2.9 200.0
44.33376 -0.38 2.9 66.8896
44.33376 -0.4 2.9 66.8896
44.33376 -0.44 2.9 66.8896
15.15888 -6.52 2.9 18.2648
15.15888 4.48 2.88 18.2648
17.592840000000002 3.48 2.88 22.3214
17.592840000000002 3.46 2.88 22.3214
17.592840000000002 3.28 2.88 22.3214
17.592840000000002 3.22 2.88 22.3214
21.41664 2.58 2.88 28.6944
21.41664 2.56 2.88 28.6944
21.41664 1.7 2.88 28.6944
28.29636 0.88 2.88 40.1606
28.29636 0.86 2.88 40.1606
28.29636 0.66 2.88 40.1606
28.29636 0.64 2.88 40.1606
28.29636 0.24 2.88 40.1606
44.33376 0.16 2.88 66.8896
28.29636 0.1 2.88 40.1606
28.29636 -0.1 2.88 40.1606
124.19999999999999 -0.28 2.88 200.0
44.33376 -0.4 2.88 66.8896
44.33376 -0.42 2.88 66.8896
28.29636 -0.46 2.88 40.1606
44.33376 -4.88 2.88 66.8896
15.15888 -6.52 2.88 18.2648
15.15888 4.48 2.86 18.2648
17.592840000000002 3.48 2.86 22.3214
17.592840000000002 3.46 2.86 22.3214
17.592840000000002 3.28 2.86 22.3214
17.592840000000002 3.22 2.86 22.3214
21.41664 2.58 2.86 28.6944
21.41664 1.66 2.86 28.6944
17.592840000000002 1.3 2.86 22.3214
28.29636 0.66 2.86 40.1606
28.29636 0.24 2.86 40.1606
44.33376 -0.42 2.86 66.8896
28.29636 -0.48 2.86 40.1606
17.592840000000002 -6.4 2.86 22.3214
15.15888 -6.52 2.86 18.2648
15.15888 4.5 2.84 18.2648
15.15888 4.48 2.84 18.2648
15.15888 4.46 2.84 18.2648
15.15888 4.44 2.84 18.2648
17.592840000000002 3.46 2.84 22.3214
17.592840000000002 3.28 2.84 22.3214
17.592840000000002 3.22 2.84 22.3214
21.41664 2.58 2.84 28.6944
21.41664 1.3 2.84 28.6944
17.592840000000002 1.28 2.84 22.3214
17.592840000000002 1.26 2.84 22.3214
28.29636 0.66 2.84 40.1606
28.29636 0.24 2.84 40.1606
124.19999999999999 -0.34 2.84 200.0
44.33376 -0.44 2.84 66.8896
28.29636 -0.5 2.84 40.1606
17.592840000000002 -6.4 2.84 22.3214
15.15888 -6.52 2.84 18.2648
15.15888 5.04 2.82 18.2648
15.15888 4.48 2.82 18.2648
17.592840000000002 3.46 2.82 22.3214
17.592840000000002 3.28 2.82 22.3214
17.592840000000002 3.22 2.82 22.3214
21.41664 2.58 2.82 28.6944
21.41664 1.56 2.82 28.6944
21.41664 1.38 2.82 28.6944
21.41664 1.28 2.82 28.6944
124.19999999999999 -0.36 2.82 200.0
44.33376 -0.46 2.82 66.8896
28.29636 -0.52 2.82 40.1606
17.592840000000002 -6.4 2.82 22.3214
15.15888 -6.52 2.82 18.2648
15.15888 4.96 2.8 18.2648
17.592840000000002 3.46 2.8 22.3214
17.592840000000002 3.28 2.8 22.3214
17.592840000000002 3.22 2.8 22.3214
21.41664 2.58 2.8 28.6944
21.41664 1.58 2.8 28.6944
21.41664 1.56 2.8 28.6944
21.41664 1.54 2.8 28.6944
21.41664 1.38 2.8 28.6944
21.41664 1.34 2.8 28.6944
21.41664 1.28 2.8 28.6944
21.41664 1.26 2.8 28.6944
28.29636 0.66 2.8 40.1606
28.29636 0.24 2.8 40.1606
124.19999999999999 -0.38 2.8 200.0
44.33376 -0.48 2.8 66.8896
28.29636 -0.54 2.8 40.1606
17.592840000000002 3.46 2.78 22.3214
17.592840000000002 3.28 2.78 22.3214
17.592840000000002 3.22 2.78 22.3214
21.41664 2.58 2.78 28.6944
21.41664 1.86 2.78 28.6944
21.41664 1.76 2.78 28.6944
21.41664 1.74 2.78 28.6944
21.41664 1.66 2.78 28.6944
21.41664 1.54 2.78 28.6944
21.41664 1.38 2.78 28.6944
21.41664 1.34 2.78 28.6944
28.29636 1.26 2.78 40.1606
28.29636 0.86 2.78 40.1606
28.29636 0.82 2.78 40.1606
28.29636 0.66 2.78 40.1606
28.29636 0.24 2.78 40.1606
124.19999999999999 -0.4 2.78 200.0
44.33376 -0.5 2.78 66.8896
44.33376 -0.52 2.78 66.8896
44.33376 -0.56 2.78 66.8896
44.33376 -4.82 2.78 66.8896
15.15888 -6.52 2.78 18.2648
15.15888 4.66 2.76 18.2648
15.15888 4.64 2.76 18.2648
15.15888 4.62 2.76 18.2648
15.15888 4.6 2.76 18.2648
17.592840000000002 3.46 2.76 22.3214
17.592840000000002 3.28 2.76 22.3214
17.592840000000002 3.22 2.76 22.3214
21.41664 2.58 2.76 28.6944
21.41664 1.9 2.76 28.6944
21.41664 1.84 2.76 28.6944
21.41664 1.34 2.76 28.6944
28.29636 0.86 2.76 40.1606
28.29636 0.82 2.76 40.1606
28.29636 0.66 2.76 40.1606
28.29636 0.24 2.76 40.1606
124.19999999999999 -0.4 2.76 200.0
124.19999999999999 -0.42 2.76 200.0
44.33376 -0.52 2.76 66.8896
44.33376 -0.54 2.76 66.8896
44.33376 -0.58 2.76 66.8896
44.33376 -4.82 2.76 66.8896
15.15888 4.8 2.74 18.2648
17.592840000000002 3.6 2.74 22.3214
17.592840000000002 3.46 2.74 22.3214
17.592840000000002 3.28 2.74 22.3214
17.592840000000002 3.22 2.74 22.3214
21.41664 2.6 2.74 28.6944
21.41664 2.58 2.74 28.6944
21.41664 2.28 2.74 28.6944
21.41664 1.92 2.74 28.6944
21.41664 1.9 2.74 28.6944
21.41664 1.34 2.74 28.6944
28.29636 0.86 2.74 40.1606
28.29636 0.66 2.74 40.1606
124.19999999999999 -0.44 2.74 200.0
44.33376 -0.54 2.74 66.8896
44.33376 -0.56 2.74 66.8896
28.29636 -0.6 2.74 40.1606
44.33376 -4.82 2.74 66.8896
21.41664 -5.12 2.74 28.6944
15.15888 5.0 2.72 18.2648
15.15888 4.98 2.72 18.2648
17.592840000000002 3.6 2.72 22.3214
17.592840000000002 3.28 2.72 22.3214
17.592840000000002 3.22 2.72 22.3214
21.41664 2.58 2.72 28.6944
21.41664 2.28 2.72 28.6944
21.41664 1.92 2.72 28.6944
21.41664 1.9 2.72 28.6944
21.41664 1.38 2.72 28.6944
21.41664 1.34 2.72 28.6944
28.29636 1.04 2.72 40.1606
28.29636 0.86 2.72 40.1606
28.29636 0.66 2.72 40.1606
124.19999999999999 -0.46 2.72 200.0
44.33376 -0.56 2.72 66.8896
44.33376 -0.58 2.72 66.8896
28.29636 -0.62 2.72 40.1606
44.33376 -4.82 2.72 66.8896
15.15888 -5.86 2.72 18.2648
15.15888 5.0 2.7 18.2648
15.15888 4.98 2.7 18.2648
17.592840000000002 3.28 2.7 22.3214
17.592840000000002 3.22 2.7 22.3214
21.41664 2.58 2.7 28.6944
21.41664 1.92 2.7 28.6944
21.41664 1.34 2.7 28.6944
28.29636 1.02 2.7 40.1606
28.29636 0.86 2.7 40.1606
44.33376 0.72 2.7 66.8896
28.29636 0.66 2.7 40.1606
124.19999999999999 -0.48 2.7 200.0
44.33376 -0.58 2.7 66.8896
28.29636 -0.64 2.7 40.1606
44.33376 -4.8 2.7 66.8896
13.4736 5.84 2.68 15.456
17.592840000000002 3.28 2.68 22.3214
17.592840000000002 3.22 2.68 22.3214
21.41664 2.58 2.68 28.6944
21.41664 1.92 2.68 28.6944
21.41664 1.34 2.68 28.6944
28.29636 0.86 2.68 40.1606
44.33376 0.72 2.68 66.8896
28.29636 0.66 2.68 40.1606
28.29636 0.28 2.68 40.1606
28.29636 -0.28 2.68 40.1606
21.41664 -0.36 2.68 28.6944
124.19999999999999 -0.5 2.68 200.0
44.33376 -0.6 2.68 66.8896
44.33376 -0.62 2.68 66.8896
44.33376 -0.66 2.68 66.8896
11.29218 -0.8 2.68 11.8203
44.33376 -4.78 2.68 66.8896
44.33376 -4.8 2.68 66.8896
21.41664 -4.98 2.68 28.6944
13.4736 5.84 2.66 15.456
13.4736 5.82 2.66 15.456
17.592840000000002 3.28 2.66 22.3214
17.592840000000002 3.22 2.66 22.3214
15.15888 2.66 2.66 18.2648
21.41664 2.58 2.66 28.6944
21.41664 1.92 2.66 28.6944
21.41664 1.34 2.66 28.6944
28.29636 0.86 2.66 40.1606
28.29636 0.66 2.66 40.1606
17.592840000000002 0.54 2.66 22.3214
28.29636 0.28 2.66 40.1606
124.19999999999999 -0.52 2.66 200.0
44.33376 -0.62 2.66 66.8896
44.33376 -0.64 2.66 66.8896
44.33376 -0.68 2.66 66.8896
44.33376 -4.78 2.66 66.8896
44.33376 -4.8 2.66 66.8896
28.29636 -4.9 2.66 40.1606
21.41664 -4.98 2.66 28.6944
13.4736 5.84 2.64 15.456
13.4736 5.82 2.64 15.456
17.592840000000002 3.34 2.64 22.3214
17.592840000000002 3.22 2.64 22.3214
21.41664 2.76 2.64 28.6944
21.41664 2.74 2.64 28.6944
15.15888 2.66 2.64 18.2648
15.15888 2.64 2.64 18.2648
21.41664 1.38 2.64 28.6944
21.41664 1.34 2.64 28.6944
28.29636 0.86 2.64 40.1606
28.29636 0.66 2.64 40.1606
124.19999999999999 -0.54 2.64 200.0
44.33376 -0.64 2.64 66.8896
44.33376 -0.66 2.64 66.8896
44.33376 -0.7 2.64 66.8896
44.33376 -4.78 2.64 66.8896
21.41664 -4.98 2.64 28.6944
15.15888 5.84 2.62 18.2648
15.15888 5.82 2.62 18.2648
15.15888 5.56 2.62 18.2648
17.592840000000002 3.32 2.62 22.3214
17.592840000000002 3.22 2.62 22.3214
21.41664 2.76 2.62 28.6944
21.41664 2.74 2.62 28.6944
21.41664 2.62 2.62 28.6944
21.41664 2.2 2.62 28.6944
21.41664 2.12 2.62 28.6944
15.15888 1.98 2.62 18.2648
21.41664 1.38 2.62 28.6944
21.41664 1.34 2.62 28.6944
28.29636 0.86 2.62 40.1606
28.29636 0.66 2.62 40.1606
28.29636 0.44 2.62 40.1606
124.19999999999999 -0.28 2.62 200.0
124.19999999999999 -0.56 2.62 200.0
44.33376 -0.66 2.62 66.8896
44.33376 -0.68 2.62 66.8896
44.33376 -0.72 2.62 66.8896
44.33376 -4.76 2.62 66.8896
28.29636 -4.9 2.62 40.1606
15.15888 5.84 2.6 18.2648
15.15888 5.82 2.6 18.2648
15.15888 5.56 2.6 18.2648
15.15888 5.54 2.6 18.2648
15.15888 5.04 2.6 18.2648
17.592840000000002 3.22 2.6 22.3214
21.41664 2.74 2.6 28.6944
21.41664 2.6 2.6 28.6944
21.41664 2.58 2.6 28.6944
21.41664 2.2 2.6 28.6944
21.41664 2.18 2.6 28.6944
21.41664 1.98 2.6 28.6944
21.41664 1.92 2.6 28.6944
21.41664 1.34 2.6 28.6944
28.29636 0.66 2.6 40.1606
28.29636 0.5 2.6 40.1606
28.29636 0.38 2.6 40.1606
17.592840000000002 0.26 2.6 22.3214
124.19999999999999 -0.28 2.6 200.0
124.19999999999999 -0.58 2.6 200.0
44.33376 -0.68 2.6 66.8896
44.33376 -0.7 2.6 66.8896
44.33376 -0.74 2.6 66.8896
15.15888 5.84 2.58 18.2648
15.15888 5.82 2.58 18.2648
15.15888 5.56 2.58 18.2648
15.15888 5.54 2.58 18.2648
17.592840000000002 3.22 2.58 22.3214
17.592840000000002 2.8 2.58 22.3214
17.592840000000002 2.76 2.58 22.3214
21.41664 2.74 2.58 28.6944
21.41664 2.58 2.58 28.6944
21.41664 2.2 2.58 28.6944
21.41664 2.18 2.58 28.6944
21.41664 2.08 2.58 28.6944
21.41664 1.94 2.58 28.6944
21.41664 1.92 2.58 28.6944
21.41664 1.38 2.58 28.6944
21.41664 1.34 2.58 28.6944
28.29636 0.66 2.58 40.1606
28.29636 0.62 2.58 40.1606
28.29636 0.5 2.58 40.1606
28.29636 0.38 2.58 40.1606
17.592840000000002 0.26 2.58 22.3214
15.15888 0.2 2.58 18.2648
124.19999999999999 -0.6 2.58 200.0
44.33376 -0.7 2.58 66.8896
44.33376 -0.72 2.58 66.8896
44.33376 -0.76 2.58 66.8896
15.15888 -6.52 2.58 18.2648
15.15888 5.84 2.56 18.2648
15.15888 5.82 2.56 18.2648
15.15888 5.58 2.56 18.2648
15.15888 5.56 2.56 18.2648
15.15888 5.54 2.56 18.2648
17.592840000000002 3.28 2.56 22.3214
17.592840000000002 3.22 2.56 22.3214
17.592840000000002 2.8 2.56 22.3214
21.41664 2.68 2.56 28.6944
21.41664 2.66 2.56 28.6944
21.41664 2.58 2.56 28.6944
21.41664 2.2 2.56 28.6944
21.41664 2.18 2.56 28.6944
21.41664 2.08 2.56 28.6944
21.41664 2.06 2.56 28.6944
21.41664 1.94 2.56 28.6944
21.41664 1.92 2.56 28.6944
21.41664 1.38 2.56 28.6944
124.19999999999999 0.62 2.56 200.0
28.29636 0.5 2.56 40.1606
28.29636 0.38 2.56 40.1606
28.29636 0.36 2.56 40.1606
17.592840000000002 0.26 2.56 22.3214
15.15888 0.2 2.56 18.2648
124.19999999999999 -0.62 2.56 200.0
124.19999999999999 -0.64 2.56 200.0
44.33376 -0.72 2.56 66.8896
44.33376 -0.74 2.56 66.8896
44.33376 -0.78 2.56 66.8896
15.15888 -6.52 2.56 18.2648
15.15888 5.84 2.54 18.2648
15.15888 5.82 2.54 18.2648
15.15888 5.68 2.54 18.2648
15.15888 5.66 2.54 18.2648
15.15888 5.58 2.54 18.2648
15.15888 5.56 2.54 18.2648
15.15888 5.54 2.54 18.2648
17.592840000000002 3.28 2.54 22.3214
17.592840000000002 3.22 2.54 22.3214
17.592840000000002 2.8 2.54 22.3214
17.592840000000002 2.76 2.54 22.3214
17.592840000000002 2.74 2.54 22.3214
21.41664 2.68 2.54 28.6944
17.592840000000002 2.66 2.54 22.3214
21.41664 2.58 2.54 28.6944
21.41664 2.08 2.54 28.6944
21.41664 1.94 2.54 28.6944
21.41664 1.92 2.54 28.6944
21.41664 1.38 2.54 28.6944
28.29636 0.38 2.54 40.1606
28.29636 0.36 2.54 40.1606
17.592840000000002 0.26 2.54 22.3214
15.15888 0.2 2.54 18.2648
28.29636 -0.12 2.54 40.1606
28.29636 -0.14 2.54 40.1606
124.19999999999999 -0.64 2.54 200.0
44.33376 -0.74 2.54 66.8896
44.33376 -0.76 2.54 66.8896
13.4736 5.84 2.52 15.456
13.4736 5.82 2.52 15.456
15.15888 5.68 2.52 18.2648
15.15888 5.66 2.52 18.2648
15.15888 5.56 2.52 18.2648
17.592840000000002 3.28 2.52 22.3214
17.592840000000002 3.22 2.52 22.3214
15.15888 2.96 2.52 18.2648
17.592840000000002 2.8 2.52 22.3214
21.41664 2.68 2.52 28.6944
17.592840000000002 2.66 2.52 22.3214
21.41664 2.08 2.52 28.6944
21.41664 1.94 2.52 28.6944
21.41664 1.92 2.52 28.6944
21.41664 1.38 2.52 28.6944
28.29636 0.42 2.52 40.1606
28.29636 0.38 2.52 40.1606
28.29636 0.36 2.52 40.1606
17.592840000000002 0.26 2.52 22.3214
28.29636 -0.16 2.52 40.1606
21.41664 -0.46 2.52 28.6944
124.19999999999999 -0.66 2.52 200.0
44.33376 -0.76 2.52 66.8896
44.33376 -0.82 2.52 66.8896
15.15888 -6.1 2.52 18.2648
13.4736 5.84 2.5 15.456
13.4736 5.82 2.5 15.456
15.15888 5.68 2.5 18.2648
15.15888 5.66 2.5 18.2648
15.15888 3.7 2.5 18.2648
15.15888 3.68 2.5 18.2648
15.15888 3.66 2.5 18.2648
17.592840000000002 3.28 2.5 22.3214
17.592840000000002 3.22 2.5 22.3214
17.592840000000002 2.8 2.5 22.3214
17.592840000000002 2.72 2.5 22.3214
21.41664 2.68 2.5 28.6944
17.592840000000002 2.66 2.5 22.3214
21.41664 2.62 2.5 28.6944
21.41664 2.08 2.5 28.6944
44.33376 2.0 2.5 66.8896
21.41664 1.92 2.5 28.6944
21.41664 1.38 2.5 28.6944
28.29636 0.52 2.5 40.1606
28.29636 0.42 2.5 40.1606
28.29636 0.36 2.5 40.1606
28.29636 -0.18 2.5 40.1606
28.29636 -0.4 2.5 40.1606
21.41664 -0.46 2.5 28.6944
124.19999999999999 -0.68 2.5 200.0
44.33376 -0.78 2.5 66.8896
44.33376 -0.8 2.5 66.8896
13.4736 5.84 2.48 15.456
15.15888 5.68 2.48 18.2648
15.15888 5.66 2.48 18.2648
15.15888 3.96 2.48 18.2648
15.15888 3.92 2.48 18.2648
15.15888 3.9 2.48 18.2648
17.592840000000002 3.84 2.48 22.3214
15.15888 3.66 2.48 18.2648
17.592840000000002 3.28 2.48 22.3214
17.592840000000002 3.22 2.48 22.3214
17.592840000000002 3.2 2.48 22.3214
21.41664 2.8 2.48 28.6944
21.41664 2.72 2.48 28.6944
21.41664 2.68 2.48 28.6944
17.592840000000002 2.66 2.48 22.3214
21.41664 2.62 2.48 28.6944
21.41664 2.08 2.48 28.6944
21.41664 1.92 2.48 28.6944
28.29636 0.52 2.48 40.1606
28.29636 0.36 2.48 40.1606
17.592840000000002 0.26 2.48 22.3214
28.29636 -0.2 2.48 40.1606
28.29636 -0.4 2.48 40.1606
21.41664 -0.46 2.48 28.6944
124.19999999999999 -0.7 2.48 200.0
44.33376 -0.8 2.48 66.8896
44.33376 -0.82 2.48 66.8896
13.4736 5.84 2.46 15.456
15.15888 5.68 2.46 18.2648
15.15888 5.66 2.46 18.2648
15.15888 5.54 2.46 18.2648
17.592840000000002 4.14 2.46 22.3214
15.15888 3.88 2.46 18.2648
17.592840000000002 3.28 2.46 22.3214
17.592840000000002 3.22 2.46 22.3214
17.592840000000002 3.2 2.46 22.3214
28.29636 2.74 2.46 40.1606
17.592840000000002 2.66 2.46 22.3214
21.41664 2.62 2.46 28.6944
21.41664 2.24 2.46 28.6944
21.41664 2.08 2.46 28.6944
21.41664 1.92 2.46 28.6944
21.41664 1.32 2.46 28.6944
28.29636 0.9 2.46 40.1606
44.33376 0.58 2.46 66.8896
44.33376 0.52 2.46 66.8896
44.33376 0.46 2.46 66.8896
28.29636 -0.4 2.46 40.1606
44.33376 -0.8 2.46 66.8896
44.33376 -0.82 2.46 66.8896
21.41664 -4.62 2.46 28.6944
13.4736 5.84 2.44 15.456
15.15888 5.68 2.44 18.2648
15.15888 5.66 2.44 18.2648
15.15888 5.54 2.44 18.2648
17.592840000000002 4.16 2.44 22.3214
17.592840000000002 4.14 2.44 22.3214
17.592840000000002 3.28 2.44 22.3214
17.592840000000002 3.22 2.44 22.3214
17.592840000000002 3.2 2.44 22.3214
44.33376 2.84 2.44 66.8896
28.29636 2.74 2.44 40.1606
17.592840000000002 2.66 2.44 22.3214
21.41664 2.62 2.44 28.6944
21.41664 2.24 2.44 28.6944
21.41664 2.08 2.44 28.6944
21.41664 1.92 2.44 28.6944
21.41664 1.62 2.44 28.6944
17.592840000000002 1.6 2.44 22.3214
21.41664 1.42 2.44 28.6944
21.41664 1.32 2.44 28.6944
28.29636 0.9 2.44 40.1606
44.33376 0.56 2.44 66.8896
44.33376 0.5 2.44 66.8896
28.29636 0.0 2.44 40.1606
28.29636 -0.02 2.44 40.1606
44.33376 -0.74 2.44 66.8896
44.33376 -0.76 2.44 66.8896
44.33376 -0.78 2.44 66.8896
44.33376 -0.8 2.44 66.8896
44.33376 -0.82 2.44 66.8896
44.33376 -4.68 2.44 66.8896
13.4736 5.84 2.42 15.456
15.15888 5.68 2.42 18.2648
15.15888 5.66 2.42 18.2648
15.15888 5.54 2.42 18.2648
15.15888 4.94 2.42 18.2648
17.592840000000002 4.16 2.42 22.3214
17.592840000000002 4.14 2.42 22.3214
17.592840000000002 4.12 2.42 22.3214
17.592840000000002 3.28 2.42 22.3214
17.592840000000002 3.2 2.42 22.3214
21.41664 2.24 2.42 28.6944
21.41664 2.08 2.42 28.6944
21.41664 1.92 2.42 28.6944
21.41664 1.66 2.42 28.6944
17.592840000000002 1.6 2.42 22.3214
21.41664 1.42 2.42 28.6944
28.29636 0.9 2.42 40.1606
44.33376 0.56 2.42 66.8896
44.33376 0.54 2.42 66.8896
28.29636 0.42 2.42 40.1606
17.592840000000002 0.28 2.42 22.3214
28.29636 0.0 2.42 40.1606
28.29636 -0.02 2.42 40.1606
44.33376 -0.7 2.42 66.8896
44.33376 -0.76 2.42 66.8896
44.33376 -0.78 2.42 66.8896
44.33376 -0.8 2.42 66.8896
13.4736 5.84 2.4 15.456
15.15888 5.68 2.4 18.2648
15.15888 5.66 2.4 18.2648
15.15888 4.94 2.4 18.2648
15.15888 4.92 2.4 18.2648
17.592840000000002 4.16 2.4 22.3214
17.592840000000002 3.28 2.4 22.3214
17.592840000000002 3.2 2.4 22.3214
21.41664 2.24 2.4 28.6944
21.41664 2.08 2.4 28.6944
21.41664 1.92 2.4 28.6944
21.41664 1.66 2.4 28.6944
21.41664 1.58 2.4 28.6944
44.33376 0.54 2.4 66.8896
28.29636 0.4 2.4 40.1606
28.29636 0.36 2.4 40.1606
21.41664 0.34 2.4 28.6944
15.15888 0.16 2.4 18.2648
28.29636 0.02 2.4 40.1606
124.19999999999999 -0.28 2.4 200.0
44.33376 -0.68 2.4 66.8896
44.33376 -0.7 2.4 66.8896
21.41664 -4.54 2.4 28.6944
44.33376 -4.72 2.4 66.8896
13.4736 5.84 2.38 15.456
15.15888 5.68 2.38 18.2648
15.15888 5.66 2.38 18.2648
15.15888 4.94 2.38 18.2648
15.15888 4.92 2.38 18.2648
17.592840000000002 3.28 2.38 22.3214
17.592840000000002 3.26 2.38 22.3214
17.592840000000002 3.2 2.38 22.3214
21.41664 2.24 2.38 28.6944
21.41664 2.08 2.38 28.6944
21.41664 1.92 2.38 28.6944
21.41664 1.66 2.38 28.6944
21.41664 1.58 2.38 28.6944
124.19999999999999 0.52 2.38 200.0
15.15888 0.16 2.38 18.2648
28.29636 0.02 2.38 40.1606
124.19999999999999 -0.28 2.38 200.0
44.33376 -0.64 2.38 66.8896
44.33376 -0.68 2.38 66.8896
44.33376 -0.7 2.38 66.8896
21.41664 -4.54 2.38 28.6944
44.33376 -4.68 2.38 66.8896
13.4736 5.84 2.36 15.456
15.15888 5.68 2.36 18.2648
15.15888 5.66 2.36 18.2648
15.15888 4.94 2.36 18.2648
17.592840000000002 4.16 2.36 22.3214
17.592840000000002 3.26 2.36 22.3214
21.41664 2.24 2.36 28.6944
21.41664 2.08 2.36 28.6944
21.41664 1.92 2.36 28.6944
21.41664 1.58 2.36 28.6944
124.19999999999999 0.52 2.36 200.0
28.29636 0.36 2.36 40.1606
21.41664 0.26 2.36 28.6944
124.19999999999999 -0.58 2.36 200.0
44.33376 -0.64 2.36 66.8896
44.33376 -0.68 2.36 66.8896
44.33376 -0.7 2.36 66.8896
44.33376 -4.68 2.36 66.8896
13.4736 5.84 2.34 15.456
15.15888 5.68 2.34 18.2648
15.15888 5.66 2.34 18.2648
15.15888 4.94 2.34 18.2648
17.592840000000002 4.2 2.34 22.3214
17.592840000000002 3.26 2.34 22.3214
17.592840000000002 3.2 2.34 22.3214
21.41664 2.24 2.34 28.6944
21.41664 2.08 2.34 28.6944
21.41664 2.06 2.34 28.6944
21.41664 1.92 2.34 28.6944
21.41664 1.58 2.34 28.6944
124.19999999999999 1.52 2.34 200.0
124.19999999999999 0.34 2.34 200.0
21.41664 0.26 2.34 28.6944
21.41664 0.04 2.34 28.6944
124.19999999999999 -0.58 2.34 200.0
44.33376 -0.64 2.34 66.8896
44.33376 -0.68 2.34 66.8896
44.33376 -0.7 2.34 66.8896
8.358006 -0.86 2.34 6.93001
44.33376 -4.68 2.34 66.8896
15.15888 -6.16 2.34 18.2648
13.4736 5.84 2.32 15.456
15.15888 5.68 2.32 18.2648
15.15888 5.66 2.32 18.2648
15.15888 4.94 2.32 18.2648
17.592840000000002 3.26 2.32 22.3214
17.592840000000002 3.2 2.32 22.3214
21.41664 2.54 2.32 28.6944
21.41664 2.52 2.32 28.6944
21.41664 2.06 2.32 28.6944
21.41664 2.02 2.32 28.6944
21.41664 1.32 2.32 28.6944
124.19999999999999 0.32 2.32 200.0
21.41664 0.16 2.32 28.6944
21.41664 0.04 2.32 28.6944
21.41664 0.02 2.32 28.6944
124.19999999999999 -0.58 2.32 200.0
44.33376 -0.68 2.32 66.8896
44.33376 -0.7 2.32 66.8896
44.33376 -4.68 2.32 66.8896
15.15888 -6.16 2.32 18.2648
13.4736 5.84 2.3 15.456
13.4736 5.82 2.3 15.456
15.15888 5.68 2.3 18.2648
15.15888 5.66 2.3 18.2648
15.15888 4.94 2.3 18.2648
15.15888 4.8 2.3 18.2648
17.592840000000002 3.26 2.3 22.3214
17.592840000000002 3.2 2.3 22.3214
21.41664 2.52 2.3 28.6944
21.41664 2.5 2.3 28.6944
21.41664 2.24 2.3 28.6944
21.41664 2.02 2.3 28.6944
21.41664 1.42 2.3 28.6944
21.41664 1.32 2.3 28.6944
44.33376 0.32 2.3 66.8896
21.41664 0.16 2.3 28.6944
21.41664 0.04 2.3 28.6944
13.4736 -0.08 2.3 15.456
44.33376 -0.68 2.3 66.8896
44.33376 -0.7 2.3 66.8896
44.33376 -4.68 2.3 66.8896
13.4736 5.84 2.28 15.456
15.15888 5.68 2.28 18.2648
15.15888 5.66 2.28 18.2648
15.15888 4.94 2.28 18.2648
15.15888 4.8 2.28 18.2648
17.592840000000002 3.26 2.28 22.3214
17.592840000000002 3.2 2.28 22.3214
21.41664 2.52 2.28 28.6944
21.41664 2.5 2.28 28.6944
21.41664 2.24 2.28 28.6944
21.41664 1.42 2.28 28.6944
21.41664 1.36 2.28 28.6944
21.41664 1.32 2.28 28.6944
21.41664 0.16 2.28 28.6944
21.41664 0.04 2.28 28.6944
44.33376 -0.68 2.28 66.8896
44.33376 -0.7 2.28 66.8896
44.33376 -4.68 2.28 66.8896
15.15888 -6.56 2.28 18.2648
13.4736 5.84 2.26 15.456
15.15888 5.68 2.26 18.2648
15.15888 5.66 2.26 18.2648
15.15888 4.94 2.26 18.2648
17.592840000000002 3.26 2.26 22.3214
17.592840000000002 3.2 2.26 22.3214
21.41664 2.24 2.26 28.6944
21.41664 1.32 2.26 28.6944
21.41664 0.16 2.26 28.6944
21.41664 0.12 2.26 28.6944
124.19999999999999 0.1 2.26 200.0
21.41664 0.04 2.26 28.6944
15.15888 -0.18 2.26 18.2648
124.19999999999999 -0.6 2.26 200.0
44.33376 -0.68 2.26 66.8896
44.33376 -0.7 2.26 66.8896
44.33376 -4.68 2.26 66.8896
15.15888 -6.18 2.26 18.2648
15.15888 -6.56 2.26 18.2648
13.4736 5.84 2.24 15.456
13.4736 5.82 2.24 15.456
15.15888 5.68 2.24 18.2648
15.15888 5.66 2.24 18.2648
15.15888 4.94 2.24 18.2648
15.15888 4.82 2.24 18.2648
17.592840000000002 3.26 2.24 22.3214
17.592840000000002 3.2 2.24 22.3214
21.41664 2.24 2.24 28.6944
