VERSION .7
FIELDS x y z rgb
SIZE 4 4 4 4
TYPE F F F F
COUNT 1 1 1 1
WIDTH 1360
HEIGHT 1
VIEWPOINT 0 0 0 1 0 0 0
POINTS 1360
DATA ascii
28.29636 3.44 0.06 5000040.1606
17.592840000000002 3.36 0.06 5000022.3214
17.592840000000002 2.92 0.06 5000022.3214
17.592840000000002 2.8 0.06 5000022.3214
21.41664 2.14 0.06 5000028.6944
28.29636 1.02 0.06 5000040.1606
17.592840000000002 0.92 0.06 5000022.3214
28.29636 0.82 0.06 5000040.1606
28.29636 0.32 0.06 5000040.1606
44.33376 -0.22 0.06 5000066.8896
124.19999999999999 -0.5 0.06 5000200.0
124.19999999999999 -0.52 0.06 5000200.0
44.33376 -0.56 0.06 5000066.8896
44.33376 -0.58 0.06 5000066.8896
44.33376 -0.66 0.06 5000066.8896
44.33376 -0.7 0.06 5000066.8896
28.29636 -0.74 0.06 5000040.1606
28.29636 -0.76 0.06 5000040.1606
13.4736 -0.94 0.06 5000015.456
13.4736 -0.98 0.06 5000015.456
12.23748 -1.14 0.06 5000013.3958
12.23748 -1.16 0.06 5000013.3958
124.19999999999999 -1.96 0.06 5000200.0
124.19999999999999 -2.02 0.06 5000200.0
124.19999999999999 -2.12 0.06 5000200.0
44.33376 -2.18 0.06 5000066.8896
28.29636 -2.24 0.06 5000040.1606
21.41664 -2.3 0.06 5000028.6944
28.29636 -2.58 0.06 5000040.1606
28.29636 -2.6 0.06 5000040.1606
44.33376 -3.26 0.06 5000066.8896
44.33376 -3.28 0.06 5000066.8896
44.33376 -3.48 0.06 5000066.8896
44.33376 -3.5 0.06 5000066.8896
28.29636 -3.56 0.06 5000040.1606
28.29636 -3.6 0.06 5000040.1606
21.41664 -4.84 0.06 5000028.6944
21.41664 -4.86 0.06 5000028.6944
15.15888 -6.2 0.06 5000018.2648
15.15888 4.82 0.04 5000018.2648
17.592840000000002 3.52 0.04 5000022.3214
17.592840000000002 2.94 0.04 5000022.3214
17.592840000000002 2.92 0.04 5000022.3214
17.592840000000002 2.82 0.04 5000022.3214
17.592840000000002 2.8 0.04 5000022.3214
21.41664 2.14 0.04 5000028.6944
28.29636 1.56 0.04 5000040.1606
28.29636 1.54 0.04 5000040.1606
28.29636 1.02 0.04 5000040.1606
28.29636 0.32 0.04 5000040.1606
28.29636 -0.1 0.04 5000040.1606
124.19999999999999 -0.5 0.04 5000200.0
124.19999999999999 -0.52 0.04 5000200.0
44.33376 -0.56 0.04 5000066.8896
44.33376 -0.58 0.04 5000066.8896
44.33376 -0.64 0.04 5000066.8896
44.33376 -0.66 0.04 5000066.8896
44.33376 -0.7 0.04 5000066.8896
28.29636 -0.74 0.04 5000040.1606
28.29636 -0.76 0.04 5000040.1606
15.15888 -0.94 0.04 5000018.2648
15.15888 -0.98 0.04 5000018.2648
12.23748 -1.14 0.04 5000013.3958
12.23748 -1.16 0.04 5000013.3958
124.19999999999999 -1.96 0.04 5000200.0
124.19999999999999 -2.12 0.04 5000200.0
44.33376 -2.18 0.04 5000066.8896
28.29636 -2.2 0.04 5000040.1606
28.29636 -2.22 0.04 5000040.1606
28.29636 -2.24 0.04 5000040.1606
124.19999999999999 -2.42 0.04 5000200.0
28.29636 -2.6 0.04 5000040.1606
44.33376 -3.26 0.04 5000066.8896
124.19999999999999 -3.34 0.04 5000200.0
124.19999999999999 -3.36 0.04 5000200.0
44.33376 -3.48 0.04 5000066.8896
44.33376 -3.5 0.04 5000066.8896
21.41664 -3.56 0.04 5000028.6944
13.4736 -3.82 0.04 5000015.456
44.33376 -4.42 0.04 5000066.8896
21.41664 -4.84 0.04 5000028.6944
21.41664 -4.86 0.04 5000028.6944
21.41664 -4.9 0.04 5000028.6944
15.15888 -6.2 0.04 5000018.2648
15.15888 5.3 0.02 5000018.2648
17.592840000000002 4.2 0.02 5000022.3214
17.592840000000002 3.74 0.02 5000022.3214
17.592840000000002 3.72 0.02 5000022.3214
17.592840000000002 3.32 0.02 5000022.3214
17.592840000000002 3.28 0.02 5000022.3214
17.592840000000002 2.94 0.02 5000022.3214
17.592840000000002 2.92 0.02 5000022.3214
17.592840000000002 2.82 0.02 5000022.3214
17.592840000000002 2.8 0.02 5000022.3214
21.41664 2.26 0.02 5000028.6944
21.41664 2.24 0.02 5000028.6944
21.41664 1.08 0.02 5000028.6944
28.29636 1.02 0.02 5000040.1606
124.19999999999999 -0.5 0.02 5000200.0
124.19999999999999 -0.52 0.02 5000200.0
44.33376 -0.56 0.02 5000066.8896
44.33376 -0.58 0.02 5000066.8896
44.33376 -0.6 0.02 5000066.8896
44.33376 -0.64 0.02 5000066.8896
44.33376 -0.66 0.02 5000066.8896
44.33376 -0.7 0.02 5000066.8896
28.29636 -0.74 0.02 5000040.1606
28.29636 -0.76 0.02 5000040.1606
15.15888 -0.94 0.02 5000018.2648
15.15888 -0.98 0.02 5000018.2648
44.33376 -1.14 0.02 5000066.8896
44.33376 -1.16 0.02 5000066.8896
124.19999999999999 -1.42 0.02 5000200.0
124.19999999999999 -1.96 0.02 5000200.0
124.19999999999999 -2.0 0.02 5000200.0
124.19999999999999 -2.12 0.02 5000200.0
28.29636 -2.24 0.02 5000040.1606
28.29636 -2.26 0.02 5000040.1606
44.33376 -2.5 0.02 5000066.8896
28.29636 -2.6 0.02 5000040.1606
44.33376 -3.26 0.02 5000066.8896
124.19999999999999 -3.34 0.02 5000200.0
124.19999999999999 -3.36 0.02 5000200.0
44.33376 -3.48 0.02 5000066.8896
44.33376 -3.5 0.02 5000066.8896
28.29636 -3.56 0.02 5000040.1606
28.29636 -3.6 0.02 5000040.1606
21.41664 -3.64 0.02 5000028.6944
28.29636 -4.76 0.02 5000040.1606
21.41664 -4.84 0.02 5000028.6944
21.41664 -4.9 0.02 5000028.6944
15.15888 -6.2 0.02 5000018.2648
17.592840000000002 4.16 0.0 5000022.3214
17.592840000000002 3.32 0.0 5000022.3214
17.592840000000002 2.94 0.0 5000022.3214
17.592840000000002 2.92 0.0 5000022.3214
17.592840000000002 2.82 0.0 5000022.3214
17.592840000000002 2.8 0.0 5000022.3214
17.592840000000002 2.34 0.0 5000022.3214
21.41664 2.28 0.0 5000028.6944
21.41664 2.26 0.0 5000028.6944
21.41664 2.24 0.0 5000028.6944
28.29636 1.02 0.0 5000040.1606
28.29636 0.74 0.0 5000040.1606
28.29636 0.1 0.0 5000040.1606
28.29636 0.08 0.0 5000040.1606
44.33376 -0.2 0.0 5000066.8896
124.19999999999999 -0.5 0.0 5000200.0
44.33376 -0.58 0.0 5000066.8896
44.33376 -0.66 0.0 5000066.8896
28.29636 -0.76 0.0 5000040.1606
15.15888 -0.94 0.0 5000018.2648
44.33376 -1.12 0.0 5000066.8896
44.33376 -1.14 0.0 5000066.8896
124.19999999999999 -1.42 0.0 5000200.0
124.19999999999999 -1.46 0.0 5000200.0
124.19999999999999 -1.96 0.0 5000200.0
124.19999999999999 -2.0 0.0 5000200.0
124.19999999999999 -2.08 0.0 5000200.0
124.19999999999999 -2.12 0.0 5000200.0
44.33376 -2.14 0.0 5000066.8896
44.33376 -2.18 0.0 5000066.8896
28.29636 -2.24 0.0 5000040.1606
28.29636 -2.26 0.0 5000040.1606
28.29636 -2.6 0.0 5000040.1606
28.29636 -3.6 0.0 5000040.1606
124.19999999999999 -3.64 0.0 5000200.0
28.29636 -4.58 0.0 5000040.1606
28.29636 -4.76 0.0 5000040.1606
21.41664 -4.84 0.0 5000028.6944
15.15888 -6.2 0.0 5000018.2648
17.592840000000002 4.1 -0.02 5000022.3214
17.592840000000002 2.94 -0.02 5000022.3214
17.592840000000002 2.82 -0.02 5000022.3214
17.592840000000002 2.36 -0.02 5000022.3214
17.592840000000002 2.34 -0.02 5000022.3214
21.41664 2.22 -0.02 5000028.6944
21.41664 1.12 -0.02 5000028.6944
28.29636 0.74 -0.02 5000040.1606
28.29636 0.1 -0.02 5000040.1606
124.19999999999999 -0.94 -0.02 5000200.0
44.33376 -1.12 -0.02 5000066.8896
44.33376 -1.14 -0.02 5000066.8896
44.33376 -1.28 -0.02 5000066.8896
124.19999999999999 -1.42 -0.02 5000200.0
28.29636 -1.54 -0.02 5000040.1606
124.19999999999999 -1.68 -0.02 5000200.0
124.19999999999999 -1.76 -0.02 5000200.0
124.19999999999999 -1.9 -0.02 5000200.0
124.19999999999999 -1.96 -0.02 5000200.0
124.19999999999999 -2.08 -0.02 5000200.0
124.19999999999999 -2.12 -0.02 5000200.0
44.33376 -2.14 -0.02 5000066.8896
44.33376 -2.16 -0.02 5000066.8896
44.33376 -2.18 -0.02 5000066.8896
28.29636 -2.24 -0.02 5000040.1606
28.29636 -2.6 -0.02 5000040.1606
9.941628000000001 -2.76 -0.02 5000009.56938
28.29636 -4.4 -0.02 5000040.1606
28.29636 -4.76 -0.02 5000040.1606
21.41664 -4.84 -0.02 5000028.6944
15.15888 -6.2 -0.02 5000018.2648
17.592840000000002 -6.58 -0.02 5000022.3214
15.15888 4.86 -0.04 5000018.2648
15.15888 4.84 -0.04 5000018.2648
17.592840000000002 3.78 -0.04 5000022.3214
17.592840000000002 2.82 -0.04 5000022.3214
17.592840000000002 2.36 -0.04 5000022.3214
21.41664 2.2 -0.04 5000028.6944
21.41664 1.12 -0.04 5000028.6944
21.41664 0.68 -0.04 5000028.6944
124.19999999999999 -0.94 -0.04 5000200.0
44.33376 -1.12 -0.04 5000066.8896
44.33376 -1.14 -0.04 5000066.8896
44.33376 -1.28 -0.04 5000066.8896
124.19999999999999 -1.4 -0.04 5000200.0
124.19999999999999 -1.42 -0.04 5000200.0
124.19999999999999 -1.46 -0.04 5000200.0
28.29636 -1.54 -0.04 5000040.1606
28.29636 -1.56 -0.04 5000040.1606
17.592840000000002 -1.72 -0.04 5000022.3214
124.19999999999999 -1.76 -0.04 5000200.0
124.19999999999999 -1.9 -0.04 5000200.0
124.19999999999999 -1.96 -0.04 5000200.0
21.41664 -2.3 -0.04 5000028.6944
28.29636 -2.6 -0.04 5000040.1606
28.29636 -4.4 -0.04 5000040.1606
44.33376 -4.5 -0.04 5000066.8896
28.29636 -4.76 -0.04 5000040.1606
21.41664 -4.84 -0.04 5000028.6944
15.15888 -6.2 -0.04 5000018.2648
15.15888 4.86 -0.06 5000018.2648
15.15888 4.84 -0.06 5000018.2648
17.592840000000002 4.12 -0.06 5000022.3214
17.592840000000002 4.1 -0.06 5000022.3214
17.592840000000002 3.78 -0.06 5000022.3214
17.592840000000002 3.76 -0.06 5000022.3214
21.41664 3.2 -0.06 5000028.6944
17.592840000000002 2.96 -0.06 5000022.3214
17.592840000000002 2.82 -0.06 5000022.3214
21.41664 1.76 -0.06 5000028.6944
21.41664 1.74 -0.06 5000028.6944
21.41664 1.72 -0.06 5000028.6944
21.41664 1.12 -0.06 5000028.6944
21.41664 1.08 -0.06 5000028.6944
13.4736 0.94 -0.06 5000015.456
21.41664 0.88 -0.06 5000028.6944
21.41664 0.84 -0.06 5000028.6944
21.41664 0.68 -0.06 5000028.6944
28.29636 -0.16 -0.06 5000040.1606
124.19999999999999 -0.94 -0.06 5000200.0
44.33376 -1.0 -0.06 5000066.8896
44.33376 -1.12 -0.06 5000066.8896
44.33376 -1.14 -0.06 5000066.8896
44.33376 -1.26 -0.06 5000066.8896
44.33376 -1.28 -0.06 5000066.8896
124.19999999999999 -1.4 -0.06 5000200.0
124.19999999999999 -1.42 -0.06 5000200.0
124.19999999999999 -1.46 -0.06 5000200.0
28.29636 -1.72 -0.06 5000040.1606
124.19999999999999 -1.96 -0.06 5000200.0
28.29636 -2.6 -0.06 5000040.1606
28.29636 -4.4 -0.06 5000040.1606
44.33376 -4.5 -0.06 5000066.8896
21.41664 -4.86 -0.06 5000028.6944
15.15888 -6.2 -0.06 5000018.2648
15.15888 4.84 -0.08 5000018.2648
17.592840000000002 4.14 -0.08 5000022.3214
17.592840000000002 4.12 -0.08 5000022.3214
17.592840000000002 4.1 -0.08 5000022.3214
17.592840000000002 3.76 -0.08 5000022.3214
21.41664 3.22 -0.08 5000028.6944
21.41664 3.2 -0.08 5000028.6944
17.592840000000002 2.96 -0.08 5000022.3214
17.592840000000002 2.82 -0.08 5000022.3214
17.592840000000002 2.8 -0.08 5000022.3214
17.592840000000002 2.22 -0.08 5000022.3214
21.41664 1.94 -0.08 5000028.6944
21.41664 1.8 -0.08 5000028.6944
21.41664 1.76 -0.08 5000028.6944
21.41664 1.74 -0.08 5000028.6944
21.41664 1.12 -0.08 5000028.6944
21.41664 0.88 -0.08 5000028.6944
44.33376 -1.0 -0.08 5000066.8896
44.33376 -1.12 -0.08 5000066.8896
44.33376 -1.14 -0.08 5000066.8896
28.29636 -1.26 -0.08 5000040.1606
124.19999999999999 -1.96 -0.08 5000200.0
124.19999999999999 -2.0 -0.08 5000200.0
28.29636 -2.6 -0.08 5000040.1606
44.33376 -3.26 -0.08 5000066.8896
44.33376 -3.92 -0.08 5000066.8896
44.33376 -3.94 -0.08 5000066.8896
28.29636 -4.4 -0.08 5000040.1606
21.41664 -4.86 -0.08 5000028.6944
15.15888 -6.2 -0.08 5000018.2648
21.41664 3.2 -0.1 5000028.6944
17.592840000000002 2.96 -0.1 5000022.3214
17.592840000000002 2.82 -0.1 5000022.3214
17.592840000000002 2.8 -0.1 5000022.3214
17.592840000000002 2.22 -0.1 5000022.3214
21.41664 1.94 -0.1 5000028.6944
21.41664 1.76 -0.1 5000028.6944
21.41664 1.12 -0.1 5000028.6944
28.29636 0.66 -0.1 5000040.1606
124.19999999999999 -1.12 -0.1 5000200.0
124.19999999999999 -1.14 -0.1 5000200.0
28.29636 -1.26 -0.1 5000040.1606
124.19999999999999 -1.54 -0.1 5000200.0
28.29636 -1.68 -0.1 5000040.1606
124.19999999999999 -2.0 -0.1 5000200.0
124.19999999999999 -2.3 -0.1 5000200.0
28.29636 -2.6 -0.1 5000040.1606
28.29636 -4.4 -0.1 5000040.1606
44.33376 -4.5 -0.1 5000066.8896
21.41664 -4.86 -0.1 5000028.6944
15.15888 -6.2 -0.1 5000018.2648
17.592840000000002 -6.58 -0.1 5000022.3214
17.592840000000002 2.96 -0.12 5000022.3214
17.592840000000002 2.82 -0.12 5000022.3214
17.592840000000002 2.8 -0.12 5000022.3214
17.592840000000002 2.22 -0.12 5000022.3214
17.592840000000002 2.2 -0.12 5000022.3214
21.41664 1.94 -0.12 5000028.6944
13.4736 1.84 -0.12 5000015.456
21.41664 1.78 -0.12 5000028.6944
21.41664 1.62 -0.12 5000028.6944
21.41664 1.12 -0.12 5000028.6944
28.29636 -0.22 -0.12 5000040.1606
124.19999999999999 -1.12 -0.12 5000200.0
124.19999999999999 -1.14 -0.12 5000200.0
28.29636 -1.26 -0.12 5000040.1606
28.29636 -1.66 -0.12 5000040.1606
28.29636 -1.68 -0.12 5000040.1606
10.54584 -1.74 -0.12 5000010.5764
124.19999999999999 -1.88 -0.12 5000200.0
124.19999999999999 -1.9 -0.12 5000200.0
28.29636 -2.86 -0.12 5000040.1606
28.29636 -4.4 -0.12 5000040.1606
44.33376 -4.5 -0.12 5000066.8896
21.41664 -4.62 -0.12 5000028.6944
21.41664 -4.86 -0.12 5000028.6944
17.592840000000002 -6.58 -0.12 5000022.3214
15.15888 5.6 -0.14 5000018.2648
15.15888 5.58 -0.14 5000018.2648
15.15888 5.56 -0.14 5000018.2648
15.15888 5.54 -0.14 5000018.2648
13.4736 4.94 -0.14 5000015.456
17.592840000000002 2.96 -0.14 5000022.3214
17.592840000000002 2.82 -0.14 5000022.3214
17.592840000000002 2.8 -0.14 5000022.3214
21.41664 2.22 -0.14 5000028.6944
17.592840000000002 2.2 -0.14 5000022.3214
21.41664 1.96 -0.14 5000028.6944
21.41664 1.94 -0.14 5000028.6944
21.41664 1.82 -0.14 5000028.6944
21.41664 1.78 -0.14 5000028.6944
21.41664 1.76 -0.14 5000028.6944
21.41664 1.62 -0.14 5000028.6944
21.41664 1.12 -0.14 5000028.6944
28.29636 0.7 -0.14 5000040.1606
15.15888 0.54 -0.14 5000018.2648
44.33376 0.16 -0.14 5000066.8896
28.29636 -0.24 -0.14 5000040.1606
124.19999999999999 -1.04 -0.14 5000200.0
124.19999999999999 -1.12 -0.14 5000200.0
124.19999999999999 -1.14 -0.14 5000200.0
28.29636 -1.26 -0.14 5000040.1606
28.29636 -1.68 -0.14 5000040.1606
124.19999999999999 -2.34 -0.14 5000200.0
28.29636 -2.82 -0.14 5000040.1606
28.29636 -4.16 -0.14 5000040.1606
44.33376 -4.5 -0.14 5000066.8896
44.33376 -4.54 -0.14 5000066.8896
21.41664 -4.86 -0.14 5000028.6944
17.592840000000002 -6.58 -0.14 5000022.3214
15.15888 5.6 -0.16 5000018.2648
15.15888 5.58 -0.16 5000018.2648
15.15888 5.56 -0.16 5000018.2648
15.15888 5.54 -0.16 5000018.2648
15.15888 5.52 -0.16 5000018.2648
13.4736 4.94 -0.16 5000015.456
13.4736 4.84 -0.16 5000015.456
13.4736 4.72 -0.16 5000015.456
13.4736 4.66 -0.16 5000015.456
17.592840000000002 2.96 -0.16 5000022.3214
17.592840000000002 2.82 -0.16 5000022.3214
17.592840000000002 2.8 -0.16 5000022.3214
17.592840000000002 2.26 -0.16 5000022.3214
21.41664 2.22 -0.16 5000028.6944
21.41664 2.2 -0.16 5000028.6944
21.41664 1.96 -0.16 5000028.6944
21.41664 1.94 -0.16 5000028.6944
21.41664 1.78 -0.16 5000028.6944
21.41664 1.76 -0.16 5000028.6944
21.41664 1.66 -0.16 5000028.6944
21.41664 1.54 -0.16 5000028.6944
21.41664 1.52 -0.16 5000028.6944
21.41664 1.26 -0.16 5000028.6944
21.41664 1.12 -0.16 5000028.6944
28.29636 0.7 -0.16 5000040.1606
28.29636 0.68 -0.16 5000040.1606
44.33376 0.16 -0.16 5000066.8896
28.29636 -0.12 -0.16 5000040.1606
28.29636 -0.14 -0.16 5000040.1606
28.29636 -0.22 -0.16 5000040.1606
124.19999999999999 -0.96 -0.16 5000200.0
124.19999999999999 -1.04 -0.16 5000200.0
124.19999999999999 -1.12 -0.16 5000200.0
124.19999999999999 -1.14 -0.16 5000200.0
44.33376 -1.2 -0.16 5000066.8896
28.29636 -1.26 -0.16 5000040.1606
17.592840000000002 -1.4 -0.16 5000022.3214
17.592840000000002 -1.42 -0.16 5000022.3214
15.15888 -1.46 -0.16 5000018.2648
15.15888 -1.48 -0.16 5000018.2648
44.33376 -1.6 -0.16 5000066.8896
124.19999999999999 -2.26 -0.16 5000200.0
124.19999999999999 -2.32 -0.16 5000200.0
124.19999999999999 -2.34 -0.16 5000200.0
28.29636 -2.8 -0.16 5000040.1606
28.29636 -2.82 -0.16 5000040.1606
44.33376 -4.1 -0.16 5000066.8896
28.29636 -4.14 -0.16 5000040.1606
44.33376 -4.5 -0.16 5000066.8896
28.29636 -4.8 -0.16 5000040.1606
21.41664 -4.86 -0.16 5000028.6944
13.4736 4.94 -0.18 5000015.456
13.4736 4.82 -0.18 5000015.456
13.4736 4.62 -0.18 5000015.456
13.4736 4.48 -0.18 5000015.456
17.592840000000002 2.96 -0.18 5000022.3214
17.592840000000002 2.82 -0.18 5000022.3214
21.41664 2.22 -0.18 5000028.6944
21.41664 2.2 -0.18 5000028.6944
21.41664 1.96 -0.18 5000028.6944
21.41664 1.94 -0.18 5000028.6944
21.41664 1.76 -0.18 5000028.6944
21.41664 1.52 -0.18 5000028.6944
21.41664 1.12 -0.18 5000028.6944
28.29636 0.74 -0.18 5000040.1606
28.29636 0.72 -0.18 5000040.1606
28.29636 0.7 -0.18 5000040.1606
28.29636 0.12 -0.18 5000040.1606
124.19999999999999 -0.96 -0.18 5000200.0
124.19999999999999 -1.04 -0.18 5000200.0
124.19999999999999 -1.12 -0.18 5000200.0
124.19999999999999 -1.14 -0.18 5000200.0
44.33376 -1.2 -0.18 5000066.8896
17.592840000000002 -1.42 -0.18 5000022.3214
15.15888 -1.46 -0.18 5000018.2648
15.15888 -1.48 -0.18 5000018.2648
28.29636 -1.68 -0.18 5000040.1606
28.29636 -2.8 -0.18 5000040.1606
124.19999999999999 -3.22 -0.18 5000200.0
124.19999999999999 -3.66 -0.18 5000200.0
124.19999999999999 -3.7 -0.18 5000200.0
44.33376 -4.1 -0.18 5000066.8896
28.29636 -4.16 -0.18 5000040.1606
28.29636 -4.18 -0.18 5000040.1606
44.33376 -4.5 -0.18 5000066.8896
21.41664 -4.62 -0.18 5000028.6944
21.41664 -4.86 -0.18 5000028.6944
13.4736 5.0 -0.2 5000015.456
13.4736 4.82 -0.2 5000015.456
13.4736 4.46 -0.2 5000015.456
13.4736 4.44 -0.2 5000015.456
13.4736 4.42 -0.2 5000015.456
17.592840000000002 2.96 -0.2 5000022.3214
17.592840000000002 2.84 -0.2 5000022.3214
17.592840000000002 2.82 -0.2 5000022.3214
21.41664 2.2 -0.2 5000028.6944
21.41664 1.94 -0.2 5000028.6944
21.41664 1.12 -0.2 5000028.6944
28.29636 0.74 -0.2 5000040.1606
28.29636 0.12 -0.2 5000040.1606
21.41664 0.06 -0.2 5000028.6944
15.15888 -0.58 -0.2 5000018.2648
124.19999999999999 -0.96 -0.2 5000200.0
124.19999999999999 -1.04 -0.2 5000200.0
124.19999999999999 -1.12 -0.2 5000200.0
124.19999999999999 -1.14 -0.2 5000200.0
44.33376 -1.2 -0.2 5000066.8896
124.19999999999999 -2.24 -0.2 5000200.0
28.29636 -2.58 -0.2 5000040.1606
44.33376 -4.1 -0.2 5000066.8896
28.29636 -4.16 -0.2 5000040.1606
44.33376 -4.5 -0.2 5000066.8896
28.29636 -4.78 -0.2 5000040.1606
21.41664 -4.86 -0.2 5000028.6944
13.4736 5.3 -0.22 5000015.456
13.4736 5.12 -0.22 5000015.456
13.4736 4.74 -0.22 5000015.456
13.4736 4.72 -0.22 5000015.456
13.4736 4.66 -0.22 5000015.456
13.4736 4.46 -0.22 5000015.456
13.4736 4.44 -0.22 5000015.456
13.4736 4.42 -0.22 5000015.456
17.592840000000002 2.98 -0.22 5000022.3214
17.592840000000002 2.96 -0.22 5000022.3214
17.592840000000002 2.84 -0.22 5000022.3214
17.592840000000002 2.82 -0.22 5000022.3214
21.41664 2.2 -0.22 5000028.6944
21.41664 1.94 -0.22 5000028.6944
21.41664 1.9 -0.22 5000028.6944
21.41664 1.12 -0.22 5000028.6944
28.29636 0.12 -0.22 5000040.1606
124.19999999999999 -0.22 -0.22 5000200.0
21.41664 -0.42 -0.22 5000028.6944
124.19999999999999 -0.96 -0.22 5000200.0
124.19999999999999 -1.04 -0.22 5000200.0
124.19999999999999 -1.06 -0.22 5000200.0
124.19999999999999 -1.12 -0.22 5000200.0
124.19999999999999 -1.14 -0.22 5000200.0
44.33376 -1.2 -0.22 5000066.8896
28.29636 -1.68 -0.22 5000040.1606
124.19999999999999 -2.24 -0.22 5000200.0
28.29636 -2.6 -0.22 5000040.1606
44.33376 -3.28 -0.22 5000066.8896
44.33376 -3.88 -0.22 5000066.8896
44.33376 -4.1 -0.22 5000066.8896
28.29636 -4.16 -0.22 5000040.1606
44.33376 -4.5 -0.22 5000066.8896
28.29636 -4.58 -0.22 5000040.1606
28.29636 -4.62 -0.22 5000040.1606
28.29636 -4.78 -0.22 5000040.1606
21.41664 -4.86 -0.22 5000028.6944
17.592840000000002 -6.58 -0.22 5000022.3214
13.4736 5.12 -0.24 5000015.456
13.4736 4.94 -0.24 5000015.456
13.4736 4.68 -0.24 5000015.456
13.4736 4.46 -0.24 5000015.456
13.4736 4.42 -0.24 5000015.456
17.592840000000002 2.98 -0.24 5000022.3214
17.592840000000002 2.96 -0.24 5000022.3214
17.592840000000002 2.84 -0.24 5000022.3214
17.592840000000002 2.82 -0.24 5000022.3214
21.41664 2.2 -0.24 5000028.6944
21.41664 1.94 -0.24 5000028.6944
21.41664 1.9 -0.24 5000028.6944
124.19999999999999 1.82 -0.24 5000200.0
21.41664 1.6 -0.24 5000028.6944
21.41664 1.56 -0.24 5000028.6944
21.41664 1.54 -0.24 5000028.6944
21.41664 1.52 -0.24 5000028.6944
21.41664 1.22 -0.24 5000028.6944
21.41664 1.12 -0.24 5000028.6944
28.29636 0.78 -0.24 5000040.1606
28.29636 0.76 -0.24 5000040.1606
28.29636 0.14 -0.24 5000040.1606
124.19999999999999 -0.22 -0.24 5000200.0
124.19999999999999 -0.24 -0.24 5000200.0
124.19999999999999 -0.28 -0.24 5000200.0
28.29636 -0.34 -0.24 5000040.1606
21.41664 -0.4 -0.24 5000028.6944
21.41664 -0.42 -0.24 5000028.6944
15.15888 -0.54 -0.24 5000018.2648
10.54584 -0.78 -0.24 5000010.5764
124.19999999999999 -0.96 -0.24 5000200.0
124.19999999999999 -1.12 -0.24 5000200.0
124.19999999999999 -1.14 -0.24 5000200.0
44.33376 -1.2 -0.24 5000066.8896
17.592840000000002 -1.4 -0.24 5000022.3214
124.19999999999999 -1.52 -0.24 5000200.0
124.19999999999999 -1.88 -0.24 5000200.0
124.19999999999999 -2.18 -0.24 5000200.0
28.29636 -2.6 -0.24 5000040.1606
124.19999999999999 -3.22 -0.24 5000200.0
44.33376 -3.28 -0.24 5000066.8896
44.33376 -3.3 -0.24 5000066.8896
21.41664 -3.34 -0.24 5000028.6944
44.33376 -3.68 -0.24 5000066.8896
44.33376 -4.1 -0.24 5000066.8896
28.29636 -4.16 -0.24 5000040.1606
44.33376 -4.5 -0.24 5000066.8896
28.29636 -4.58 -0.24 5000040.1606
21.41664 -4.86 -0.24 5000028.6944
17.592840000000002 -6.58 -0.24 5000022.3214
12.23748 5.44 -0.26 5000013.3958
12.23748 5.4 -0.26 5000013.3958
13.4736 4.94 -0.26 5000015.456
13.4736 4.46 -0.26 5000015.456
17.592840000000002 2.98 -0.26 5000022.3214
17.592840000000002 2.84 -0.26 5000022.3214
17.592840000000002 2.82 -0.26 5000022.3214
15.15888 2.26 -0.26 5000018.2648
21.41664 2.2 -0.26 5000028.6944
21.41664 1.94 -0.26 5000028.6944
21.41664 1.54 -0.26 5000028.6944
21.41664 1.52 -0.26 5000028.6944
21.41664 1.22 -0.26 5000028.6944
21.41664 1.12 -0.26 5000028.6944
21.41664 1.06 -0.26 5000028.6944
28.29636 0.76 -0.26 5000040.1606
124.19999999999999 -0.24 -0.26 5000200.0
28.29636 -0.34 -0.26 5000040.1606
28.29636 -0.36 -0.26 5000040.1606
124.19999999999999 -1.12 -0.26 5000200.0
44.33376 -1.2 -0.26 5000066.8896
7.8540779999999994 -1.26 -0.26 5000006.09013
28.29636 -1.34 -0.26 5000040.1606
124.19999999999999 -1.52 -0.26 5000200.0
124.19999999999999 -2.16 -0.26 5000200.0
124.19999999999999 -2.18 -0.26 5000200.0
44.33376 -2.52 -0.26 5000066.8896
28.29636 -2.58 -0.26 5000040.1606
44.33376 -3.28 -0.26 5000066.8896
21.41664 -3.34 -0.26 5000028.6944
44.33376 -3.68 -0.26 5000066.8896
44.33376 -4.1 -0.26 5000066.8896
44.33376 -4.5 -0.26 5000066.8896
28.29636 -4.58 -0.26 5000040.1606
28.29636 -4.78 -0.26 5000040.1606
21.41664 -4.86 -0.26 5000028.6944
12.23748 5.44 -0.28 5000013.3958
12.23748 5.42 -0.28 5000013.3958
12.23748 5.38 -0.28 5000013.3958
13.4736 4.68 -0.28 5000015.456
13.4736 4.38 -0.28 5000015.456
17.592840000000002 2.98 -0.28 5000022.3214
17.592840000000002 2.84 -0.28 5000022.3214
17.592840000000002 2.82 -0.28 5000022.3214
17.592840000000002 2.32 -0.28 5000022.3214
21.41664 2.2 -0.28 5000028.6944
21.41664 1.94 -0.28 5000028.6944
21.41664 1.54 -0.28 5000028.6944
21.41664 1.12 -0.28 5000028.6944
21.41664 1.06 -0.28 5000028.6944
28.29636 0.96 -0.28 5000040.1606
28.29636 0.38 -0.28 5000040.1606
28.29636 -0.36 -0.28 5000040.1606
9.941628000000001 -0.84 -0.28 5000009.56938
44.33376 -1.48 -0.28 5000066.8896
124.19999999999999 -1.58 -0.28 5000200.0
28.29636 -1.7 -0.28 5000040.1606
21.41664 -1.8 -0.28 5000028.6944
44.33376 -1.94 -0.28 5000066.8896
124.19999999999999 -2.08 -0.28 5000200.0
44.33376 -2.52 -0.28 5000066.8896
28.29636 -2.58 -0.28 5000040.1606
28.29636 -2.6 -0.28 5000040.1606
44.33376 -3.26 -0.28 5000066.8896
44.33376 -3.28 -0.28 5000066.8896
21.41664 -3.34 -0.28 5000028.6944
124.19999999999999 -3.66 -0.28 5000200.0
124.19999999999999 -3.68 -0.28 5000200.0
44.33376 -3.74 -0.28 5000066.8896
44.33376 -3.82 -0.28 5000066.8896
44.33376 -3.86 -0.28 5000066.8896
44.33376 -3.88 -0.28 5000066.8896
44.33376 -3.9 -0.28 5000066.8896
124.19999999999999 -4.02 -0.28 5000200.0
44.33376 -4.1 -0.28 5000066.8896
28.29636 -4.18 -0.28 5000040.1606
44.33376 -4.5 -0.28 5000066.8896
28.29636 -4.58 -0.28 5000040.1606
28.29636 -4.78 -0.28 5000040.1606
21.41664 -4.86 -0.28 5000028.6944
12.23748 5.38 -0.3 5000013.3958
13.4736 5.08 -0.3 5000015.456
13.4736 5.06 -0.3 5000015.456
13.4736 5.02 -0.3 5000015.456
13.4736 4.7 -0.3 5000015.456
13.4736 4.68 -0.3 5000015.456
13.4736 4.66 -0.3 5000015.456
13.4736 4.64 -0.3 5000015.456
13.4736 4.62 -0.3 5000015.456
13.4736 4.38 -0.3 5000015.456
13.4736 4.36 -0.3 5000015.456
17.592840000000002 2.98 -0.3 5000022.3214
17.592840000000002 2.84 -0.3 5000022.3214
17.592840000000002 2.82 -0.3 5000022.3214
17.592840000000002 2.34 -0.3 5000022.3214
21.41664 2.2 -0.3 5000028.6944
21.41664 1.94 -0.3 5000028.6944
21.41664 1.12 -0.3 5000028.6944
28.29636 0.74 -0.3 5000040.1606
28.29636 -0.36 -0.3 5000040.1606
9.941628000000001 -0.84 -0.3 5000009.56938
28.29636 -1.34 -0.3 5000040.1606
28.29636 -1.5 -0.3 5000040.1606
124.19999999999999 -2.06 -0.3 5000200.0
124.19999999999999 -2.08 -0.3 5000200.0
28.29636 -2.6 -0.3 5000040.1606
7.2919860000000005 -2.92 -0.3 5000005.15331
21.41664 -3.34 -0.3 5000028.6944
124.19999999999999 -3.66 -0.3 5000200.0
44.33376 -3.74 -0.3 5000066.8896
44.33376 -3.86 -0.3 5000066.8896
124.19999999999999 -3.98 -0.3 5000200.0
28.29636 -4.16 -0.3 5000040.1606
28.29636 -4.18 -0.3 5000040.1606
28.29636 -4.78 -0.3 5000040.1606
21.41664 -4.86 -0.3 5000028.6944
12.23748 5.48 -0.32 5000013.3958
13.4736 5.08 -0.32 5000015.456
13.4736 4.92 -0.32 5000015.456
13.4736 4.7 -0.32 5000015.456
13.4736 4.66 -0.32 5000015.456
13.4736 4.6 -0.32 5000015.456
13.4736 4.38 -0.32 5000015.456
13.4736 4.36 -0.32 5000015.456
17.592840000000002 4.04 -0.32 5000022.3214
17.592840000000002 3.0 -0.32 5000022.3214
17.592840000000002 2.98 -0.32 5000022.3214
17.592840000000002 2.84 -0.32 5000022.3214
17.592840000000002 2.82 -0.32 5000022.3214
17.592840000000002 2.36 -0.32 5000022.3214
21.41664 1.94 -0.32 5000028.6944
21.41664 1.12 -0.32 5000028.6944
21.41664 1.1 -0.32 5000028.6944
21.41664 1.06 -0.32 5000028.6944
28.29636 0.74 -0.32 5000040.1606
28.29636 -0.36 -0.32 5000040.1606
44.33376 -1.06 -0.32 5000066.8896
124.19999999999999 -1.24 -0.32 5000200.0
44.33376 -1.3 -0.32 5000066.8896
44.33376 -1.34 -0.32 5000066.8896
28.29636 -1.5 -0.32 5000040.1606
44.33376 -1.64 -0.32 5000066.8896
28.29636 -1.7 -0.32 5000040.1606
28.29636 -2.6 -0.32 5000040.1606
44.33376 -3.26 -0.32 5000066.8896
124.19999999999999 -3.44 -0.32 5000200.0
124.19999999999999 -3.66 -0.32 5000200.0
44.33376 -3.74 -0.32 5000066.8896
124.19999999999999 -3.98 -0.32 5000200.0
28.29636 -4.18 -0.32 5000040.1606
44.33376 -4.5 -0.32 5000066.8896
28.29636 -4.58 -0.32 5000040.1606
28.29636 -4.78 -0.32 5000040.1606
21.41664 -4.86 -0.32 5000028.6944
12.23748 5.48 -0.34 5000013.3958
13.4736 5.08 -0.34 5000015.456
13.4736 4.92 -0.34 5000015.456
13.4736 4.58 -0.34 5000015.456
13.4736 4.38 -0.34 5000015.456
13.4736 4.36 -0.34 5000015.456
17.592840000000002 4.04 -0.34 5000022.3214
17.592840000000002 3.0 -0.34 5000022.3214
17.592840000000002 2.98 -0.34 5000022.3214
17.592840000000002 2.84 -0.34 5000022.3214
17.592840000000002 2.82 -0.34 5000022.3214
21.41664 1.94 -0.34 5000028.6944
21.41664 1.54 -0.34 5000028.6944
21.41664 1.12 -0.34 5000028.6944
21.41664 1.1 -0.34 5000028.6944
28.29636 0.74 -0.34 5000040.1606
15.15888 0.6 -0.34 5000018.2648
28.29636 0.38 -0.34 5000040.1606
28.29636 -0.36 -0.34 5000040.1606
44.33376 -1.06 -0.34 5000066.8896
124.19999999999999 -1.14 -0.34 5000200.0
124.19999999999999 -1.22 -0.34 5000200.0
124.19999999999999 -1.24 -0.34 5000200.0
28.29636 -1.48 -0.34 5000040.1606
28.29636 -1.5 -0.34 5000040.1606
28.29636 -1.7 -0.34 5000040.1606
124.19999999999999 -1.78 -0.34 5000200.0
124.19999999999999 -1.82 -0.34 5000200.0
44.33376 -1.9 -0.34 5000066.8896
28.29636 -2.6 -0.34 5000040.1606
124.19999999999999 -3.44 -0.34 5000200.0
124.19999999999999 -3.48 -0.34 5000200.0
124.19999999999999 -3.66 -0.34 5000200.0
44.33376 -3.74 -0.34 5000066.8896
44.33376 -3.78 -0.34 5000066.8896
44.33376 -3.84 -0.34 5000066.8896
28.29636 -4.18 -0.34 5000040.1606
44.33376 -4.5 -0.34 5000066.8896
28.29636 -4.58 -0.34 5000040.1606
28.29636 -4.78 -0.34 5000040.1606
21.41664 -4.86 -0.34 5000028.6944
12.23748 5.48 -0.36 5000013.3958
13.4736 5.08 -0.36 5000015.456
13.4736 4.72 -0.36 5000015.456
13.4736 4.5 -0.36 5000015.456
13.4736 4.38 -0.36 5000015.456
13.4736 4.36 -0.36 5000015.456
17.592840000000002 3.0 -0.36 5000022.3214
17.592840000000002 2.98 -0.36 5000022.3214
17.592840000000002 2.84 -0.36 5000022.3214
17.592840000000002 2.82 -0.36 5000022.3214
17.592840000000002 2.62 -0.36 5000022.3214
21.41664 2.24 -0.36 5000028.6944
21.41664 1.94 -0.36 5000028.6944
21.41664 1.54 -0.36 5000028.6944
21.41664 1.52 -0.36 5000028.6944
21.41664 1.12 -0.36 5000028.6944
21.41664 1.1 -0.36 5000028.6944
28.29636 0.74 -0.36 5000040.1606
28.29636 0.72 -0.36 5000040.1606
28.29636 0.38 -0.36 5000040.1606
17.592840000000002 0.28 -0.36 5000022.3214
28.29636 -0.36 -0.36 5000040.1606
15.15888 -0.54 -0.36 5000018.2648
124.19999999999999 -1.34 -0.36 5000200.0
28.29636 -1.44 -0.36 5000040.1606
28.29636 -1.7 -0.36 5000040.1606
44.33376 -1.9 -0.36 5000066.8896
124.19999999999999 -3.66 -0.36 5000200.0
44.33376 -3.74 -0.36 5000066.8896
28.29636 -4.18 -0.36 5000040.1606
44.33376 -4.5 -0.36 5000066.8896
28.29636 -4.58 -0.36 5000040.1606
28.29636 -4.78 -0.36 5000040.1606
21.41664 -4.86 -0.36 5000028.6944
12.23748 5.48 -0.38 5000013.3958
12.23748 5.44 -0.38 5000013.3958
13.4736 4.52 -0.38 5000015.456
13.4736 4.5 -0.38 5000015.456
17.592840000000002 4.46 -0.38 5000022.3214
17.592840000000002 4.44 -0.38 5000022.3214
13.4736 4.36 -0.38 5000015.456
13.4736 4.32 -0.38 5000015.456
17.592840000000002 2.98 -0.38 5000022.3214
17.592840000000002 2.84 -0.38 5000022.3214
17.592840000000002 2.82 -0.38 5000022.3214
17.592840000000002 2.62 -0.38 5000022.3214
21.41664 2.24 -0.38 5000028.6944
21.41664 1.94 -0.38 5000028.6944
21.41664 1.54 -0.38 5000028.6944
21.41664 1.52 -0.38 5000028.6944
21.41664 1.12 -0.38 5000028.6944
21.41664 1.1 -0.38 5000028.6944
28.29636 0.74 -0.38 5000040.1606
28.29636 0.72 -0.38 5000040.1606
28.29636 0.38 -0.38 5000040.1606
28.29636 -0.36 -0.38 5000040.1606
21.41664 -0.42 -0.38 5000028.6944
15.15888 -0.54 -0.38 5000018.2648
124.19999999999999 -0.96 -0.38 5000200.0
44.33376 -1.06 -0.38 5000066.8896
124.19999999999999 -1.34 -0.38 5000200.0
28.29636 -1.44 -0.38 5000040.1606
28.29636 -1.46 -0.38 5000040.1606
28.29636 -3.06 -0.38 5000040.1606
44.33376 -3.74 -0.38 5000066.8896
28.29636 -4.18 -0.38 5000040.1606
28.29636 -4.58 -0.38 5000040.1606
28.29636 -4.78 -0.38 5000040.1606
21.41664 -4.86 -0.38 5000028.6944
12.23748 5.76 -0.4 5000013.3958
12.23748 5.74 -0.4 5000013.3958
12.23748 5.44 -0.4 5000013.3958
13.4736 5.06 -0.4 5000015.456
13.4736 4.32 -0.4 5000015.456
13.4736 4.22 -0.4 5000015.456
17.592840000000002 2.98 -0.4 5000022.3214
17.592840000000002 2.84 -0.4 5000022.3214
17.592840000000002 2.82 -0.4 5000022.3214
17.592840000000002 2.52 -0.4 5000022.3214
21.41664 2.24 -0.4 5000028.6944
21.41664 2.02 -0.4 5000028.6944
21.41664 1.94 -0.4 5000028.6944
21.41664 1.92 -0.4 5000028.6944
21.41664 1.12 -0.4 5000028.6944
21.41664 1.1 -0.4 5000028.6944
28.29636 0.74 -0.4 5000040.1606
28.29636 0.72 -0.4 5000040.1606
28.29636 -0.36 -0.4 5000040.1606
15.15888 -0.54 -0.4 5000018.2648
44.33376 -1.06 -0.4 5000066.8896
124.19999999999999 -1.34 -0.4 5000200.0
28.29636 -1.46 -0.4 5000040.1606
28.29636 -2.58 -0.4 5000040.1606
44.33376 -3.74 -0.4 5000066.8896
44.33376 -3.9 -0.4 5000066.8896
28.29636 -4.18 -0.4 5000040.1606
28.29636 -4.46 -0.4 5000040.1606
28.29636 -4.78 -0.4 5000040.1606
21.41664 -4.86 -0.4 5000028.6944
21.41664 -4.88 -0.4 5000028.6944
12.23748 5.44 -0.42 5000013.3958
12.23748 5.3 -0.42 5000013.3958
13.4736 5.06 -0.42 5000015.456
13.4736 4.34 -0.42 5000015.456
13.4736 4.22 -0.42 5000015.456
13.4736 4.2 -0.42 5000015.456
17.592840000000002 2.98 -0.42 5000022.3214
17.592840000000002 2.82 -0.42 5000022.3214
17.592840000000002 2.6 -0.42 5000022.3214
21.41664 2.26 -0.42 5000028.6944
21.41664 2.24 -0.42 5000028.6944
15.15888 2.18 -0.42 5000018.2648
21.41664 2.02 -0.42 5000028.6944
21.41664 1.1 -0.42 5000028.6944
28.29636 0.72 -0.42 5000040.1606
28.29636 0.6 -0.42 5000040.1606
28.29636 0.34 -0.42 5000040.1606
21.41664 0.28 -0.42 5000028.6944
28.29636 -0.16 -0.42 5000040.1606
28.29636 -0.36 -0.42 5000040.1606
44.33376 -1.06 -0.42 5000066.8896
28.29636 -1.46 -0.42 5000040.1606
124.19999999999999 -1.64 -0.42 5000200.0
124.19999999999999 -1.7 -0.42 5000200.0
124.19999999999999 -1.74 -0.42 5000200.0
21.41664 -1.86 -0.42 5000028.6944
44.33376 -3.7 -0.42 5000066.8896
44.33376 -3.74 -0.42 5000066.8896
44.33376 -3.78 -0.42 5000066.8896
28.29636 -4.1 -0.42 5000040.1606
28.29636 -4.18 -0.42 5000040.1606
28.29636 -4.46 -0.42 5000040.1606
28.29636 -4.78 -0.42 5000040.1606
21.41664 -4.86 -0.42 5000028.6944
21.41664 -4.88 -0.42 5000028.6944
12.23748 5.44 -0.44 5000013.3958
12.23748 5.32 -0.44 5000013.3958
13.4736 4.62 -0.44 5000015.456
13.4736 4.22 -0.44 5000015.456
13.4736 4.2 -0.44 5000015.456
17.592840000000002 2.98 -0.44 5000022.3214
17.592840000000002 2.82 -0.44 5000022.3214
17.592840000000002 2.6 -0.44 5000022.3214
21.41664 2.26 -0.44 5000028.6944
21.41664 2.24 -0.44 5000028.6944
21.41664 1.1 -0.44 5000028.6944
21.41664 0.88 -0.44 5000028.6944
28.29636 0.6 -0.44 5000040.1606
44.33376 0.4 -0.44 5000066.8896
28.29636 0.34 -0.44 5000040.1606
21.41664 0.28 -0.44 5000028.6944
28.29636 -0.36 -0.44 5000040.1606
28.29636 -0.38 -0.44 5000040.1606
28.29636 -1.46 -0.44 5000040.1606
124.19999999999999 -1.64 -0.44 5000200.0
124.19999999999999 -1.7 -0.44 5000200.0
124.19999999999999 -1.74 -0.44 5000200.0
44.33376 -1.86 -0.44 5000066.8896
44.33376 -3.52 -0.44 5000066.8896
44.33376 -3.78 -0.44 5000066.8896
28.29636 -4.12 -0.44 5000040.1606
28.29636 -4.14 -0.44 5000040.1606
28.29636 -4.18 -0.44 5000040.1606
44.33376 -4.66 -0.44 5000066.8896
28.29636 -4.78 -0.44 5000040.1606
21.41664 -4.86 -0.44 5000028.6944
21.41664 -4.88 -0.44 5000028.6944
17.592840000000002 -6.58 -0.44 5000022.3214
12.23748 5.56 -0.46 5000013.3958
12.23748 5.52 -0.46 5000013.3958
12.23748 5.44 -0.46 5000013.3958
13.4736 4.88 -0.46 5000015.456
13.4736 4.82 -0.46 5000015.456
13.4736 4.78 -0.46 5000015.456
13.4736 4.76 -0.46 5000015.456
13.4736 4.64 -0.46 5000015.456
13.4736 4.62 -0.46 5000015.456
13.4736 4.16 -0.46 5000015.456
17.592840000000002 2.98 -0.46 5000022.3214
17.592840000000002 2.82 -0.46 5000022.3214
17.592840000000002 2.6 -0.46 5000022.3214
21.41664 2.26 -0.46 5000028.6944
21.41664 2.24 -0.46 5000028.6944
21.41664 1.4 -0.46 5000028.6944
21.41664 1.1 -0.46 5000028.6944
21.41664 1.06 -0.46 5000028.6944
21.41664 0.88 -0.46 5000028.6944
28.29636 0.64 -0.46 5000040.1606
28.29636 0.62 -0.46 5000040.1606
28.29636 0.34 -0.46 5000040.1606
21.41664 0.28 -0.46 5000028.6944
28.29636 -0.34 -0.46 5000040.1606
28.29636 -0.36 -0.46 5000040.1606
28.29636 -1.46 -0.46 5000040.1606
124.19999999999999 -1.64 -0.46 5000200.0
44.33376 -1.86 -0.46 5000066.8896
21.41664 -1.9 -0.46 5000028.6944
44.33376 -1.94 -0.46 5000066.8896
44.33376 -3.2 -0.46 5000066.8896
44.33376 -3.78 -0.46 5000066.8896
28.29636 -4.18 -0.46 5000040.1606
44.33376 -4.44 -0.46 5000066.8896
28.29636 -4.78 -0.46 5000040.1606
21.41664 -4.86 -0.46 5000028.6944
21.41664 -4.88 -0.46 5000028.6944
17.592840000000002 -6.58 -0.46 5000022.3214
13.4736 4.88 -0.48 5000015.456
13.4736 4.78 -0.48 5000015.456
13.4736 4.76 -0.48 5000015.456
13.4736 4.16 -0.48 5000015.456
13.4736 4.14 -0.48 5000015.456
17.592840000000002 2.98 -0.48 5000022.3214
17.592840000000002 2.82 -0.48 5000022.3214
21.41664 2.26 -0.48 5000028.6944
21.41664 2.24 -0.48 5000028.6944
15.15888 2.18 -0.48 5000018.2648
21.41664 1.64 -0.48 5000028.6944
21.41664 1.4 -0.48 5000028.6944
21.41664 1.1 -0.48 5000028.6944
21.41664 1.06 -0.48 5000028.6944
21.41664 0.88 -0.48 5000028.6944
44.33376 0.76 -0.48 5000066.8896
44.33376 0.74 -0.48 5000066.8896
28.29636 0.64 -0.48 5000040.1606
124.19999999999999 -0.26 -0.48 5000200.0
28.29636 -0.36 -0.48 5000040.1606
28.29636 -0.38 -0.48 5000040.1606
124.19999999999999 -1.32 -0.48 5000200.0
44.33376 -1.38 -0.48 5000066.8896
28.29636 -1.46 -0.48 5000040.1606
124.19999999999999 -1.64 -0.48 5000200.0
124.19999999999999 -1.74 -0.48 5000200.0
124.19999999999999 -1.82 -0.48 5000200.0
21.41664 -1.9 -0.48 5000028.6944
124.19999999999999 -2.46 -0.48 5000200.0
44.33376 -2.54 -0.48 5000066.8896
44.33376 -2.58 -0.48 5000066.8896
28.29636 -3.26 -0.48 5000040.1606
28.29636 -3.28 -0.48 5000040.1606
21.41664 -3.32 -0.48 5000028.6944
28.29636 -4.18 -0.48 5000040.1606
28.29636 -4.78 -0.48 5000040.1606
21.41664 -4.86 -0.48 5000028.6944
21.41664 -4.88 -0.48 5000028.6944
17.592840000000002 -6.58 -0.48 5000022.3214
13.4736 4.76 -0.5 5000015.456
13.4736 4.54 -0.5 5000015.456
13.4736 4.24 -0.5 5000015.456
13.4736 4.22 -0.5 5000015.456
17.592840000000002 2.98 -0.5 5000022.3214
17.592840000000002 2.96 -0.5 5000022.3214
17.592840000000002 2.82 -0.5 5000022.3214
17.592840000000002 2.8 -0.5 5000022.3214
17.592840000000002 2.44 -0.5 5000022.3214
21.41664 2.26 -0.5 5000028.6944
21.41664 2.24 -0.5 5000028.6944
21.41664 1.66 -0.5 5000028.6944
21.41664 1.64 -0.5 5000028.6944
21.41664 0.88 -0.5 5000028.6944
28.29636 0.64 -0.5 5000040.1606
124.19999999999999 -0.26 -0.5 5000200.0
28.29636 -0.36 -0.5 5000040.1606
28.29636 -0.38 -0.5 5000040.1606
124.19999999999999 -1.32 -0.5 5000200.0
44.33376 -1.38 -0.5 5000066.8896
28.29636 -1.46 -0.5 5000040.1606
124.19999999999999 -1.64 -0.5 5000200.0
124.19999999999999 -1.68 -0.5 5000200.0
124.19999999999999 -1.82 -0.5 5000200.0
44.33376 -1.9 -0.5 5000066.8896
44.33376 -1.94 -0.5 5000066.8896
124.19999999999999 -2.42 -0.5 5000200.0
44.33376 -2.54 -0.5 5000066.8896
44.33376 -2.58 -0.5 5000066.8896
44.33376 -2.6 -0.5 5000066.8896
44.33376 -2.62 -0.5 5000066.8896
28.29636 -2.68 -0.5 5000040.1606
21.41664 -2.72 -0.5 5000028.6944
21.41664 -2.74 -0.5 5000028.6944
21.41664 -2.76 -0.5 5000028.6944
124.19999999999999 -3.08 -0.5 5000200.0
124.19999999999999 -3.1 -0.5 5000200.0
124.19999999999999 -3.12 -0.5 5000200.0
44.33376 -3.16 -0.5 5000066.8896
28.29636 -3.26 -0.5 5000040.1606
28.29636 -3.28 -0.5 5000040.1606
21.41664 -3.32 -0.5 5000028.6944
21.41664 -3.34 -0.5 5000028.6944
44.33376 -4.08 -0.5 5000066.8896
28.29636 -4.18 -0.5 5000040.1606
28.29636 -4.78 -0.5 5000040.1606
21.41664 -4.86 -0.5 5000028.6944
21.41664 -4.88 -0.5 5000028.6944
17.592840000000002 -6.58 -0.5 5000022.3214
12.23748 5.68 -0.52 5000013.3958
12.23748 5.32 -0.52 5000013.3958
12.23748 5.3 -0.52 5000013.3958
13.4736 5.24 -0.52 5000015.456
13.4736 5.22 -0.52 5000015.456
13.4736 4.76 -0.52 5000015.456
13.4736 4.22 -0.52 5000015.456
13.4736 4.2 -0.52 5000015.456
13.4736 4.18 -0.52 5000015.456
17.592840000000002 2.96 -0.52 5000022.3214
17.592840000000002 2.8 -0.52 5000022.3214
17.592840000000002 2.44 -0.52 5000022.3214
21.41664 2.26 -0.52 5000028.6944
21.41664 2.24 -0.52 5000028.6944
21.41664 1.66 -0.52 5000028.6944
44.33376 0.76 -0.52 5000066.8896
28.29636 0.68 -0.52 5000040.1606
28.29636 0.66 -0.52 5000040.1606
28.29636 -0.2 -0.52 5000040.1606
124.19999999999999 -0.26 -0.52 5000200.0
15.15888 -0.54 -0.52 5000018.2648
28.29636 -1.46 -0.52 5000040.1606
124.19999999999999 -1.64 -0.52 5000200.0
124.19999999999999 -1.72 -0.52 5000200.0
124.19999999999999 -1.82 -0.52 5000200.0
44.33376 -1.9 -0.52 5000066.8896
44.33376 -1.94 -0.52 5000066.8896
124.19999999999999 -2.4 -0.52 5000200.0
44.33376 -2.58 -0.52 5000066.8896
44.33376 -2.6 -0.52 5000066.8896
28.29636 -2.66 -0.52 5000040.1606
28.29636 -2.68 -0.52 5000040.1606
21.41664 -2.74 -0.52 5000028.6944
21.41664 -2.76 -0.52 5000028.6944
124.19999999999999 -3.08 -0.52 5000200.0
124.19999999999999 -3.1 -0.52 5000200.0
44.33376 -3.12 -0.52 5000066.8896
44.33376 -3.16 -0.52 5000066.8896
44.33376 -3.18 -0.52 5000066.8896
44.33376 -3.2 -0.52 5000066.8896
28.29636 -3.28 -0.52 5000040.1606
21.41664 -3.32 -0.52 5000028.6944
21.41664 -3.34 -0.52 5000028.6944
21.41664 -3.36 -0.52 5000028.6944
15.15888 -3.38 -0.52 5000018.2648
13.4736 -3.4 -0.52 5000015.456
13.4736 -3.42 -0.52 5000015.456
13.4736 -3.44 -0.52 5000015.456
13.4736 -3.46 -0.52 5000015.456
28.29636 -4.18 -0.52 5000040.1606
28.29636 -4.38 -0.52 5000040.1606
28.29636 -4.78 -0.52 5000040.1606
21.41664 -4.88 -0.52 5000028.6944
17.592840000000002 -6.58 -0.52 5000022.3214
13.4736 5.02 -0.54 5000015.456
13.4736 4.94 -0.54 5000015.456
13.4736 4.76 -0.54 5000015.456
13.4736 4.36 -0.54 5000015.456
13.4736 4.2 -0.54 5000015.456
13.4736 4.18 -0.54 5000015.456
17.592840000000002 2.96 -0.54 5000022.3214
17.592840000000002 2.94 -0.54 5000022.3214
17.592840000000002 2.8 -0.54 5000022.3214
17.592840000000002 2.64 -0.54 5000022.3214
17.592840000000002 2.46 -0.54 5000022.3214
13.4736 2.34 -0.54 5000015.456
21.41664 2.24 -0.54 5000028.6944
28.29636 0.7 -0.54 5000040.1606
28.29636 0.68 -0.54 5000040.1606
28.29636 0.62 -0.54 5000040.1606
28.29636 -0.2 -0.54 5000040.1606
21.41664 -0.26 -0.54 5000028.6944
124.19999999999999 -1.72 -0.54 5000200.0
124.19999999999999 -1.82 -0.54 5000200.0
44.33376 -1.88 -0.54 5000066.8896
44.33376 -1.9 -0.54 5000066.8896
9.941628000000001 -2.02 -0.54 5000009.56938
44.33376 -2.38 -0.54 5000066.8896
44.33376 -2.6 -0.54 5000066.8896
28.29636 -2.66 -0.54 5000040.1606
28.29636 -2.68 -0.54 5000040.1606
21.41664 -2.74 -0.54 5000028.6944
21.41664 -2.76 -0.54 5000028.6944
124.19999999999999 -3.1 -0.54 5000200.0
44.33376 -3.12 -0.54 5000066.8896
44.33376 -3.18 -0.54 5000066.8896
28.29636 -3.24 -0.54 5000040.1606
28.29636 -3.26 -0.54 5000040.1606
15.15888 -3.38 -0.54 5000018.2648
13.4736 -3.42 -0.54 5000015.456
8.358006 -3.54 -0.54 5000006.93001
44.33376 -4.08 -0.54 5000066.8896
28.29636 -4.18 -0.54 5000040.1606
21.41664 -4.88 -0.54 5000028.6944
17.592840000000002 -6.58 -0.54 5000022.3214
12.23748 5.44 -0.56 5000013.3958
13.4736 5.02 -0.56 5000015.456
13.4736 4.94 -0.56 5000015.456
13.4736 4.36 -0.56 5000015.456
13.4736 4.18 -0.56 5000015.456
13.4736 4.06 -0.56 5000015.456
17.592840000000002 2.96 -0.56 5000022.3214
17.592840000000002 2.94 -0.56 5000022.3214
17.592840000000002 2.8 -0.56 5000022.3214
17.592840000000002 2.64 -0.56 5000022.3214
28.29636 2.56 -0.56 5000040.1606
17.592840000000002 2.46 -0.56 5000022.3214
21.41664 2.24 -0.56 5000028.6944
21.41664 0.9 -0.56 5000028.6944
124.19999999999999 -0.74 -0.56 5000200.0
124.19999999999999 -1.82 -0.56 5000200.0
44.33376 -1.88 -0.56 5000066.8896
44.33376 -1.9 -0.56 5000066.8896
44.33376 -2.36 -0.56 5000066.8896
21.41664 -2.76 -0.56 5000028.6944
7.8540779999999994 -2.9 -0.56 5000006.09013
44.33376 -3.12 -0.56 5000066.8896
44.33376 -3.18 -0.56 5000066.8896
7.8540779999999994 -3.74 -0.56 5000006.09013
28.29636 -4.18 -0.56 5000040.1606
28.29636 -4.78 -0.56 5000040.1606
28.29636 -4.8 -0.56 5000040.1606
21.41664 -4.88 -0.56 5000028.6944
17.592840000000002 -6.58 -0.56 5000022.3214
12.23748 5.56 -0.58 5000013.3958
12.23748 5.44 -0.58 5000013.3958
13.4736 4.64 -0.58 5000015.456
13.4736 4.28 -0.58 5000015.456
13.4736 4.06 -0.58 5000015.456
17.592840000000002 2.94 -0.58 5000022.3214
17.592840000000002 2.8 -0.58 5000022.3214
17.592840000000002 2.78 -0.58 5000022.3214
21.41664 2.46 -0.58 5000028.6944
21.41664 2.24 -0.58 5000028.6944
21.41664 2.22 -0.58 5000028.6944
28.29636 1.64 -0.58 5000040.1606
28.29636 1.5 -0.58 5000040.1606
21.41664 0.88 -0.58 5000028.6944
124.19999999999999 -1.74 -0.58 5000200.0
124.19999999999999 -1.82 -0.58 5000200.0
44.33376 -1.86 -0.58 5000066.8896
44.33376 -1.88 -0.58 5000066.8896
44.33376 -2.34 -0.58 5000066.8896
28.29636 -4.18 -0.58 5000040.1606
28.29636 -4.56 -0.58 5000040.1606
21.41664 -4.62 -0.58 5000028.6944
28.29636 -4.78 -0.58 5000040.1606
21.41664 -4.88 -0.58 5000028.6944
12.23748 5.56 -0.6 5000013.3958
12.23748 5.44 -0.6 5000013.3958
13.4736 5.32 -0.6 5000015.456
13.4736 4.64 -0.6 5000015.456
13.4736 4.3 -0.6 5000015.456
13.4736 4.28 -0.6 5000015.456
13.4736 4.04 -0.6 5000015.456
13.4736 4.02 -0.6 5000015.456
17.592840000000002 2.96 -0.6 5000022.3214
17.592840000000002 2.94 -0.6 5000022.3214
17.592840000000002 2.78 -0.6 5000022.3214
21.41664 2.48 -0.6 5000028.6944
21.41664 2.46 -0.6 5000028.6944
21.41664 1.72 -0.6 5000028.6944
21.41664 1.7 -0.6 5000028.6944
28.29636 1.54 -0.6 5000040.1606
28.29636 1.5 -0.6 5000040.1606
21.41664 0.88 -0.6 5000028.6944
28.29636 -0.54 -0.6 5000040.1606
17.592840000000002 -0.68 -0.6 5000022.3214
124.19999999999999 -1.64 -0.6 5000200.0
124.19999999999999 -1.66 -0.6 5000200.0
28.29636 -2.56 -0.6 5000040.1606
44.33376 -2.6 -0.6 5000066.8896
44.33376 -2.64 -0.6 5000066.8896
28.29636 -2.74 -0.6 5000040.1606
28.29636 -3.24 -0.6 5000040.1606
21.41664 -4.62 -0.6 5000028.6944
21.41664 -4.88 -0.6 5000028.6944
12.23748 5.44 -0.62 5000013.3958
12.23748 5.32 -0.62 5000013.3958
12.23748 5.3 -0.62 5000013.3958
13.4736 5.14 -0.62 5000015.456
13.4736 4.3 -0.62 5000015.456
13.4736 4.04 -0.62 5000015.456
13.4736 4.02 -0.62 5000015.456
17.592840000000002 2.94 -0.62 5000022.3214
21.41664 2.48 -0.62 5000028.6944
21.41664 2.46 -0.62 5000028.6944
21.41664 1.74 -0.62 5000028.6944
21.41664 1.72 -0.62 5000028.6944
21.41664 0.88 -0.62 5000028.6944
44.33376 -1.18 -0.62 5000066.8896
28.29636 -1.26 -0.62 5000040.1606
124.19999999999999 -1.64 -0.62 5000200.0
124.19999999999999 -1.66 -0.62 5000200.0
124.19999999999999 -1.78 -0.62 5000200.0
28.29636 -1.8 -0.62 5000040.1606
44.33376 -2.6 -0.62 5000066.8896
28.29636 -3.22 -0.62 5000040.1606
28.29636 -3.24 -0.62 5000040.1606
21.41664 -3.28 -0.62 5000028.6944
21.41664 -4.62 -0.62 5000028.6944
21.41664 -4.88 -0.62 5000028.6944
17.592840000000002 -6.58 -0.62 5000022.3214
13.4736 4.32 -0.64 5000015.456
13.4736 4.02 -0.64 5000015.456
17.592840000000002 2.94 -0.64 5000022.3214
17.592840000000002 2.92 -0.64 5000022.3214
21.41664 2.62 -0.64 5000028.6944
21.41664 2.48 -0.64 5000028.6944
21.41664 2.46 -0.64 5000028.6944
15.15888 2.4 -0.64 5000018.2648
21.41664 2.34 -0.64 5000028.6944
21.41664 0.88 -0.64 5000028.6944
21.41664 0.84 -0.64 5000028.6944
21.41664 0.82 -0.64 5000028.6944
28.29636 -1.24 -0.64 5000040.1606
28.29636 -1.26 -0.64 5000040.1606
44.33376 -2.62 -0.64 5000066.8896
28.29636 -2.7 -0.64 5000040.1606
124.19999999999999 -2.92 -0.64 5000200.0
124.19999999999999 -2.94 -0.64 5000200.0
28.29636 -2.96 -0.64 5000040.1606
124.19999999999999 -3.06 -0.64 5000200.0
44.33376 -3.08 -0.64 5000066.8896
44.33376 -3.12 -0.64 5000066.8896
44.33376 -3.14 -0.64 5000066.8896
28.29636 -3.22 -0.64 5000040.1606
21.41664 -3.28 -0.64 5000028.6944
44.33376 -4.48 -0.64 5000066.8896
21.41664 -4.62 -0.64 5000028.6944
28.29636 -4.8 -0.64 5000040.1606
21.41664 -4.88 -0.64 5000028.6944
17.592840000000002 -6.58 -0.64 5000022.3214
12.23748 5.76 -0.66 5000013.3958
12.23748 5.74 -0.66 5000013.3958
12.23748 5.44 -0.66 5000013.3958
12.23748 5.34 -0.66 5000013.3958
12.23748 5.28 -0.66 5000013.3958
13.4736 4.34 -0.66 5000015.456
13.4736 4.32 -0.66 5000015.456
13.4736 4.0 -0.66 5000015.456
17.592840000000002 2.92 -0.66 5000022.3214
21.41664 2.48 -0.66 5000028.6944
21.41664 2.46 -0.66 5000028.6944
21.41664 0.9 -0.66 5000028.6944
21.41664 0.88 -0.66 5000028.6944
21.41664 0.84 -0.66 5000028.6944
21.41664 0.82 -0.66 5000028.6944
28.29636 -1.24 -0.66 5000040.1606
10.54584 -1.72 -0.66 5000010.5764
44.33376 -2.62 -0.66 5000066.8896
28.29636 -2.7 -0.66 5000040.1606
17.592840000000002 -2.74 -0.66 5000022.3214
17.592840000000002 -2.76 -0.66 5000022.3214
124.19999999999999 -2.94 -0.66 5000200.0
28.29636 -3.0 -0.66 5000040.1606
44.33376 -3.12 -0.66 5000066.8896
44.33376 -3.14 -0.66 5000066.8896
28.29636 -3.22 -0.66 5000040.1606
17.592840000000002 -3.28 -0.66 5000022.3214
21.41664 -4.88 -0.66 5000028.6944
17.592840000000002 -6.58 -0.66 5000022.3214
12.23748 5.44 -0.68 5000013.3958
12.23748 5.34 -0.68 5000013.3958
13.4736 5.16 -0.68 5000015.456
13.4736 5.14 -0.68 5000015.456
12.23748 4.6 -0.68 5000013.3958
12.23748 4.58 -0.68 5000013.3958
13.4736 4.32 -0.68 5000015.456
17.592840000000002 2.28 -0.68 5000022.3214
28.29636 1.86 -0.68 5000040.1606
21.41664 1.34 -0.68 5000028.6944
21.41664 0.88 -0.68 5000028.6944
21.41664 0.82 -0.68 5000028.6944
28.29636 -2.62 -0.68 5000040.1606
28.29636 -2.7 -0.68 5000040.1606
17.592840000000002 -2.74 -0.68 5000022.3214
17.592840000000002 -2.76 -0.68 5000022.3214
44.33376 -3.12 -0.68 5000066.8896
44.33376 -3.14 -0.68 5000066.8896
28.29636 -3.22 -0.68 5000040.1606
17.592840000000002 -3.28 -0.68 5000022.3214
21.41664 -4.88 -0.68 5000028.6944
17.592840000000002 -6.58 -0.68 5000022.3214
12.23748 5.56 -0.7 5000013.3958
12.23748 5.44 -0.7 5000013.3958
12.23748 5.34 -0.7 5000013.3958
12.23748 5.32 -0.7 5000013.3958
13.4736 5.14 -0.7 5000015.456
12.23748 4.6 -0.7 5000013.3958
13.4736 4.32 -0.7 5000015.456
13.4736 4.26 -0.7 5000015.456
15.15888 4.04 -0.7 5000018.2648
