VERSION .7
FIELDS x y z rgb
SIZE 4 4 4 4
TYPE F F F F
COUNT 1 1 1 1
WIDTH 1667
HEIGHT 1
VIEWPOINT 0 0 0 1 0 0 0
POINTS 1667
DATA ascii
15.15888 5.32 3.34 18.2648
17.592840000000002 4.98 3.34 22.3214
17.592840000000002 4.74 3.34 22.3214
17.592840000000002 4.32 3.34 22.3214
17.592840000000002 3.78 3.34 22.3214
21.41664 2.24 3.34 28.6944
28.29636 1.64 3.34 40.1606
28.29636 1.26 3.34 40.1606
28.29636 1.24 3.34 40.1606
15.15888 5.78 3.32 18.2648
17.592840000000002 4.98 3.32 22.3214
17.592840000000002 4.96 3.32 22.3214
17.592840000000002 4.74 3.32 22.3214
17.592840000000002 4.32 3.32 22.3214
17.592840000000002 3.78 3.32 22.3214
21.41664 2.9 3.32 28.6944
21.41664 2.24 3.32 28.6944
28.29636 1.56 3.32 40.1606
28.29636 1.24 3.32 40.1606
28.29636 1.22 3.32 40.1606
9.023147999999999 -6.64 3.32 8.03858
15.15888 5.08 3.3 18.2648
17.592840000000002 4.98 3.3 22.3214
17.592840000000002 4.96 3.3 22.3214
17.592840000000002 4.32 3.3 22.3214
15.15888 4.26 3.3 18.2648
17.592840000000002 3.78 3.3 22.3214
21.41664 2.9 3.3 28.6944
28.29636 1.56 3.3 40.1606
124.19999999999999 1.36 3.3 200.0
28.29636 1.22 3.3 40.1606
28.29636 1.2 3.3 40.1606
9.023147999999999 -6.66 3.3 8.03858
15.15888 5.24 3.28 18.2648
17.592840000000002 4.98 3.28 22.3214
17.592840000000002 4.96 3.28 22.3214
17.592840000000002 4.88 3.28 22.3214
17.592840000000002 4.74 3.28 22.3214
17.592840000000002 4.32 3.28 22.3214
15.15888 4.26 3.28 18.2648
17.592840000000002 3.78 3.28 22.3214
124.19999999999999 1.34 3.28 200.0
28.29636 1.2 3.28 40.1606
28.29636 1.18 3.28 40.1606
15.15888 5.24 3.26 18.2648
17.592840000000002 4.98 3.26 22.3214
17.592840000000002 4.96 3.26 22.3214
17.592840000000002 4.88 3.26 22.3214
17.592840000000002 4.32 3.26 22.3214
17.592840000000002 4.18 3.26 22.3214
17.592840000000002 3.78 3.26 22.3214
21.41664 2.52 3.26 28.6944
124.19999999999999 1.32 3.26 200.0
28.29636 1.18 3.26 40.1606
28.29636 1.16 3.26 40.1606
9.023147999999999 -6.66 3.26 8.03858
15.15888 5.34 3.24 18.2648
15.15888 5.24 3.24 18.2648
17.592840000000002 4.96 3.24 22.3214
17.592840000000002 4.32 3.24 22.3214
17.592840000000002 4.2 3.24 22.3214
17.592840000000002 4.18 3.24 22.3214
21.41664 3.92 3.24 28.6944
17.592840000000002 3.78 3.24 22.3214
21.41664 2.52 3.24 28.6944
28.29636 1.56 3.24 40.1606
124.19999999999999 1.3 3.24 200.0
28.29636 1.16 3.24 40.1606
15.15888 5.42 3.22 18.2648
17.592840000000002 4.96 3.22 22.3214
17.592840000000002 4.32 3.22 22.3214
17.592840000000002 4.2 3.22 22.3214
17.592840000000002 4.18 3.22 22.3214
21.41664 3.92 3.22 28.6944
17.592840000000002 3.76 3.22 22.3214
21.41664 2.52 3.22 28.6944
28.29636 2.38 3.22 40.1606
124.19999999999999 1.28 3.22 200.0
28.29636 1.14 3.22 40.1606
17.592840000000002 5.26 3.2 22.3214
17.592840000000002 4.86 3.2 22.3214
17.592840000000002 4.32 3.2 22.3214
17.592840000000002 4.18 3.2 22.3214
28.29636 2.38 3.2 40.1606
21.41664 2.22 3.2 28.6944
124.19999999999999 1.26 3.2 200.0
28.29636 1.12 3.2 40.1606
44.33376 -3.84 3.2 66.8896
15.15888 5.3 3.18 18.2648
17.592840000000002 5.26 3.18 22.3214
17.592840000000002 5.24 3.18 22.3214
17.592840000000002 4.86 3.18 22.3214
17.592840000000002 4.18 3.18 22.3214
21.41664 3.12 3.18 28.6944
21.41664 2.7 3.18 28.6944
21.41664 2.6 3.18 28.6944
17.592840000000002 2.54 3.18 22.3214
28.29636 2.4 3.18 40.1606
28.29636 2.38 3.18 40.1606
21.41664 2.22 3.18 28.6944
124.19999999999999 1.24 3.18 200.0
28.29636 1.1 3.18 40.1606
15.15888 5.3 3.16 18.2648
17.592840000000002 5.26 3.16 22.3214
17.592840000000002 5.24 3.16 22.3214
17.592840000000002 4.8 3.16 22.3214
17.592840000000002 4.72 3.16 22.3214
17.592840000000002 4.18 3.16 22.3214
21.41664 3.12 3.16 28.6944
21.41664 2.72 3.16 28.6944
21.41664 2.7 3.16 28.6944
21.41664 2.6 3.16 28.6944
17.592840000000002 2.54 3.16 22.3214
28.29636 2.4 3.16 40.1606
28.29636 2.38 3.16 40.1606
21.41664 2.22 3.16 28.6944
124.19999999999999 1.22 3.16 200.0
28.29636 1.08 3.16 40.1606
12.23748 -6.06 3.16 13.3958
17.592840000000002 5.26 3.14 22.3214
17.592840000000002 5.24 3.14 22.3214
17.592840000000002 4.72 3.14 22.3214
21.41664 3.72 3.14 28.6944
21.41664 2.7 3.14 28.6944
28.29636 2.38 3.14 40.1606
21.41664 2.22 3.14 28.6944
28.29636 1.4 3.14 40.1606
124.19999999999999 1.2 3.14 200.0
28.29636 1.06 3.14 40.1606
28.29636 -4.12 3.14 40.1606
12.23748 -6.5 3.14 13.3958
17.592840000000002 5.24 3.12 22.3214
17.592840000000002 4.72 3.12 22.3214
21.41664 3.72 3.12 28.6944
17.592840000000002 2.48 3.12 22.3214
28.29636 2.38 3.12 40.1606
21.41664 2.22 3.12 28.6944
124.19999999999999 1.18 3.12 200.0
28.29636 1.04 3.12 40.1606
28.29636 -4.12 3.12 40.1606
12.23748 -6.08 3.12 13.3958
12.23748 -6.46 3.12 13.3958
12.23748 -6.54 3.12 13.3958
17.592840000000002 3.78 3.1 22.3214
17.592840000000002 3.76 3.1 22.3214
28.29636 2.38 3.1 40.1606
21.41664 2.22 3.1 28.6944
124.19999999999999 1.16 3.1 200.0
28.29636 1.06 3.1 40.1606
28.29636 1.02 3.1 40.1606
44.33376 -3.48 3.1 66.8896
15.15888 -6.3 3.1 18.2648
12.23748 -6.46 3.1 13.3958
15.15888 5.42 3.08 18.2648
15.15888 4.82 3.08 18.2648
17.592840000000002 3.78 3.08 22.3214
17.592840000000002 3.76 3.08 22.3214
15.15888 2.3 3.08 18.2648
21.41664 2.22 3.08 28.6944
124.19999999999999 1.14 3.08 200.0
28.29636 1.0 3.08 40.1606
44.33376 -3.48 3.08 66.8896
15.15888 5.3 3.06 18.2648
17.592840000000002 4.84 3.06 22.3214
17.592840000000002 4.82 3.06 22.3214
17.592840000000002 3.76 3.06 22.3214
21.41664 2.22 3.06 28.6944
28.29636 1.62 3.06 40.1606
124.19999999999999 1.12 3.06 200.0
28.29636 0.98 3.06 40.1606
12.23748 -5.9 3.06 13.3958
17.592840000000002 4.84 3.04 22.3214
17.592840000000002 4.82 3.04 22.3214
17.592840000000002 4.3 3.04 22.3214
17.592840000000002 4.16 3.04 22.3214
17.592840000000002 3.76 3.04 22.3214
28.29636 1.66 3.04 40.1606
124.19999999999999 1.1 3.04 200.0
28.29636 0.96 3.04 40.1606
44.33376 -3.46 3.04 66.8896
12.23748 -5.9 3.04 13.3958
17.592840000000002 4.84 3.02 22.3214
17.592840000000002 4.82 3.02 22.3214
17.592840000000002 4.3 3.02 22.3214
21.41664 2.36 3.02 28.6944
17.592840000000002 2.28 3.02 22.3214
21.41664 2.22 3.02 28.6944
28.29636 1.54 3.02 40.1606
124.19999999999999 1.08 3.02 200.0
28.29636 -4.12 3.02 40.1606
21.41664 2.36 3.0 28.6944
21.41664 2.34 3.0 28.6944
17.592840000000002 2.28 3.0 22.3214
21.41664 2.22 3.0 28.6944
28.29636 1.54 3.0 40.1606
124.19999999999999 1.06 3.0 200.0
28.29636 0.94 3.0 40.1606
44.33376 -3.44 3.0 66.8896
17.592840000000002 4.3 2.98 22.3214
21.41664 2.36 2.98 28.6944
21.41664 2.34 2.98 28.6944
17.592840000000002 2.28 2.98 22.3214
21.41664 2.22 2.98 28.6944
28.29636 1.92 2.98 40.1606
28.29636 1.9 2.98 40.1606
28.29636 1.4 2.98 40.1606
124.19999999999999 1.04 2.98 200.0
44.33376 0.96 2.98 66.8896
28.29636 0.92 2.98 40.1606
44.33376 -3.44 2.98 66.8896
28.29636 -4.02 2.98 40.1606
21.41664 2.36 2.96 28.6944
21.41664 2.22 2.96 28.6944
28.29636 1.92 2.96 40.1606
28.29636 1.4 2.96 40.1606
124.19999999999999 1.02 2.96 200.0
44.33376 0.94 2.96 66.8896
28.29636 0.9 2.96 40.1606
28.29636 -4.02 2.96 40.1606
12.23748 -6.48 2.96 13.3958
21.41664 3.92 2.94 28.6944
17.592840000000002 3.76 2.94 22.3214
21.41664 2.22 2.94 28.6944
28.29636 1.92 2.94 40.1606
28.29636 1.4 2.94 40.1606
124.19999999999999 1.0 2.94 200.0
44.33376 0.92 2.94 66.8896
28.29636 0.88 2.94 40.1606
28.29636 -4.02 2.94 40.1606
17.592840000000002 4.26 2.92 22.3214
21.41664 2.22 2.92 28.6944
28.29636 1.4 2.92 40.1606
124.19999999999999 1.0 2.92 200.0
124.19999999999999 0.98 2.92 200.0
28.29636 0.86 2.92 40.1606
17.592840000000002 4.28 2.9 22.3214
17.592840000000002 3.76 2.9 22.3214
21.41664 2.22 2.9 28.6944
28.29636 1.4 2.9 40.1606
44.33376 0.88 2.9 66.8896
44.33376 0.86 2.9 66.8896
12.23748 -6.2 2.9 13.3958
17.592840000000002 4.06 2.88 22.3214
17.592840000000002 4.04 2.88 22.3214
17.592840000000002 3.76 2.88 22.3214
21.41664 2.22 2.88 28.6944
28.29636 1.4 2.88 40.1606
44.33376 0.94 2.88 66.8896
44.33376 0.88 2.88 66.8896
44.33376 0.86 2.88 66.8896
28.29636 -3.94 2.88 40.1606
17.592840000000002 4.16 2.86 22.3214
17.592840000000002 4.14 2.86 22.3214
17.592840000000002 3.74 2.86 22.3214
21.41664 2.22 2.86 28.6944
28.29636 1.92 2.86 40.1606
28.29636 0.98 2.86 40.1606
28.29636 0.96 2.86 40.1606
44.33376 0.9 2.86 66.8896
44.33376 0.88 2.86 66.8896
28.29636 -3.94 2.86 40.1606
17.592840000000002 4.14 2.84 22.3214
21.41664 3.44 2.84 28.6944
21.41664 2.22 2.84 28.6944
28.29636 1.92 2.84 40.1606
44.33376 1.02 2.84 66.8896
44.33376 1.0 2.84 66.8896
44.33376 0.92 2.84 66.8896
44.33376 0.9 2.84 66.8896
12.23748 -5.96 2.84 13.3958
12.23748 -6.22 2.84 13.3958
21.41664 3.44 2.82 28.6944
21.41664 3.42 2.82 28.6944
21.41664 3.38 2.82 28.6944
21.41664 3.08 2.82 28.6944
21.41664 2.22 2.82 28.6944
28.29636 1.92 2.82 40.1606
44.33376 1.02 2.82 66.8896
44.33376 1.0 2.82 66.8896
12.23748 -5.68 2.82 13.3958
12.23748 -6.22 2.82 13.3958
17.592840000000002 4.1 2.8 22.3214
17.592840000000002 4.08 2.8 22.3214
17.592840000000002 4.06 2.8 22.3214
21.41664 3.42 2.8 28.6944
21.41664 3.34 2.8 28.6944
21.41664 3.32 2.8 28.6944
21.41664 2.2 2.8 28.6944
28.29636 2.02 2.8 40.1606
28.29636 1.92 2.8 40.1606
44.33376 1.02 2.8 66.8896
12.23748 -5.98 2.8 13.3958
12.23748 -6.24 2.8 13.3958
17.592840000000002 4.12 2.78 22.3214
17.592840000000002 4.1 2.78 22.3214
17.592840000000002 4.08 2.78 22.3214
17.592840000000002 4.06 2.78 22.3214
21.41664 3.44 2.78 28.6944
21.41664 3.34 2.78 28.6944
21.41664 3.32 2.78 28.6944
17.592840000000002 2.56 2.78 22.3214
17.592840000000002 2.54 2.78 22.3214
21.41664 2.22 2.78 28.6944
28.29636 2.02 2.78 40.1606
28.29636 1.92 2.78 40.1606
124.19999999999999 1.12 2.78 200.0
44.33376 1.02 2.78 66.8896
12.23748 -6.24 2.78 13.3958
17.592840000000002 4.12 2.76 22.3214
17.592840000000002 4.1 2.76 22.3214
21.41664 3.44 2.76 28.6944
21.41664 3.34 2.76 28.6944
17.592840000000002 2.56 2.76 22.3214
17.592840000000002 2.54 2.76 22.3214
28.29636 1.92 2.76 40.1606
28.29636 1.8 2.76 40.1606
44.33376 1.02 2.76 66.8896
44.33376 1.0 2.76 66.8896
12.23748 -6.0 2.76 13.3958
12.23748 -6.24 2.76 13.3958
12.23748 -6.48 2.76 13.3958
17.592840000000002 4.12 2.74 22.3214
21.41664 3.34 2.74 28.6944
17.592840000000002 2.56 2.74 22.3214
17.592840000000002 2.54 2.74 22.3214
28.29636 2.02 2.74 40.1606
28.29636 1.92 2.74 40.1606
44.33376 1.02 2.74 66.8896
44.33376 1.0 2.74 66.8896
44.33376 -3.84 2.74 66.8896
12.23748 -6.26 2.74 13.3958
17.592840000000002 4.12 2.72 22.3214
17.592840000000002 2.56 2.72 22.3214
17.592840000000002 2.54 2.72 22.3214
28.29636 2.02 2.72 40.1606
28.29636 1.78 2.72 40.1606
28.29636 1.64 2.72 40.1606
44.33376 1.02 2.72 66.8896
44.33376 1.0 2.72 66.8896
44.33376 -3.3 2.72 66.8896
12.23748 -6.26 2.72 13.3958
12.23748 -6.48 2.72 13.3958
15.15888 4.84 2.7 18.2648
15.15888 4.8 2.7 18.2648
17.592840000000002 4.12 2.7 22.3214
17.592840000000002 2.56 2.7 22.3214
17.592840000000002 2.54 2.7 22.3214
21.41664 2.42 2.7 28.6944
28.29636 2.02 2.7 40.1606
28.29636 1.78 2.7 40.1606
28.29636 1.74 2.7 40.1606
28.29636 1.72 2.7 40.1606
28.29636 1.64 2.7 40.1606
44.33376 1.02 2.7 66.8896
44.33376 1.0 2.7 66.8896
44.33376 -3.3 2.7 66.8896
12.23748 -6.26 2.7 13.3958
17.592840000000002 4.12 2.68 22.3214
17.592840000000002 2.58 2.68 22.3214
21.41664 2.46 2.68 28.6944
21.41664 2.42 2.68 28.6944
21.41664 2.4 2.68 28.6944
28.29636 2.2 2.68 40.1606
28.29636 2.02 2.68 40.1606
28.29636 1.74 2.68 40.1606
28.29636 1.72 2.68 40.1606
44.33376 1.02 2.68 66.8896
44.33376 1.0 2.68 66.8896
21.41664 3.06 2.66 28.6944
21.41664 2.76 2.66 28.6944
21.41664 2.74 2.66 28.6944
28.29636 1.72 2.66 40.1606
44.33376 1.02 2.66 66.8896
44.33376 1.0 2.66 66.8896
28.29636 0.92 2.66 40.1606
15.15888 4.96 2.64 18.2648
15.15888 4.94 2.64 18.2648
21.41664 3.06 2.64 28.6944
21.41664 2.76 2.64 28.6944
21.41664 2.74 2.64 28.6944
28.29636 2.2 2.64 40.1606
28.29636 1.92 2.64 40.1606
28.29636 1.72 2.64 40.1606
44.33376 0.96 2.64 66.8896
44.33376 -3.3 2.64 66.8896
12.23748 -6.26 2.64 13.3958
17.592840000000002 3.9 2.62 22.3214
21.41664 3.06 2.62 28.6944
21.41664 2.76 2.62 28.6944
44.33376 -3.3 2.62 66.8896
12.23748 -5.88 2.62 13.3958
13.4736 3.8 2.6 15.456
21.41664 2.76 2.6 28.6944
28.29636 1.8 2.6 40.1606
28.29636 0.88 2.6 40.1606
12.23748 -6.06 2.6 13.3958
12.23748 -6.08 2.6 13.3958
11.29218 -6.72 2.6 11.8203
17.592840000000002 3.88 2.58 22.3214
13.4736 3.76 2.58 15.456
28.29636 1.8 2.58 40.1606
28.29636 0.86 2.58 40.1606
28.29636 0.84 2.58 40.1606
44.33376 -3.3 2.58 66.8896
28.29636 -3.94 2.58 40.1606
12.23748 -6.08 2.58 13.3958
11.29218 -6.72 2.58 11.8203
17.592840000000002 3.88 2.56 22.3214
17.592840000000002 3.86 2.56 22.3214
28.29636 1.68 2.56 40.1606
21.41664 1.62 2.56 28.6944
44.33376 -3.3 2.56 66.8896
12.23748 -6.28 2.56 13.3958
12.23748 5.32 2.54 13.3958
17.592840000000002 3.88 2.54 22.3214
21.41664 3.02 2.54 28.6944
21.41664 2.2 2.54 28.6944
28.29636 1.68 2.54 40.1606
28.29636 0.8 2.54 40.1606
12.23748 -6.28 2.54 13.3958
12.23748 5.32 2.52 13.3958
13.4736 5.26 2.52 15.456
13.4736 5.24 2.52 15.456
21.41664 3.86 2.52 28.6944
21.41664 3.02 2.52 28.6944
21.41664 2.2 2.52 28.6944
28.29636 1.68 2.52 40.1606
124.19999999999999 0.92 2.52 200.0
44.33376 0.82 2.52 66.8896
44.33376 0.78 2.52 66.8896
44.33376 -3.3 2.52 66.8896
21.41664 3.88 2.5 28.6944
21.41664 3.86 2.5 28.6944
15.15888 3.8 2.5 18.2648
21.41664 3.66 2.5 28.6944
21.41664 3.64 2.5 28.6944
21.41664 2.76 2.5 28.6944
21.41664 2.2 2.5 28.6944
28.29636 1.68 2.5 40.1606
28.29636 1.66 2.5 40.1606
44.33376 0.8 2.5 66.8896
44.33376 -3.3 2.5 66.8896
12.23748 -6.5 2.5 13.3958
15.15888 5.8 2.48 18.2648
21.41664 3.88 2.48 28.6944
21.41664 3.86 2.48 28.6944
17.592840000000002 3.74 2.48 22.3214
21.41664 3.64 2.48 28.6944
21.41664 2.76 2.48 28.6944
21.41664 2.2 2.48 28.6944
28.29636 1.66 2.48 40.1606
44.33376 -3.3 2.48 66.8896
28.29636 -4.02 2.48 40.1606
28.29636 -4.04 2.48 40.1606
12.23748 -6.04 2.48 13.3958
15.15888 5.82 2.46 18.2648
15.15888 5.8 2.46 18.2648
12.23748 5.26 2.46 13.3958
17.592840000000002 4.14 2.46 22.3214
17.592840000000002 4.12 2.46 22.3214
21.41664 3.86 2.46 28.6944
21.41664 2.76 2.46 28.6944
21.41664 2.2 2.46 28.6944
28.29636 -4.02 2.46 40.1606
17.592840000000002 -4.84 2.46 22.3214
12.23748 -6.28 2.46 13.3958
11.29218 -6.68 2.46 11.8203
15.15888 5.9 2.44 18.2648
15.15888 5.82 2.44 18.2648
15.15888 5.8 2.44 18.2648
12.23748 5.3 2.44 13.3958
17.592840000000002 4.12 2.44 22.3214
21.41664 3.86 2.44 28.6944
21.41664 3.84 2.44 28.6944
21.41664 3.44 2.44 28.6944
21.41664 3.04 2.44 28.6944
21.41664 2.76 2.44 28.6944
21.41664 2.2 2.44 28.6944
28.29636 -4.02 2.44 40.1606
21.41664 -4.76 2.44 28.6944
17.592840000000002 -4.84 2.44 22.3214
12.23748 -6.28 2.44 13.3958
12.23748 -6.3 2.44 13.3958
11.29218 -6.7 2.44 11.8203
15.15888 5.94 2.42 18.2648
15.15888 5.8 2.42 18.2648
21.41664 3.86 2.42 28.6944
21.41664 3.84 2.42 28.6944
21.41664 3.04 2.42 28.6944
21.41664 2.76 2.42 28.6944
21.41664 2.2 2.42 28.6944
28.29636 1.38 2.42 40.1606
21.41664 1.32 2.42 28.6944
12.23748 -6.3 2.42 13.3958
11.29218 -6.7 2.42 11.8203
15.15888 5.94 2.4 18.2648
15.15888 5.92 2.4 18.2648
21.41664 3.86 2.4 28.6944
21.41664 3.84 2.4 28.6944
21.41664 3.3 2.4 28.6944
21.41664 3.04 2.4 28.6944
21.41664 2.76 2.4 28.6944
21.41664 2.2 2.4 28.6944
28.29636 1.56 2.4 40.1606
28.29636 1.38 2.4 40.1606
21.41664 1.3 2.4 28.6944
12.23748 -6.3 2.4 13.3958
11.29218 -6.7 2.4 11.8203
15.15888 5.94 2.38 18.2648
15.15888 5.92 2.38 18.2648
12.23748 5.3 2.38 13.3958
17.592840000000002 4.42 2.38 22.3214
17.592840000000002 4.18 2.38 22.3214
17.592840000000002 4.16 2.38 22.3214
21.41664 3.86 2.38 28.6944
21.41664 3.84 2.38 28.6944
21.41664 3.3 2.38 28.6944
21.41664 3.28 2.38 28.6944
21.41664 3.04 2.38 28.6944
21.41664 2.76 2.38 28.6944
21.41664 2.2 2.38 28.6944
21.41664 1.2 2.38 28.6944
44.33376 -3.3 2.38 66.8896
28.29636 -3.94 2.38 40.1606
12.23748 -6.3 2.38 13.3958
15.15888 5.94 2.36 18.2648
15.15888 5.92 2.36 18.2648
12.23748 5.3 2.36 13.3958
17.592840000000002 4.66 2.36 22.3214
17.592840000000002 4.64 2.36 22.3214
21.41664 3.86 2.36 28.6944
21.41664 3.84 2.36 28.6944
21.41664 3.28 2.36 28.6944
21.41664 3.04 2.36 28.6944
21.41664 2.52 2.36 28.6944
21.41664 2.2 2.36 28.6944
28.29636 1.86 2.36 40.1606
28.29636 1.8 2.36 40.1606
28.29636 1.78 2.36 40.1606
28.29636 1.26 2.36 40.1606
21.41664 1.2 2.36 28.6944
44.33376 -3.3 2.36 66.8896
28.29636 -3.94 2.36 40.1606
12.23748 -6.16 2.36 13.3958
12.23748 -6.3 2.36 13.3958
12.23748 -6.32 2.36 13.3958
15.15888 5.94 2.34 18.2648
15.15888 5.92 2.34 18.2648
15.15888 5.82 2.34 18.2648
13.4736 5.24 2.34 15.456
17.592840000000002 4.68 2.34 22.3214
17.592840000000002 4.66 2.34 22.3214
21.41664 3.86 2.34 28.6944
21.41664 3.84 2.34 28.6944
21.41664 3.04 2.34 28.6944
21.41664 2.2 2.34 28.6944
28.29636 1.8 2.34 40.1606
28.29636 1.78 2.34 40.1606
28.29636 1.26 2.34 40.1606
124.19999999999999 -3.78 2.34 200.0
28.29636 -3.94 2.34 40.1606
12.23748 -6.16 2.34 13.3958
12.23748 -6.32 2.34 13.3958
15.15888 5.94 2.32 18.2648
15.15888 5.92 2.32 18.2648
15.15888 5.32 2.32 18.2648
13.4736 5.24 2.32 15.456
17.592840000000002 4.66 2.32 22.3214
21.41664 3.86 2.32 28.6944
21.41664 3.84 2.32 28.6944
21.41664 3.04 2.32 28.6944
21.41664 3.02 2.32 28.6944
21.41664 2.2 2.32 28.6944
28.29636 1.8 2.32 40.1606
28.29636 -3.94 2.32 40.1606
12.23748 -6.18 2.32 13.3958
12.23748 -6.32 2.32 13.3958
15.15888 5.94 2.3 18.2648
15.15888 5.92 2.3 18.2648
17.592840000000002 4.66 2.3 22.3214
21.41664 3.86 2.3 28.6944
21.41664 3.84 2.3 28.6944
21.41664 2.86 2.3 28.6944
21.41664 2.74 2.3 28.6944
21.41664 2.2 2.3 28.6944
44.33376 1.04 2.3 66.8896
28.29636 -3.94 2.3 40.1606
12.23748 -6.18 2.3 13.3958
12.23748 -6.32 2.3 13.3958
15.15888 5.94 2.28 18.2648
15.15888 5.92 2.28 18.2648
15.15888 5.88 2.28 18.2648
21.41664 3.84 2.28 28.6944
21.41664 2.86 2.28 28.6944
17.592840000000002 2.28 2.28 22.3214
21.41664 2.2 2.28 28.6944
28.29636 1.52 2.28 40.1606
44.33376 1.06 2.28 66.8896
28.29636 -3.94 2.28 40.1606
12.23748 -6.2 2.28 13.3958
15.15888 5.94 2.26 18.2648
15.15888 5.92 2.26 18.2648
12.23748 5.28 2.26 13.3958
12.23748 4.58 2.26 13.3958
21.41664 3.84 2.26 28.6944
21.41664 3.06 2.26 28.6944
21.41664 2.86 2.26 28.6944
28.29636 2.36 2.26 40.1606
17.592840000000002 2.26 2.26 22.3214
21.41664 2.2 2.26 28.6944
28.29636 1.52 2.26 40.1606
124.19999999999999 -2.76 2.26 200.0
124.19999999999999 -2.78 2.26 200.0
44.33376 -3.84 2.26 66.8896
28.29636 -3.94 2.26 40.1606
12.23748 -6.2 2.26 13.3958
12.23748 -6.34 2.26 13.3958
15.15888 5.94 2.24 18.2648
15.15888 5.92 2.24 18.2648
13.4736 5.58 2.24 15.456
12.23748 5.28 2.24 13.3958
13.4736 4.42 2.24 15.456
21.41664 3.84 2.24 28.6944
28.29636 2.36 2.24 40.1606
28.29636 2.34 2.24 40.1606
21.41664 2.2 2.24 28.6944
28.29636 2.1 2.24 40.1606
28.29636 1.52 2.24 40.1606
44.33376 0.16 2.24 66.8896
44.33376 0.14 2.24 66.8896
124.19999999999999 -2.76 2.24 200.0
28.29636 -3.94 2.24 40.1606
12.23748 -6.34 2.24 13.3958
15.15888 5.94 2.22 18.2648
15.15888 5.92 2.22 18.2648
12.23748 5.3 2.22 13.3958
12.23748 5.28 2.22 13.3958
13.4736 4.42 2.22 15.456
13.4736 4.4 2.22 15.456
21.41664 3.84 2.22 28.6944
21.41664 2.2 2.22 28.6944
28.29636 1.0 2.22 40.1606
44.33376 0.16 2.22 66.8896
44.33376 0.14 2.22 66.8896
124.19999999999999 -2.76 2.22 200.0
12.23748 -6.22 2.22 13.3958
12.23748 -6.34 2.22 13.3958
15.15888 5.94 2.2 18.2648
15.15888 5.92 2.2 18.2648
13.4736 5.6 2.2 15.456
13.4736 4.42 2.2 15.456
13.4736 4.4 2.2 15.456
21.41664 3.72 2.2 28.6944
21.41664 2.2 2.2 28.6944
44.33376 0.14 2.2 66.8896
124.19999999999999 -2.98 2.2 200.0
124.19999999999999 -3.0 2.2 200.0
12.23748 -5.72 2.2 13.3958
12.23748 -6.24 2.2 13.3958
15.15888 5.94 2.18 18.2648
15.15888 5.92 2.18 18.2648
13.4736 5.62 2.18 15.456
13.4736 5.54 2.18 15.456
13.4736 4.68 2.18 15.456
13.4736 4.42 2.18 15.456
13.4736 4.4 2.18 15.456
44.33376 1.06 2.18 66.8896
44.33376 1.04 2.18 66.8896
44.33376 0.14 2.18 66.8896
44.33376 0.12 2.18 66.8896
124.19999999999999 -2.78 2.18 200.0
28.29636 -3.94 2.18 40.1606
12.23748 -6.24 2.18 13.3958
15.15888 5.94 2.16 18.2648
15.15888 5.92 2.16 18.2648
13.4736 5.62 2.16 15.456
12.23748 5.28 2.16 13.3958
13.4736 4.4 2.16 15.456
21.41664 3.72 2.16 28.6944
28.29636 2.34 2.16 40.1606
44.33376 1.06 2.16 66.8896
44.33376 0.12 2.16 66.8896
28.29636 -3.94 2.16 40.1606
12.23748 -6.26 2.16 13.3958
15.15888 5.92 2.14 18.2648
12.23748 5.28 2.14 13.3958
13.4736 4.56 2.14 15.456
13.4736 4.4 2.14 15.456
17.592840000000002 3.84 2.14 22.3214
21.41664 3.72 2.14 28.6944
28.29636 1.9 2.14 40.1606
28.29636 1.88 2.14 40.1606
44.33376 1.06 2.14 66.8896
44.33376 0.12 2.14 66.8896
44.33376 0.1 2.14 66.8896
12.23748 -6.26 2.14 13.3958
15.15888 5.92 2.12 18.2648
13.4736 5.52 2.12 15.456
12.23748 5.28 2.12 13.3958
17.592840000000002 4.9 2.12 22.3214
13.4736 4.58 2.12 15.456
13.4736 4.56 2.12 15.456
13.4736 4.42 2.12 15.456
13.4736 4.4 2.12 15.456
13.4736 4.38 2.12 15.456
21.41664 3.72 2.12 28.6944
28.29636 1.9 2.12 40.1606
44.33376 1.06 2.12 66.8896
44.33376 0.1 2.12 66.8896
28.29636 -3.94 2.12 40.1606
15.15888 5.92 2.1 18.2648
13.4736 5.54 2.1 15.456
13.4736 5.52 2.1 15.456
12.23748 5.28 2.1 13.3958
17.592840000000002 5.22 2.1 22.3214
17.592840000000002 4.94 2.1 22.3214
17.592840000000002 4.9 2.1 22.3214
17.592840000000002 4.7 2.1 22.3214
13.4736 4.56 2.1 15.456
21.41664 3.72 2.1 28.6944
21.41664 2.58 2.1 28.6944
15.15888 2.48 2.1 18.2648
28.29636 2.18 2.1 40.1606
28.29636 1.9 2.1 40.1606
44.33376 1.06 2.1 66.8896
44.33376 0.1 2.1 66.8896
44.33376 0.08 2.1 66.8896
12.23748 -0.32 2.1 13.3958
28.29636 -3.94 2.1 40.1606
15.15888 5.92 2.08 18.2648
13.4736 5.54 2.08 15.456
13.4736 5.52 2.08 15.456
12.23748 5.28 2.08 13.3958
17.592840000000002 5.22 2.08 22.3214
17.592840000000002 5.18 2.08 22.3214
17.592840000000002 4.94 2.08 22.3214
17.592840000000002 4.7 2.08 22.3214
21.41664 3.72 2.08 28.6944
21.41664 2.58 2.08 28.6944
21.41664 2.56 2.08 28.6944
21.41664 2.54 2.08 28.6944
15.15888 2.48 2.08 18.2648
28.29636 2.36 2.08 40.1606
28.29636 2.34 2.08 40.1606
28.29636 1.9 2.08 40.1606
44.33376 1.06 2.08 66.8896
44.33376 1.04 2.08 66.8896
17.592840000000002 0.92 2.08 22.3214
17.592840000000002 0.9 2.08 22.3214
44.33376 0.7 2.08 66.8896
44.33376 0.42 2.08 66.8896
44.33376 0.4 2.08 66.8896
44.33376 0.1 2.08 66.8896
44.33376 0.08 2.08 66.8896
12.23748 -0.32 2.08 13.3958
28.29636 -4.12 2.08 40.1606
12.23748 -6.3 2.08 13.3958
15.15888 5.92 2.06 18.2648
12.23748 5.28 2.06 13.3958
17.592840000000002 5.22 2.06 22.3214
17.592840000000002 5.18 2.06 22.3214
17.592840000000002 4.94 2.06 22.3214
17.592840000000002 4.92 2.06 22.3214
17.592840000000002 4.82 2.06 22.3214
17.592840000000002 4.7 2.06 22.3214
21.41664 2.68 2.06 28.6944
21.41664 2.54 2.06 28.6944
28.29636 2.34 2.06 40.1606
44.33376 1.12 2.06 66.8896
28.29636 1.06 2.06 40.1606
17.592840000000002 0.92 2.06 22.3214
17.592840000000002 0.9 2.06 22.3214
44.33376 0.7 2.06 66.8896
44.33376 0.42 2.06 66.8896
44.33376 0.08 2.06 66.8896
12.23748 -0.32 2.06 13.3958
28.29636 -4.12 2.06 40.1606
13.4736 -5.72 2.06 15.456
15.15888 5.92 2.04 18.2648
12.23748 5.28 2.04 13.3958
17.592840000000002 5.22 2.04 22.3214
17.592840000000002 5.18 2.04 22.3214
17.592840000000002 4.94 2.04 22.3214
17.592840000000002 4.92 2.04 22.3214
17.592840000000002 4.82 2.04 22.3214
21.41664 3.86 2.04 28.6944
21.41664 3.74 2.04 28.6944
44.33376 2.4 2.04 66.8896
28.29636 1.9 2.04 40.1606
28.29636 1.06 2.04 40.1606
17.592840000000002 0.9 2.04 22.3214
44.33376 0.42 2.04 66.8896
44.33376 0.08 2.04 66.8896
44.33376 0.06 2.04 66.8896
12.23748 -0.34 2.04 13.3958
13.4736 -5.74 2.04 15.456
15.15888 5.92 2.02 18.2648
12.23748 5.28 2.02 13.3958
17.592840000000002 5.22 2.02 22.3214
17.592840000000002 5.18 2.02 22.3214
17.592840000000002 4.92 2.02 22.3214
17.592840000000002 4.74 2.02 22.3214
21.41664 3.74 2.02 28.6944
21.41664 3.72 2.02 28.6944
21.41664 2.5 2.02 28.6944
28.29636 2.18 2.02 40.1606
21.41664 2.02 2.02 28.6944
28.29636 1.9 2.02 40.1606
44.33376 0.42 2.02 66.8896
44.33376 0.06 2.02 66.8896
12.23748 -0.34 2.02 13.3958
13.4736 -5.76 2.02 15.456
12.23748 -5.86 2.02 13.3958
12.23748 -6.34 2.02 13.3958
12.23748 -6.36 2.02 13.3958
15.15888 5.92 2.0 18.2648
12.23748 5.28 2.0 13.3958
17.592840000000002 5.22 2.0 22.3214
17.592840000000002 5.18 2.0 22.3214
17.592840000000002 4.92 2.0 22.3214
21.41664 3.88 2.0 28.6944
21.41664 3.72 2.0 28.6944
28.29636 2.18 2.0 40.1606
21.41664 2.02 2.0 28.6944
21.41664 2.0 2.0 28.6944
28.29636 1.9 2.0 40.1606
44.33376 0.42 2.0 66.8896
44.33376 0.06 2.0 66.8896
44.33376 0.04 2.0 66.8896
12.23748 -0.34 2.0 13.3958
28.29636 -4.12 2.0 40.1606
12.23748 -6.36 2.0 13.3958
15.15888 5.92 1.98 18.2648
17.592840000000002 5.22 1.98 22.3214
17.592840000000002 5.18 1.98 22.3214
17.592840000000002 4.92 1.98 22.3214
17.592840000000002 4.68 1.98 22.3214
21.41664 3.88 1.98 28.6944
21.41664 2.32 1.98 28.6944
17.592840000000002 2.26 1.98 22.3214
28.29636 2.18 1.98 40.1606
21.41664 2.02 1.98 28.6944
28.29636 1.9 1.98 40.1606
44.33376 0.04 1.98 66.8896
124.19999999999999 -0.24 1.98 200.0
12.23748 -0.34 1.98 13.3958
12.23748 -0.36 1.98 13.3958
12.23748 -5.88 1.98 13.3958
12.23748 -6.36 1.98 13.3958
11.29218 -6.72 1.98 11.8203
15.15888 5.92 1.96 18.2648
17.592840000000002 5.22 1.96 22.3214
17.592840000000002 5.18 1.96 22.3214
17.592840000000002 4.92 1.96 22.3214
17.592840000000002 4.68 1.96 22.3214
17.592840000000002 4.28 1.96 22.3214
21.41664 3.88 1.96 28.6944
21.41664 2.32 1.96 28.6944
21.41664 2.3 1.96 28.6944
17.592840000000002 2.24 1.96 22.3214
28.29636 2.18 1.96 40.1606
21.41664 2.02 1.96 28.6944
28.29636 1.9 1.96 40.1606
28.29636 1.62 1.96 40.1606
44.33376 0.04 1.96 66.8896
44.33376 0.02 1.96 66.8896
17.592840000000002 -0.16 1.96 22.3214
12.23748 -0.36 1.96 13.3958
12.23748 -6.36 1.96 13.3958
15.15888 5.92 1.94 18.2648
15.15888 5.22 1.94 18.2648
15.15888 5.18 1.94 18.2648
17.592840000000002 4.92 1.94 22.3214
17.592840000000002 4.68 1.94 22.3214
17.592840000000002 4.28 1.94 22.3214
15.15888 4.22 1.94 18.2648
17.592840000000002 4.14 1.94 22.3214
21.41664 2.32 1.94 28.6944
21.41664 2.02 1.94 28.6944
28.29636 1.62 1.94 40.1606
44.33376 0.02 1.94 66.8896
17.592840000000002 -0.16 1.94 22.3214
124.19999999999999 -0.26 1.94 200.0
124.19999999999999 -0.34 1.94 200.0
13.4736 -5.8 1.94 15.456
15.15888 5.92 1.92 18.2648
15.15888 5.22 1.92 18.2648
15.15888 5.18 1.92 18.2648
17.592840000000002 4.92 1.92 22.3214
17.592840000000002 4.68 1.92 22.3214
17.592840000000002 4.28 1.92 22.3214
17.592840000000002 4.14 1.92 22.3214
21.41664 3.68 1.92 28.6944
21.41664 2.32 1.92 28.6944
28.29636 2.18 1.92 40.1606
28.29636 1.7 1.92 40.1606
44.33376 0.4 1.92 66.8896
44.33376 0.02 1.92 66.8896
28.29636 -0.06 1.92 40.1606
17.592840000000002 -0.16 1.92 22.3214
124.19999999999999 -0.36 1.92 200.0
12.23748 -6.38 1.92 13.3958
15.15888 5.92 1.9 18.2648
13.4736 5.42 1.9 15.456
15.15888 5.18 1.9 18.2648
17.592840000000002 4.92 1.9 22.3214
17.592840000000002 4.68 1.9 22.3214
17.592840000000002 4.28 1.9 22.3214
17.592840000000002 4.14 1.9 22.3214
28.29636 2.18 1.9 40.1606
28.29636 1.72 1.9 40.1606
28.29636 1.7 1.9 40.1606
44.33376 0.02 1.9 66.8896
28.29636 -0.06 1.9 40.1606
28.29636 -0.18 1.9 40.1606
124.19999999999999 -0.36 1.9 200.0
15.15888 5.92 1.88 18.2648
15.15888 5.9 1.88 18.2648
13.4736 5.42 1.88 15.456
15.15888 5.18 1.88 18.2648
17.592840000000002 4.98 1.88 22.3214
17.592840000000002 4.92 1.88 22.3214
17.592840000000002 4.28 1.88 22.3214
17.592840000000002 4.14 1.88 22.3214
17.592840000000002 3.74 1.88 22.3214
28.29636 2.18 1.88 40.1606
28.29636 1.7 1.88 40.1606
44.33376 0.04 1.88 66.8896
44.33376 0.02 1.88 66.8896
28.29636 -0.06 1.88 40.1606
44.33376 -0.18 1.88 66.8896
44.33376 -0.22 1.88 66.8896
28.29636 -0.28 1.88 40.1606
124.19999999999999 -0.38 1.88 200.0
15.15888 5.92 1.86 18.2648
15.15888 5.9 1.86 18.2648
13.4736 5.42 1.86 15.456
15.15888 5.18 1.86 18.2648
17.592840000000002 4.92 1.86 22.3214
13.4736 4.8 1.86 15.456
17.592840000000002 4.28 1.86 22.3214
17.592840000000002 3.74 1.86 22.3214
28.29636 2.18 1.86 40.1606
28.29636 2.06 1.86 40.1606
28.29636 2.02 1.86 40.1606
28.29636 1.7 1.86 40.1606
44.33376 0.78 1.86 66.8896
44.33376 0.04 1.86 66.8896
28.29636 -0.06 1.86 40.1606
44.33376 -0.18 1.86 66.8896
44.33376 -0.22 1.86 66.8896
124.19999999999999 -0.38 1.86 200.0
15.15888 5.92 1.84 18.2648
15.15888 5.9 1.84 18.2648
13.4736 5.5 1.84 15.456
13.4736 5.42 1.84 15.456
17.592840000000002 4.98 1.84 22.3214
17.592840000000002 4.92 1.84 22.3214
13.4736 4.8 1.84 15.456
17.592840000000002 3.74 1.84 22.3214
28.29636 1.7 1.84 40.1606
44.33376 0.78 1.84 66.8896
44.33376 -0.18 1.84 66.8896
44.33376 -0.22 1.84 66.8896
12.23748 -5.8 1.84 13.3958
15.15888 5.92 1.82 18.2648
15.15888 5.9 1.82 18.2648
13.4736 5.5 1.82 15.456
13.4736 5.42 1.82 15.456
12.23748 5.24 1.82 13.3958
17.592840000000002 4.92 1.82 22.3214
13.4736 4.6 1.82 15.456
17.592840000000002 4.12 1.82 22.3214
17.592840000000002 3.74 1.82 22.3214
17.592840000000002 2.52 1.82 22.3214
21.41664 2.18 1.82 28.6944
28.29636 2.0 1.82 40.1606
44.33376 0.06 1.82 66.8896
12.23748 -5.82 1.82 13.3958
12.23748 -6.66 1.82 13.3958
15.15888 5.9 1.8 18.2648
13.4736 5.42 1.8 15.456
12.23748 5.24 1.8 13.3958
17.592840000000002 3.74 1.8 22.3214
17.592840000000002 2.52 1.8 22.3214
21.41664 2.18 1.8 28.6944
28.29636 1.88 1.8 40.1606
44.33376 0.06 1.8 66.8896
124.19999999999999 -0.4 1.8 200.0
124.19999999999999 -0.44 1.8 200.0
15.15888 5.86 1.78 18.2648
13.4736 5.52 1.78 15.456
13.4736 5.5 1.78 15.456
13.4736 5.42 1.78 15.456
15.15888 5.2 1.78 18.2648
13.4736 5.04 1.78 15.456
17.592840000000002 4.68 1.78 22.3214
21.41664 2.18 1.78 28.6944
28.29636 1.88 1.78 40.1606
44.33376 0.9 1.78 66.8896
44.33376 0.06 1.78 66.8896
15.15888 5.86 1.76 18.2648
13.4736 5.5 1.76 15.456
13.4736 5.42 1.76 15.456
17.592840000000002 4.96 1.76 22.3214
17.592840000000002 4.82 1.76 22.3214
17.592840000000002 3.74 1.76 22.3214
21.41664 2.18 1.76 28.6944
44.33376 0.94 1.76 66.8896
44.33376 0.92 1.76 66.8896
44.33376 0.06 1.76 66.8896
44.33376 -0.5 1.76 66.8896
44.33376 -0.52 1.76 66.8896
15.15888 5.9 1.74 18.2648
15.15888 5.2 1.74 18.2648
17.592840000000002 4.82 1.74 22.3214
17.592840000000002 3.74 1.74 22.3214
21.41664 3.06 1.74 28.6944
21.41664 2.18 1.74 28.6944
44.33376 -0.5 1.74 66.8896
12.23748 -6.3 1.74 13.3958
15.15888 5.2 1.72 18.2648
15.15888 5.18 1.72 18.2648
13.4736 5.12 1.72 15.456
15.15888 4.9 1.72 18.2648
17.592840000000002 4.84 1.72 22.3214
17.592840000000002 4.24 1.72 22.3214
21.41664 3.04 1.72 28.6944
17.592840000000002 2.54 1.72 22.3214
17.592840000000002 2.52 1.72 22.3214
21.41664 2.18 1.72 28.6944
28.29636 1.36 1.72 40.1606
12.23748 -6.3 1.72 13.3958
12.23748 5.48 1.7 13.3958
15.15888 5.2 1.7 18.2648
17.592840000000002 4.76 1.7 22.3214
17.592840000000002 2.54 1.7 22.3214
17.592840000000002 2.52 1.7 22.3214
21.41664 2.18 1.7 28.6944
28.29636 1.36 1.7 40.1606
21.41664 1.28 1.7 28.6944
12.23748 -6.1 1.7 13.3958
12.23748 -6.32 1.7 13.3958
12.23748 5.48 1.68 13.3958
13.4736 5.42 1.68 15.456
15.15888 5.2 1.68 18.2648
17.592840000000002 4.76 1.68 22.3214
21.41664 3.4 1.68 28.6944
17.592840000000002 2.54 1.68 22.3214
17.592840000000002 2.52 1.68 22.3214
21.41664 2.18 1.68 28.6944
28.29636 1.36 1.68 40.1606
21.41664 1.28 1.68 28.6944
28.29636 0.82 1.68 40.1606
12.23748 -6.1 1.68 13.3958
12.23748 5.92 1.66 13.3958
15.15888 5.72 1.66 18.2648
15.15888 5.2 1.66 18.2648
21.41664 3.74 1.66 28.6944
21.41664 3.72 1.66 28.6944
21.41664 3.7 1.66 28.6944
21.41664 3.4 1.66 28.6944
21.41664 3.34 1.66 28.6944
17.592840000000002 2.52 1.66 22.3214
21.41664 2.38 1.66 28.6944
21.41664 2.18 1.66 28.6944
28.29636 1.36 1.66 40.1606
28.29636 1.34 1.66 40.1606
21.41664 1.28 1.66 28.6944
21.41664 1.24 1.66 28.6944
28.29636 0.98 1.66 40.1606
12.23748 -6.34 1.66 13.3958
12.23748 5.92 1.64 13.3958
12.23748 5.88 1.64 13.3958
15.15888 5.72 1.64 18.2648
15.15888 5.2 1.64 18.2648
15.15888 5.18 1.64 18.2648
13.4736 4.96 1.64 15.456
21.41664 3.86 1.64 28.6944
21.41664 3.4 1.64 28.6944
21.41664 3.32 1.64 28.6944
21.41664 3.3 1.64 28.6944
21.41664 2.72 1.64 28.6944
21.41664 2.18 1.64 28.6944
21.41664 2.16 1.64 28.6944
28.29636 1.34 1.64 40.1606
44.33376 -0.14 1.64 66.8896
12.23748 -6.36 1.64 13.3958
12.23748 5.92 1.62 13.3958
12.23748 5.88 1.62 13.3958
13.4736 4.96 1.62 15.456
21.41664 3.4 1.62 28.6944
21.41664 3.32 1.62 28.6944
21.41664 3.3 1.62 28.6944
21.41664 2.74 1.62 28.6944
21.41664 2.72 1.62 28.6944
21.41664 2.18 1.62 28.6944
28.29636 2.12 1.62 40.1606
44.33376 1.04 1.62 66.8896
44.33376 0.4 1.62 66.8896
44.33376 -0.14 1.62 66.8896
12.23748 -6.36 1.62 13.3958
12.23748 5.92 1.6 13.3958
15.15888 4.6 1.6 18.2648
15.15888 4.58 1.6 18.2648
13.4736 3.98 1.6 15.456
21.41664 3.4 1.6 28.6944
21.41664 3.3 1.6 28.6944
21.41664 2.74 1.6 28.6944
21.41664 2.72 1.6 28.6944
21.41664 2.18 1.6 28.6944
28.29636 1.76 1.6 40.1606
44.33376 0.68 1.6 66.8896
44.33376 0.4 1.6 66.8896
13.4736 -0.46 1.6 15.456
12.23748 -5.96 1.6 13.3958
12.23748 -5.98 1.6 13.3958
12.23748 -6.36 1.6 13.3958
12.23748 5.9 1.58 13.3958
13.4736 5.14 1.58 15.456
13.4736 5.12 1.58 15.456
13.4736 5.1 1.58 15.456
13.4736 3.98 1.58 15.456
21.41664 3.3 1.58 28.6944
21.41664 2.74 1.58 28.6944
21.41664 2.72 1.58 28.6944
21.41664 2.18 1.58 28.6944
28.29636 1.76 1.58 40.1606
28.29636 1.34 1.58 40.1606
44.33376 0.96 1.58 66.8896
44.33376 0.4 1.58 66.8896
13.4736 -0.46 1.58 15.456
124.19999999999999 -0.7 1.58 200.0
12.23748 -5.98 1.58 13.3958
12.23748 -6.14 1.58 13.3958
15.15888 5.3 1.56 18.2648
15.15888 5.2 1.56 18.2648
15.15888 5.18 1.56 18.2648
15.15888 5.16 1.56 18.2648
13.4736 5.14 1.56 15.456
21.41664 3.3 1.56 28.6944
21.41664 3.04 1.56 28.6944
21.41664 3.02 1.56 28.6944
21.41664 2.72 1.56 28.6944
21.41664 2.18 1.56 28.6944
28.29636 1.34 1.56 40.1606
44.33376 0.96 1.56 66.8896
44.33376 0.4 1.56 66.8896
13.4736 -0.46 1.56 15.456
124.19999999999999 -0.7 1.56 200.0
124.19999999999999 -0.72 1.56 200.0
12.23748 -6.0 1.56 13.3958
15.15888 5.28 1.54 18.2648
15.15888 5.2 1.54 18.2648
15.15888 5.18 1.54 18.2648
15.15888 4.6 1.54 18.2648
21.41664 3.04 1.54 28.6944
21.41664 2.18 1.54 28.6944
21.41664 2.16 1.54 28.6944
28.29636 1.76 1.54 40.1606
28.29636 1.5 1.54 40.1606
28.29636 1.34 1.54 40.1606
44.33376 1.04 1.54 66.8896
44.33376 0.94 1.54 66.8896
44.33376 0.4 1.54 66.8896
124.19999999999999 -0.72 1.54 200.0
28.29636 -3.26 1.54 40.1606
12.23748 -6.16 1.54 13.3958
12.23748 5.84 1.52 13.3958
12.23748 5.82 1.52 13.3958
15.15888 5.2 1.52 18.2648
15.15888 5.18 1.52 18.2648
15.15888 4.6 1.52 18.2648
21.41664 3.04 1.52 28.6944
21.41664 2.18 1.52 28.6944
21.41664 2.16 1.52 28.6944
28.29636 1.5 1.52 40.1606
44.33376 1.04 1.52 66.8896
44.33376 0.4 1.52 66.8896
44.33376 -0.48 1.52 66.8896
124.19999999999999 -0.74 1.52 200.0
44.33376 -3.06 1.52 66.8896
28.29636 -3.26 1.52 40.1606
12.23748 5.84 1.5 13.3958
12.23748 5.82 1.5 13.3958
12.23748 5.8 1.5 13.3958
15.15888 4.86 1.5 18.2648
21.41664 3.0 1.5 28.6944
21.41664 2.72 1.5 28.6944
44.33376 1.0 1.5 66.8896
44.33376 0.4 1.5 66.8896
124.19999999999999 -0.1 1.5 200.0
124.19999999999999 -0.48 1.5 200.0
124.19999999999999 -0.74 1.5 200.0
12.23748 -6.04 1.5 13.3958
12.23748 -6.18 1.5 13.3958
12.23748 5.82 1.48 13.3958
13.4736 5.7 1.48 15.456
13.4736 5.4 1.48 15.456
13.4736 5.26 1.48 15.456
15.15888 4.82 1.48 18.2648
15.15888 4.8 1.48 18.2648
21.41664 3.0 1.48 28.6944
21.41664 2.74 1.48 28.6944
28.29636 1.34 1.48 40.1606
44.33376 0.4 1.48 66.8896
28.29636 -0.02 1.48 40.1606
124.19999999999999 -0.46 1.48 200.0
124.19999999999999 -0.76 1.48 200.0
12.23748 5.82 1.46 13.3958
13.4736 5.66 1.46 15.456
13.4736 5.4 1.46 15.456
13.4736 5.32 1.46 15.456
13.4736 5.26 1.46 15.456
21.41664 3.0 1.46 28.6944
21.41664 2.74 1.46 28.6944
28.29636 2.18 1.46 40.1606
28.29636 2.16 1.46 40.1606
28.29636 1.34 1.46 40.1606
44.33376 0.06 1.46 66.8896
124.19999999999999 -0.46 1.46 200.0
11.29218 -0.58 1.46 11.8203
124.19999999999999 -0.78 1.46 200.0
124.19999999999999 -0.84 1.46 200.0
124.19999999999999 -0.86 1.46 200.0
12.23748 -6.2 1.46 13.3958
12.23748 5.82 1.44 13.3958
13.4736 5.4 1.44 15.456
13.4736 5.32 1.44 15.456
13.4736 5.28 1.44 15.456
21.41664 3.0 1.44 28.6944
21.41664 2.74 1.44 28.6944
21.41664 2.72 1.44 28.6944
28.29636 2.16 1.44 40.1606
28.29636 1.34 1.44 40.1606
44.33376 0.68 1.44 66.8896
44.33376 0.4 1.44 66.8896
44.33376 0.06 1.44 66.8896
11.29218 -0.58 1.44 11.8203
124.19999999999999 -0.78 1.44 200.0
124.19999999999999 -0.86 1.44 200.0
12.23748 -6.22 1.44 13.3958
12.23748 5.82 1.42 13.3958
13.4736 5.28 1.42 15.456
15.15888 4.66 1.42 18.2648
13.4736 4.26 1.42 15.456
17.592840000000002 4.02 1.42 22.3214
17.592840000000002 4.0 1.42 22.3214
21.41664 3.0 1.42 28.6944
44.33376 0.68 1.42 66.8896
44.33376 0.4 1.42 66.8896
44.33376 -0.1 1.42 66.8896
11.29218 -0.58 1.42 11.8203
124.19999999999999 -0.88 1.42 200.0
124.19999999999999 -2.38 1.42 200.0
124.19999999999999 -2.4 1.42 200.0
13.4736 5.76 1.4 15.456
15.15888 4.68 1.4 18.2648
15.15888 4.66 1.4 18.2648
13.4736 4.28 1.4 15.456
13.4736 4.26 1.4 15.456
21.41664 3.0 1.4 28.6944
21.41664 2.72 1.4 28.6944
44.33376 0.4 1.4 66.8896
13.4736 -0.46 1.4 15.456
11.29218 -0.58 1.4 11.8203
124.19999999999999 -0.8 1.4 200.0
12.23748 -6.24 1.4 13.3958
13.4736 5.78 1.38 15.456
13.4736 5.76 1.38 15.456
13.4736 5.36 1.38 15.456
13.4736 5.34 1.38 15.456
13.4736 5.22 1.38 15.456
15.15888 4.68 1.38 18.2648
15.15888 4.66 1.38 18.2648
21.41664 3.0 1.38 28.6944
21.41664 2.72 1.38 28.6944
44.33376 -0.14 1.38 66.8896
13.4736 -0.46 1.38 15.456
124.19999999999999 -0.8 1.38 200.0
124.19999999999999 -2.34 1.38 200.0
12.23748 -6.24 1.38 13.3958
12.23748 -6.36 1.38 13.3958
13.4736 5.82 1.36 15.456
13.4736 5.8 1.36 15.456
13.4736 5.78 1.36 15.456
13.4736 5.76 1.36 15.456
13.4736 5.44 1.36 15.456
13.4736 5.36 1.36 15.456
13.4736 5.22 1.36 15.456
15.15888 4.68 1.36 18.2648
21.41664 3.0 1.36 28.6944
21.41664 2.72 1.36 28.6944
44.33376 -0.12 1.36 66.8896
44.33376 -0.14 1.36 66.8896
13.4736 -0.46 1.36 15.456
124.19999999999999 -0.8 1.36 200.0
13.4736 5.82 1.34 15.456
13.4736 5.8 1.34 15.456
13.4736 5.78 1.34 15.456
13.4736 5.56 1.34 15.456
13.4736 5.38 1.34 15.456
13.4736 5.36 1.34 15.456
13.4736 5.22 1.34 15.456
13.4736 4.7 1.34 15.456
17.592840000000002 4.08 1.34 22.3214
17.592840000000002 4.06 1.34 22.3214
17.592840000000002 4.04 1.34 22.3214
17.592840000000002 4.02 1.34 22.3214
21.41664 3.0 1.34 28.6944
21.41664 2.72 1.34 28.6944
17.592840000000002 2.24 1.34 22.3214
28.29636 1.62 1.34 40.1606
44.33376 -0.12 1.34 66.8896
44.33376 -0.14 1.34 66.8896
13.4736 -0.46 1.34 15.456
124.19999999999999 -0.82 1.34 200.0
124.19999999999999 -1.02 1.34 200.0
12.23748 -6.36 1.34 13.3958
13.4736 5.82 1.32 15.456
13.4736 5.76 1.32 15.456
13.4736 5.56 1.32 15.456
13.4736 5.42 1.32 15.456
13.4736 5.36 1.32 15.456
13.4736 5.22 1.32 15.456
13.4736 4.74 1.32 15.456
17.592840000000002 4.08 1.32 22.3214
17.592840000000002 4.06 1.32 22.3214
17.592840000000002 4.0 1.32 22.3214
21.41664 3.0 1.32 28.6944
21.41664 2.72 1.32 28.6944
28.29636 2.34 1.32 40.1606
28.29636 2.32 1.32 40.1606
17.592840000000002 2.24 1.32 22.3214
28.29636 1.88 1.32 40.1606
28.29636 1.86 1.32 40.1606
124.19999999999999 -0.12 1.32 200.0
124.19999999999999 -0.14 1.32 200.0
13.4736 -0.46 1.32 15.456
124.19999999999999 -0.82 1.32 200.0
124.19999999999999 -1.04 1.32 200.0
12.23748 -6.36 1.32 13.3958
13.4736 5.84 1.3 15.456
13.4736 5.42 1.3 15.456
13.4736 5.38 1.3 15.456
13.4736 5.22 1.3 15.456
13.4736 4.74 1.3 15.456
17.592840000000002 4.08 1.3 22.3214
15.15888 3.52 1.3 18.2648
21.41664 3.0 1.3 28.6944
21.41664 2.72 1.3 28.6944
28.29636 2.34 1.3 40.1606
28.29636 2.32 1.3 40.1606
28.29636 1.88 1.3 40.1606
28.29636 1.86 1.3 40.1606
124.19999999999999 -0.12 1.3 200.0
124.19999999999999 -0.14 1.3 200.0
13.4736 -0.46 1.3 15.456
12.23748 -0.52 1.3 13.3958
124.19999999999999 -0.84 1.3 200.0
124.19999999999999 -1.04 1.3 200.0
13.4736 5.38 1.28 15.456
13.4736 5.24 1.28 15.456
13.4736 4.78 1.28 15.456
21.41664 3.62 1.28 28.6944
21.41664 3.6 1.28 28.6944
15.15888 3.52 1.28 18.2648
21.41664 3.0 1.28 28.6944
21.41664 2.72 1.28 28.6944
21.41664 2.4 1.28 28.6944
28.29636 2.32 1.28 40.1606
28.29636 1.88 1.28 40.1606
124.19999999999999 -0.12 1.28 200.0
124.19999999999999 -0.14 1.28 200.0
13.4736 -0.46 1.28 15.456
124.19999999999999 -0.84 1.28 200.0
124.19999999999999 -1.04 1.28 200.0
13.4736 5.38 1.26 15.456
13.4736 5.26 1.26 15.456
13.4736 5.24 1.26 15.456
13.4736 4.7 1.26 15.456
13.4736 4.68 1.26 15.456
17.592840000000002 3.72 1.26 22.3214
15.15888 3.52 1.26 18.2648
21.41664 3.4 1.26 28.6944
21.41664 3.0 1.26 28.6944
21.41664 2.4 1.26 28.6944
21.41664 2.16 1.26 28.6944
28.29636 1.88 1.26 40.1606
124.19999999999999 -0.12 1.26 200.0
124.19999999999999 -0.14 1.26 200.0
13.4736 -0.46 1.26 15.456
44.33376 -0.92 1.26 66.8896
124.19999999999999 -1.06 1.26 200.0
124.19999999999999 -2.36 1.26 200.0
12.23748 -6.18 1.26 13.3958
13.4736 5.38 1.24 15.456
13.4736 5.34 1.24 15.456
13.4736 5.26 1.24 15.456
13.4736 4.8 1.24 15.456
13.4736 4.72 1.24 15.456
17.592840000000002 3.72 1.24 22.3214
21.41664 3.26 1.24 28.6944
21.41664 3.24 1.24 28.6944
21.41664 3.0 1.24 28.6944
21.41664 2.82 1.24 28.6944
21.41664 2.4 1.24 28.6944
28.29636 2.32 1.24 40.1606
21.41664 2.16 1.24 28.6944
28.29636 1.88 1.24 40.1606
124.19999999999999 -0.12 1.24 200.0
124.19999999999999 -0.14 1.24 200.0
13.4736 -0.46 1.24 15.456
124.19999999999999 -0.86 1.24 200.0
124.19999999999999 -1.06 1.24 200.0
12.23748 -6.28 1.24 13.3958
12.23748 -6.38 1.24 13.3958
13.4736 5.28 1.22 15.456
13.4736 5.26 1.22 15.456
15.15888 4.78 1.22 18.2648
15.15888 4.74 1.22 18.2648
13.4736 4.4 1.22 15.456
17.592840000000002 3.72 1.22 22.3214
21.41664 3.26 1.22 28.6944
21.41664 3.24 1.22 28.6944
21.41664 3.0 1.22 28.6944
21.41664 2.82 1.22 28.6944
21.41664 2.4 1.22 28.6944
21.41664 2.16 1.22 28.6944
28.29636 1.88 1.22 40.1606
124.19999999999999 -0.12 1.22 200.0
124.19999999999999 -0.14 1.22 200.0
13.4736 -0.46 1.22 15.456
124.19999999999999 -0.86 1.22 200.0
124.19999999999999 -1.06 1.22 200.0
124.19999999999999 -2.34 1.22 200.0
13.4736 5.5 1.2 15.456
13.4736 5.28 1.2 15.456
15.15888 4.76 1.2 18.2648
13.4736 4.3 1.2 15.456
21.41664 2.84 1.2 28.6944
21.41664 2.4 1.2 28.6944
21.41664 2.16 1.2 28.6944
28.29636 1.88 1.2 40.1606
28.29636 1.6 1.2 40.1606
124.19999999999999 -0.12 1.2 200.0
124.19999999999999 -0.14 1.2 200.0
124.19999999999999 -0.86 1.2 200.0
124.19999999999999 -2.2 1.2 200.0
44.33376 -2.7 1.2 66.8896
13.4736 5.82 1.18 15.456
13.4736 5.28 1.18 15.456
13.4736 5.26 1.18 15.456
15.15888 4.76 1.18 18.2648
13.4736 4.5 1.18 15.456
21.41664 2.4 1.18 28.6944
21.41664 2.16 1.18 28.6944
28.29636 1.88 1.18 40.1606
28.29636 1.6 1.18 40.1606
124.19999999999999 -0.12 1.18 200.0
124.19999999999999 -0.14 1.18 200.0
124.19999999999999 -0.86 1.18 200.0
124.19999999999999 -1.12 1.18 200.0
12.23748 -6.32 1.18 13.3958
13.4736 5.44 1.16 15.456
13.4736 5.42 1.16 15.456
13.4736 5.28 1.16 15.456
13.4736 5.26 1.16 15.456
15.15888 4.78 1.16 18.2648
15.15888 4.76 1.16 18.2648
21.41664 3.7 1.16 28.6944
21.41664 2.4 1.16 28.6944
21.41664 2.16 1.16 28.6944
28.29636 1.98 1.16 40.1606
28.29636 1.88 1.16 40.1606
124.19999999999999 -0.46 1.16 200.0
124.19999999999999 -0.84 1.16 200.0
124.19999999999999 -1.14 1.16 200.0
28.29636 -4.18 1.16 40.1606
12.23748 -6.48 1.16 13.3958
13.4736 5.44 1.14 15.456
13.4736 5.42 1.14 15.456
13.4736 5.32 1.14 15.456
13.4736 5.3 1.14 15.456
13.4736 5.28 1.14 15.456
13.4736 4.52 1.14 15.456
13.4736 4.14 1.14 15.456
21.41664 2.4 1.14 28.6944
21.41664 2.16 1.14 28.6944
28.29636 1.98 1.14 40.1606
28.29636 1.88 1.14 40.1606
28.29636 1.86 1.14 40.1606
17.592840000000002 1.76 1.14 22.3214
44.33376 0.68 1.14 66.8896
44.33376 0.4 1.14 66.8896
44.33376 0.38 1.14 66.8896
124.19999999999999 -0.48 1.14 200.0
124.19999999999999 -0.84 1.14 200.0
124.19999999999999 -1.14 1.14 200.0
124.19999999999999 -1.16 1.14 200.0
13.4736 5.76 1.12 15.456
13.4736 5.44 1.12 15.456
13.4736 5.34 1.12 15.456
13.4736 5.32 1.12 15.456
15.15888 4.88 1.12 18.2648
15.15888 4.84 1.12 18.2648
15.15888 4.8 1.12 18.2648
13.4736 4.52 1.12 15.456
13.4736 4.26 1.12 15.456
13.4736 4.24 1.12 15.456
21.41664 3.72 1.12 28.6944
21.41664 3.7 1.12 28.6944
21.41664 2.8 1.12 28.6944
21.41664 2.4 1.12 28.6944
21.41664 2.16 1.12 28.6944
28.29636 1.98 1.12 40.1606
28.29636 1.86 1.12 40.1606
28.29636 1.68 1.12 40.1606
28.29636 0.88 1.12 40.1606
44.33376 0.68 1.12 66.8896
44.33376 0.4 1.12 66.8896
44.33376 0.38 1.12 66.8896
44.33376 -0.74 1.12 66.8896
124.19999999999999 -0.84 1.12 200.0
124.19999999999999 -1.16 1.12 200.0
124.19999999999999 -2.12 1.12 200.0
44.33376 -2.18 1.12 66.8896
12.23748 -6.2 1.12 13.3958
13.4736 5.74 1.1 15.456
13.4736 5.66 1.1 15.456
13.4736 5.64 1.1 15.456
13.4736 5.46 1.1 15.456
13.4736 5.44 1.1 15.456
13.4736 5.34 1.1 15.456
13.4736 5.32 1.1 15.456
15.15888 4.88 1.1 18.2648
15.15888 4.84 1.1 18.2648
13.4736 4.32 1.1 15.456
13.4736 4.3 1.1 15.456
21.41664 3.72 1.1 28.6944
21.41664 3.7 1.1 28.6944
21.41664 2.4 1.1 28.6944
21.41664 2.16 1.1 28.6944
28.29636 1.98 1.1 40.1606
28.29636 1.68 1.1 40.1606
28.29636 0.9 1.1 40.1606
28.29636 0.88 1.1 40.1606
44.33376 0.4 1.1 66.8896
124.19999999999999 -0.84 1.1 200.0
124.19999999999999 -1.18 1.1 200.0
124.19999999999999 -2.12 1.1 200.0
44.33376 -2.18 1.1 66.8896
124.19999999999999 -2.32 1.1 200.0
44.33376 -2.38 1.1 66.8896
13.4736 5.72 1.08 15.456
13.4736 5.66 1.08 15.456
13.4736 5.52 1.08 15.456
13.4736 5.46 1.08 15.456
13.4736 5.36 1.08 15.456
13.4736 5.34 1.08 15.456
15.15888 4.8 1.08 18.2648
15.15888 4.78 1.08 18.2648
13.4736 4.36 1.08 15.456
13.4736 4.34 1.08 15.456
21.41664 2.4 1.08 28.6944
21.41664 2.16 1.08 28.6944
28.29636 1.86 1.08 40.1606
28.29636 1.68 1.08 40.1606
44.33376 0.68 1.08 66.8896
44.33376 0.4 1.08 66.8896
44.33376 0.38 1.08 66.8896
15.15888 -0.4 1.08 18.2648
13.4736 -0.46 1.08 15.456
11.29218 -0.6 1.08 11.8203
124.19999999999999 -2.32 1.08 200.0
44.33376 -2.38 1.08 66.8896
124.19999999999999 -3.16 1.08 200.0
13.4736 5.64 1.06 15.456
13.4736 5.52 1.06 15.456
13.4736 5.46 1.06 15.456
13.4736 5.38 1.06 15.456
13.4736 5.36 1.06 15.456
15.15888 4.82 1.06 18.2648
15.15888 4.8 1.06 18.2648
15.15888 4.78 1.06 18.2648
13.4736 4.38 1.06 15.456
17.592840000000002 3.72 1.06 22.3214
17.592840000000002 3.7 1.06 22.3214
21.41664 2.4 1.06 28.6944
21.41664 2.16 1.06 28.6944
28.29636 1.86 1.06 40.1606
44.33376 0.4 1.06 66.8896
44.33376 0.38 1.06 66.8896
124.19999999999999 -0.12 1.06 200.0
124.19999999999999 -1.24 1.06 200.0
124.19999999999999 -2.24 1.06 200.0
12.23748 -6.22 1.06 13.3958
13.4736 5.64 1.04 15.456
13.4736 5.62 1.04 15.456
13.4736 5.46 1.04 15.456
13.4736 5.38 1.04 15.456
17.592840000000002 5.3 1.04 22.3214
13.4736 4.62 1.04 15.456
13.4736 4.6 1.04 15.456
13.4736 4.54 1.04 15.456
13.4736 4.52 1.04 15.456
13.4736 4.42 1.04 15.456
17.592840000000002 3.72 1.04 22.3214
21.41664 2.4 1.04 28.6944
21.41664 2.16 1.04 28.6944
28.29636 1.86 1.04 40.1606
44.33376 0.38 1.04 66.8896
124.19999999999999 -0.12 1.04 200.0
15.15888 -0.4 1.04 18.2648
13.4736 -0.46 1.04 15.456
124.19999999999999 -1.26 1.04 200.0
124.19999999999999 -2.22 1.04 200.0
124.19999999999999 -2.24 1.04 200.0
13.4736 5.62 1.02 15.456
13.4736 5.4 1.02 15.456
13.4736 5.38 1.02 15.456
13.4736 4.58 1.02 15.456
13.4736 4.56 1.02 15.456
13.4736 4.54 1.02 15.456
13.4736 4.52 1.02 15.456
15.15888 4.5 1.02 18.2648
15.15888 4.48 1.02 18.2648
17.592840000000002 3.78 1.02 22.3214
21.41664 2.4 1.02 28.6944
21.41664 2.16 1.02 28.6944
44.33376 1.04 1.02 66.8896
44.33376 0.38 1.02 66.8896
124.19999999999999 -0.12 1.02 200.0
15.15888 -0.4 1.02 18.2648
12.23748 -0.52 1.02 13.3958
8.665944 -0.88 1.02 7.44324
28.29636 -3.52 1.02 40.1606
13.4736 5.56 1.0 15.456
13.4736 5.54 1.0 15.456
13.4736 5.38 1.0 15.456
17.592840000000002 3.78 1.0 22.3214
17.592840000000002 3.72 1.0 22.3214
17.592840000000002 3.68 1.0 22.3214
17.592840000000002 2.54 1.0 22.3214
17.592840000000002 2.52 1.0 22.3214
21.41664 2.4 1.0 28.6944
21.41664 2.14 1.0 28.6944
28.29636 1.96 1.0 40.1606
28.29636 1.86 1.0 40.1606
44.33376 1.02 1.0 66.8896
44.33376 0.38 1.0 66.8896
124.19999999999999 -0.12 1.0 200.0
15.15888 -0.4 1.0 18.2648
13.4736 -0.46 1.0 15.456
12.23748 -0.52 1.0 13.3958
124.19999999999999 -1.3 1.0 200.0
13.4736 5.54 0.98 15.456
13.4736 5.52 0.98 15.456
13.4736 5.38 0.98 15.456
17.592840000000002 3.78 0.98 22.3214
21.41664 3.06 0.98 28.6944
17.592840000000002 2.54 0.98 22.3214
17.592840000000002 2.52 0.98 22.3214
28.29636 2.14 0.98 40.1606
28.29636 1.96 0.98 40.1606
28.29636 1.86 0.98 40.1606
44.33376 1.02 0.98 66.8896
