VERSION .7
FIELDS x y z rgb
SIZE 4 4 4 4
TYPE F F F F
COUNT 1 1 1 1
WIDTH 1656
HEIGHT 1
VIEWPOINT 0 0 0 1 0 0 0
POINTS 1656
DATA ascii
12.23748 5.86 2.58 13.3958
17.592840000000002 4.48 2.58 22.3214
21.41664 4.18 2.58 28.6944
21.41664 4.16 2.58 28.6944
17.592840000000002 4.06 2.58 22.3214
21.41664 3.3 2.58 28.6944
21.41664 3.02 2.58 28.6944
21.41664 2.44 2.58 28.6944
21.41664 2.42 2.58 28.6944
28.29636 1.88 2.58 40.1606
124.19999999999999 1.08 2.58 200.0
44.33376 0.98 2.58 66.8896
28.29636 -3.94 2.58 40.1606
11.29218 -6.48 2.58 11.8203
12.23748 5.86 2.56 13.3958
12.23748 5.76 2.56 13.3958
21.41664 4.18 2.56 28.6944
21.41664 4.16 2.56 28.6944
17.592840000000002 4.06 2.56 22.3214
21.41664 3.74 2.56 28.6944
21.41664 3.3 2.56 28.6944
21.41664 3.02 2.56 28.6944
21.41664 3.0 2.56 28.6944
44.33376 0.98 2.56 66.8896
28.29636 -3.94 2.56 40.1606
12.23748 -6.42 2.56 13.3958
11.29218 -6.48 2.56 11.8203
12.23748 5.86 2.54 13.3958
12.23748 5.76 2.54 13.3958
21.41664 4.18 2.54 28.6944
21.41664 4.16 2.54 28.6944
17.592840000000002 4.06 2.54 22.3214
21.41664 3.72 2.54 28.6944
21.41664 3.3 2.54 28.6944
21.41664 3.0 2.54 28.6944
28.29636 -3.94 2.54 40.1606
12.23748 -6.26 2.54 13.3958
11.29218 -6.32 2.54 11.8203
11.29218 -6.34 2.54 11.8203
12.23748 -6.42 2.54 13.3958
11.29218 -6.48 2.54 11.8203
12.23748 5.86 2.52 13.3958
12.23748 5.76 2.52 13.3958
21.41664 4.16 2.52 28.6944
17.592840000000002 4.06 2.52 22.3214
21.41664 3.3 2.52 28.6944
21.41664 2.44 2.52 28.6944
44.33376 -3.18 2.52 66.8896
12.23748 -6.26 2.52 13.3958
12.23748 -6.28 2.52 13.3958
11.29218 -6.34 2.52 11.8203
12.23748 -6.42 2.52 13.3958
11.29218 -6.5 2.52 11.8203
13.4736 5.74 2.5 15.456
17.592840000000002 4.84 2.5 22.3214
17.592840000000002 4.82 2.5 22.3214
17.592840000000002 4.8 2.5 22.3214
17.592840000000002 4.78 2.5 22.3214
17.592840000000002 4.7 2.5 22.3214
17.592840000000002 4.18 2.5 22.3214
17.592840000000002 4.16 2.5 22.3214
21.41664 3.58 2.5 28.6944
21.41664 3.56 2.5 28.6944
21.41664 3.3 2.5 28.6944
21.41664 3.02 2.5 28.6944
21.41664 3.0 2.5 28.6944
21.41664 2.42 2.5 28.6944
28.29636 1.56 2.5 40.1606
12.23748 -6.28 2.5 13.3958
12.23748 -6.42 2.5 13.3958
11.29218 -6.5 2.5 11.8203
13.4736 5.74 2.48 15.456
12.23748 5.04 2.48 13.3958
12.23748 5.02 2.48 13.3958
17.592840000000002 4.16 2.48 22.3214
21.41664 3.58 2.48 28.6944
21.41664 3.56 2.48 28.6944
21.41664 3.3 2.48 28.6944
21.41664 2.8 2.48 28.6944
21.41664 2.42 2.48 28.6944
28.29636 1.76 2.48 40.1606
12.23748 -6.44 2.48 13.3958
11.29218 -6.5 2.48 11.8203
12.23748 5.06 2.46 13.3958
17.592840000000002 4.16 2.46 22.3214
21.41664 3.3 2.46 28.6944
21.41664 3.0 2.46 28.6944
21.41664 2.42 2.46 28.6944
28.29636 1.76 2.46 40.1606
21.41664 1.38 2.46 28.6944
12.23748 -6.44 2.46 13.3958
12.23748 5.84 2.44 13.3958
12.23748 5.06 2.44 13.3958
12.23748 5.04 2.44 13.3958
12.23748 4.96 2.44 13.3958
12.23748 4.88 2.44 13.3958
17.592840000000002 4.16 2.44 22.3214
17.592840000000002 4.02 2.44 22.3214
21.41664 3.3 2.44 28.6944
21.41664 3.0 2.44 28.6944
21.41664 2.42 2.44 28.6944
28.29636 2.0 2.44 40.1606
28.29636 1.98 2.44 40.1606
28.29636 1.44 2.44 40.1606
21.41664 1.38 2.44 28.6944
11.29218 -5.88 2.44 11.8203
11.29218 -6.38 2.44 11.8203
12.23748 -6.44 2.44 13.3958
12.23748 5.84 2.42 13.3958
12.23748 5.8 2.42 13.3958
12.23748 5.1 2.42 13.3958
12.23748 5.06 2.42 13.3958
12.23748 5.04 2.42 13.3958
12.23748 4.88 2.42 13.3958
17.592840000000002 4.16 2.42 22.3214
21.41664 3.3 2.42 28.6944
21.41664 3.0 2.42 28.6944
21.41664 2.42 2.42 28.6944
28.29636 2.02 2.42 40.1606
28.29636 2.0 2.42 40.1606
28.29636 1.44 2.42 40.1606
21.41664 1.38 2.42 28.6944
12.23748 -6.44 2.42 13.3958
11.29218 -6.52 2.42 11.8203
12.23748 5.84 2.4 13.3958
12.23748 5.8 2.4 13.3958
12.23748 4.96 2.4 13.3958
12.23748 4.88 2.4 13.3958
17.592840000000002 4.16 2.4 22.3214
17.592840000000002 4.02 2.4 22.3214
21.41664 3.12 2.4 28.6944
21.41664 3.0 2.4 28.6944
21.41664 2.42 2.4 28.6944
28.29636 2.02 2.4 40.1606
28.29636 1.44 2.4 40.1606
12.23748 -6.44 2.4 13.3958
12.23748 -6.46 2.4 13.3958
12.23748 5.84 2.38 13.3958
12.23748 5.8 2.38 13.3958
12.23748 4.96 2.38 13.3958
12.23748 4.88 2.38 13.3958
17.592840000000002 4.16 2.38 22.3214
17.592840000000002 4.02 2.38 22.3214
21.41664 3.12 2.38 28.6944
21.41664 3.0 2.38 28.6944
28.29636 2.58 2.38 40.1606
21.41664 2.42 2.38 28.6944
28.29636 1.22 2.38 40.1606
28.29636 1.2 2.38 40.1606
11.29218 -5.9 2.38 11.8203
12.23748 -6.46 2.38 13.3958
12.23748 5.84 2.36 13.3958
12.23748 5.8 2.36 13.3958
15.15888 5.56 2.36 18.2648
12.23748 4.96 2.36 13.3958
12.23748 4.88 2.36 13.3958
17.592840000000002 4.16 2.36 22.3214
21.41664 3.32 2.36 28.6944
21.41664 3.12 2.36 28.6944
28.29636 2.58 2.36 40.1606
17.592840000000002 2.5 2.36 22.3214
21.41664 2.42 2.36 28.6944
28.29636 1.72 2.36 40.1606
28.29636 1.22 2.36 40.1606
12.23748 -5.78 2.36 13.3958
12.23748 -5.8 2.36 13.3958
11.29218 -5.92 2.36 11.8203
12.23748 -6.42 2.36 13.3958
12.23748 5.84 2.34 13.3958
12.23748 5.8 2.34 13.3958
13.4736 5.14 2.34 15.456
12.23748 4.88 2.34 13.3958
12.23748 4.86 2.34 13.3958
17.592840000000002 4.16 2.34 22.3214
21.41664 3.12 2.34 28.6944
21.41664 3.0 2.34 28.6944
28.29636 2.6 2.34 40.1606
28.29636 2.58 2.34 40.1606
21.41664 2.42 2.34 28.6944
28.29636 1.72 2.34 40.1606
12.23748 -5.8 2.34 13.3958
12.23748 -6.34 2.34 13.3958
12.23748 5.84 2.32 13.3958
15.15888 5.62 2.32 18.2648
12.23748 5.16 2.32 13.3958
12.23748 4.88 2.32 13.3958
12.23748 4.86 2.32 13.3958
17.592840000000002 4.16 2.32 22.3214
28.29636 2.58 2.32 40.1606
21.41664 2.42 2.32 28.6944
11.29218 -6.0 2.32 11.8203
12.23748 5.84 2.3 13.3958
12.23748 4.86 2.3 13.3958
17.592840000000002 4.16 2.3 22.3214
28.29636 2.58 2.3 40.1606
21.41664 2.42 2.3 28.6944
28.29636 1.18 2.3 40.1606
44.33376 0.32 2.3 66.8896
44.33376 0.3 2.3 66.8896
124.19999999999999 -2.64 2.3 200.0
11.29218 -6.02 2.3 11.8203
12.23748 5.84 2.28 13.3958
15.15888 5.62 2.28 18.2648
12.23748 5.22 2.28 13.3958
12.23748 5.2 2.28 13.3958
12.23748 4.86 2.28 13.3958
17.592840000000002 4.16 2.28 22.3214
21.41664 2.42 2.28 28.6944
44.33376 0.3 2.28 66.8896
124.19999999999999 -2.62 2.28 200.0
124.19999999999999 -2.64 2.28 200.0
12.23748 -6.14 2.28 13.3958
12.23748 -6.38 2.28 13.3958
12.23748 5.84 2.26 13.3958
12.23748 5.8 2.26 13.3958
15.15888 5.62 2.26 18.2648
12.23748 5.22 2.26 13.3958
13.4736 5.04 2.26 15.456
13.4736 5.02 2.26 15.456
17.592840000000002 4.16 2.26 22.3214
21.41664 3.1 2.26 28.6944
21.41664 2.42 2.26 28.6944
28.29636 1.22 2.26 40.1606
44.33376 0.3 2.26 66.8896
44.33376 0.28 2.26 66.8896
124.19999999999999 -2.62 2.26 200.0
28.29636 -3.0 2.26 40.1606
12.23748 5.84 2.24 13.3958
12.23748 5.8 2.24 13.3958
15.15888 5.64 2.24 18.2648
17.592840000000002 4.16 2.24 22.3214
28.29636 2.58 2.24 40.1606
21.41664 2.42 2.24 28.6944
28.29636 2.06 2.24 40.1606
44.33376 1.24 2.24 66.8896
44.33376 1.22 2.24 66.8896
44.33376 0.3 2.24 66.8896
44.33376 0.28 2.24 66.8896
124.19999999999999 -2.84 2.24 200.0
124.19999999999999 -2.86 2.24 200.0
28.29636 -3.76 2.24 40.1606
12.23748 -6.4 2.24 13.3958
11.29218 -6.48 2.24 11.8203
12.23748 5.84 2.22 13.3958
12.23748 5.8 2.22 13.3958
15.15888 5.64 2.22 18.2648
13.4736 5.08 2.22 15.456
17.592840000000002 4.16 2.22 22.3214
21.41664 2.42 2.22 28.6944
28.29636 2.1 2.22 40.1606
44.33376 1.24 2.22 66.8896
17.592840000000002 1.12 2.22 22.3214
44.33376 0.28 2.22 66.8896
44.33376 0.26 2.22 66.8896
124.19999999999999 -2.64 2.22 200.0
124.19999999999999 -2.84 2.22 200.0
12.23748 -5.82 2.22 13.3958
12.23748 -5.84 2.22 13.3958
12.23748 -6.18 2.22 13.3958
12.23748 5.84 2.2 13.3958
12.23748 5.8 2.2 13.3958
15.15888 5.64 2.2 18.2648
17.592840000000002 5.34 2.2 22.3214
13.4736 5.16 2.2 15.456
13.4736 5.1 2.2 15.456
17.592840000000002 2.76 2.2 22.3214
21.41664 2.42 2.2 28.6944
28.29636 2.1 2.2 40.1606
44.33376 1.24 2.2 66.8896
17.592840000000002 1.12 2.2 22.3214
44.33376 0.28 2.2 66.8896
44.33376 0.26 2.2 66.8896
12.23748 5.84 2.18 13.3958
12.23748 5.8 2.18 13.3958
15.15888 5.64 2.18 18.2648
17.592840000000002 5.34 2.18 22.3214
13.4736 5.18 2.18 15.456
17.592840000000002 2.82 2.18 22.3214
28.29636 2.58 2.18 40.1606
21.41664 2.42 2.18 28.6944
28.29636 2.06 2.18 40.1606
17.592840000000002 1.12 2.18 22.3214
44.33376 0.26 2.18 66.8896
28.29636 -4.06 2.18 40.1606
15.15888 -4.3 2.18 18.2648
12.23748 -5.86 2.18 13.3958
12.23748 5.84 2.16 13.3958
12.23748 5.8 2.16 13.3958
15.15888 5.64 2.16 18.2648
17.592840000000002 5.38 2.16 22.3214
13.4736 5.2 2.16 15.456
21.41664 2.92 2.16 28.6944
17.592840000000002 2.82 2.16 22.3214
17.592840000000002 2.8 2.16 22.3214
28.29636 2.58 2.16 40.1606
21.41664 2.42 2.16 28.6944
28.29636 1.24 2.16 40.1606
17.592840000000002 1.12 2.16 22.3214
44.33376 0.26 2.16 66.8896
44.33376 0.24 2.16 66.8896
12.23748 -0.16 2.16 13.3958
28.29636 -4.04 2.16 40.1606
12.23748 -5.54 2.16 13.3958
12.23748 -5.96 2.16 13.3958
11.29218 -6.04 2.16 11.8203
12.23748 -6.46 2.16 13.3958
12.23748 5.8 2.14 13.3958
15.15888 5.64 2.14 18.2648
17.592840000000002 2.8 2.14 22.3214
21.41664 2.66 2.14 28.6944
21.41664 2.42 2.14 28.6944
124.19999999999999 1.38 2.14 200.0
44.33376 1.3 2.14 66.8896
28.29636 1.24 2.14 40.1606
44.33376 0.86 2.14 66.8896
44.33376 0.58 2.14 66.8896
44.33376 0.56 2.14 66.8896
44.33376 0.24 2.14 66.8896
12.23748 -0.16 2.14 13.3958
28.29636 -4.04 2.14 40.1606
12.23748 -5.98 2.14 13.3958
12.23748 -6.46 2.14 13.3958
15.15888 5.64 2.12 18.2648
13.4736 5.24 2.12 15.456
17.592840000000002 4.22 2.12 22.3214
17.592840000000002 4.2 2.12 22.3214
17.592840000000002 4.0 2.12 22.3214
21.41664 2.42 2.12 28.6944
44.33376 1.3 2.12 66.8896
28.29636 1.24 2.12 40.1606
44.33376 0.58 2.12 66.8896
44.33376 0.56 2.12 66.8896
44.33376 0.24 2.12 66.8896
44.33376 0.22 2.12 66.8896
12.23748 -0.16 2.12 13.3958
12.23748 -0.18 2.12 13.3958
28.29636 -4.04 2.12 40.1606
12.23748 -6.48 2.12 13.3958
12.23748 5.82 2.1 13.3958
15.15888 5.64 2.1 18.2648
15.15888 5.36 2.1 18.2648
17.592840000000002 4.2 2.1 22.3214
17.592840000000002 4.04 2.1 22.3214
17.592840000000002 4.0 2.1 22.3214
21.41664 2.42 2.1 28.6944
21.41664 2.24 2.1 28.6944
28.29636 2.1 2.1 40.1606
44.33376 0.58 2.1 66.8896
44.33376 0.24 2.1 66.8896
44.33376 0.22 2.1 66.8896
12.23748 -0.18 2.1 13.3958
12.23748 -6.48 2.1 13.3958
12.23748 5.82 2.08 13.3958
12.23748 5.78 2.08 13.3958
15.15888 5.64 2.08 18.2648
15.15888 5.36 2.08 18.2648
17.592840000000002 5.06 2.08 22.3214
17.592840000000002 4.62 2.08 22.3214
17.592840000000002 4.2 2.08 22.3214
21.41664 2.42 2.08 28.6944
21.41664 2.4 2.08 28.6944
21.41664 2.24 2.08 28.6944
28.29636 2.1 2.08 40.1606
44.33376 0.58 2.08 66.8896
44.33376 0.22 2.08 66.8896
12.23748 -0.18 2.08 13.3958
28.29636 -4.04 2.08 40.1606
12.23748 -6.48 2.08 13.3958
15.15888 5.64 2.06 18.2648
15.15888 5.36 2.06 18.2648
17.592840000000002 5.06 2.06 22.3214
17.592840000000002 4.62 2.06 22.3214
17.592840000000002 4.2 2.06 22.3214
21.41664 2.56 2.06 28.6944
21.41664 2.54 2.06 28.6944
21.41664 2.42 2.06 28.6944
28.29636 2.1 2.06 40.1606
44.33376 0.58 2.06 66.8896
44.33376 0.22 2.06 66.8896
44.33376 0.2 2.06 66.8896
12.23748 -0.18 2.06 13.3958
28.29636 -4.04 2.06 40.1606
12.23748 -6.3 2.06 13.3958
12.23748 -6.48 2.06 13.3958
15.15888 5.64 2.04 18.2648
15.15888 5.36 2.04 18.2648
17.592840000000002 4.62 2.04 22.3214
17.592840000000002 4.48 2.04 22.3214
17.592840000000002 4.46 2.04 22.3214
21.41664 4.0 2.04 28.6944
21.41664 2.56 2.04 28.6944
21.41664 2.54 2.04 28.6944
21.41664 2.42 2.04 28.6944
21.41664 2.4 2.04 28.6944
28.29636 2.1 2.04 40.1606
28.29636 1.82 2.04 40.1606
44.33376 0.58 2.04 66.8896
44.33376 0.2 2.04 66.8896
12.23748 -0.2 2.04 13.3958
11.29218 -6.08 2.04 11.8203
11.29218 -6.1 2.04 11.8203
12.23748 5.8 2.02 13.3958
15.15888 5.64 2.02 18.2648
15.15888 5.36 2.02 18.2648
17.592840000000002 4.62 2.02 22.3214
17.592840000000002 4.48 2.02 22.3214
17.592840000000002 4.46 2.02 22.3214
17.592840000000002 4.0 2.02 22.3214
21.41664 2.56 2.02 28.6944
21.41664 2.42 2.02 28.6944
28.29636 2.1 2.02 40.1606
28.29636 1.82 2.02 40.1606
44.33376 0.18 2.02 66.8896
17.592840000000002 0.0 2.02 22.3214
12.23748 -0.2 2.02 13.3958
12.23748 -0.22 2.02 13.3958
12.23748 -5.98 2.02 13.3958
11.29218 -6.1 2.02 11.8203
13.4736 5.94 2.0 15.456
15.15888 5.64 2.0 18.2648
15.15888 5.36 2.0 18.2648
17.592840000000002 4.62 2.0 22.3214
17.592840000000002 4.48 2.0 22.3214
17.592840000000002 4.2 2.0 22.3214
21.41664 2.56 2.0 28.6944
21.41664 2.42 2.0 28.6944
28.29636 2.1 2.0 40.1606
28.29636 1.96 2.0 40.1606
44.33376 0.18 2.0 66.8896
17.592840000000002 0.0 2.0 22.3214
12.23748 -6.34 2.0 13.3958
13.4736 5.94 1.98 15.456
12.23748 5.78 1.98 13.3958
15.15888 5.62 1.98 18.2648
15.15888 5.36 1.98 18.2648
13.4736 5.24 1.98 15.456
17.592840000000002 4.62 1.98 22.3214
17.592840000000002 4.48 1.98 22.3214
17.592840000000002 4.46 1.98 22.3214
17.592840000000002 4.2 1.98 22.3214
17.592840000000002 4.04 1.98 22.3214
28.29636 2.1 1.98 40.1606
28.29636 1.92 1.98 40.1606
28.29636 1.9 1.98 40.1606
44.33376 0.18 1.98 66.8896
44.33376 0.16 1.98 66.8896
17.592840000000002 0.0 1.98 22.3214
124.19999999999999 -0.12 1.98 200.0
124.19999999999999 -0.2 1.98 200.0
12.23748 -6.1 1.98 13.3958
12.23748 5.78 1.96 13.3958
15.15888 5.62 1.96 18.2648
15.15888 5.36 1.96 18.2648
17.592840000000002 4.62 1.96 22.3214
17.592840000000002 4.56 1.96 22.3214
17.592840000000002 4.46 1.96 22.3214
17.592840000000002 4.2 1.96 22.3214
17.592840000000002 4.04 1.96 22.3214
17.592840000000002 4.0 1.96 22.3214
28.29636 2.4 1.96 40.1606
28.29636 2.1 1.96 40.1606
28.29636 1.92 1.96 40.1606
28.29636 1.9 1.96 40.1606
44.33376 0.58 1.96 66.8896
44.33376 0.56 1.96 66.8896
44.33376 0.18 1.96 66.8896
44.33376 0.16 1.96 66.8896
28.29636 0.1 1.96 40.1606
28.29636 0.08 1.96 40.1606
124.19999999999999 -0.2 1.96 200.0
124.19999999999999 -0.22 1.96 200.0
12.23748 -5.88 1.96 13.3958
12.23748 -5.9 1.96 13.3958
12.23748 5.78 1.94 13.3958
12.23748 5.74 1.94 13.3958
17.592840000000002 4.62 1.94 22.3214
17.592840000000002 4.56 1.94 22.3214
17.592840000000002 4.46 1.94 22.3214
17.592840000000002 4.04 1.94 22.3214
17.592840000000002 4.0 1.94 22.3214
28.29636 2.4 1.94 40.1606
28.29636 1.9 1.94 40.1606
44.33376 0.18 1.94 66.8896
44.33376 0.16 1.94 66.8896
28.29636 0.1 1.94 40.1606
28.29636 0.08 1.94 40.1606
28.29636 -0.02 1.94 40.1606
124.19999999999999 -0.22 1.94 200.0
12.23748 -5.92 1.94 13.3958
12.23748 5.94 1.92 13.3958
17.592840000000002 4.62 1.92 22.3214
17.592840000000002 4.56 1.92 22.3214
17.592840000000002 4.46 1.92 22.3214
17.592840000000002 4.04 1.92 22.3214
17.592840000000002 4.0 1.92 22.3214
28.29636 2.2 1.92 40.1606
28.29636 1.9 1.92 40.1606
44.33376 0.94 1.92 66.8896
44.33376 0.18 1.92 66.8896
124.19999999999999 -0.02 1.92 200.0
44.33376 -0.08 1.92 66.8896
13.4736 5.94 1.9 15.456
12.23748 5.76 1.9 13.3958
15.15888 5.58 1.9 18.2648
13.4736 5.36 1.9 15.456
17.592840000000002 4.62 1.9 22.3214
17.592840000000002 4.56 1.9 22.3214
17.592840000000002 4.46 1.9 22.3214
17.592840000000002 4.04 1.9 22.3214
17.592840000000002 4.0 1.9 22.3214
17.592840000000002 2.8 1.9 22.3214
28.29636 2.4 1.9 40.1606
28.29636 2.2 1.9 40.1606
28.29636 1.9 1.9 40.1606
44.33376 0.96 1.9 66.8896
28.29636 0.08 1.9 40.1606
124.19999999999999 -0.02 1.9 200.0
44.33376 -0.08 1.9 66.8896
12.23748 -6.5 1.9 13.3958
12.23748 5.76 1.88 13.3958
15.15888 5.62 1.88 18.2648
15.15888 5.4 1.88 18.2648
13.4736 5.36 1.88 15.456
13.4736 5.32 1.88 15.456
17.592840000000002 4.56 1.88 22.3214
17.592840000000002 4.04 1.88 22.3214
17.592840000000002 4.0 1.88 22.3214
17.592840000000002 2.8 1.88 22.3214
28.29636 1.9 1.88 40.1606
124.19999999999999 -0.02 1.88 200.0
12.23748 -6.5 1.88 13.3958
15.15888 5.62 1.86 18.2648
13.4736 5.34 1.86 15.456
13.4736 5.32 1.86 15.456
17.592840000000002 5.22 1.86 22.3214
17.592840000000002 4.6 1.86 22.3214
17.592840000000002 4.44 1.86 22.3214
17.592840000000002 4.04 1.86 22.3214
17.592840000000002 4.0 1.86 22.3214
28.29636 2.4 1.86 40.1606
28.29636 1.9 1.86 40.1606
44.33376 0.22 1.86 66.8896
124.19999999999999 -0.24 1.86 200.0
124.19999999999999 -0.28 1.86 200.0
12.23748 -6.4 1.86 13.3958
15.15888 5.64 1.84 18.2648
15.15888 5.62 1.84 18.2648
13.4736 5.34 1.84 15.456
13.4736 5.32 1.84 15.456
17.592840000000002 5.2 1.84 22.3214
17.592840000000002 4.04 1.84 22.3214
17.592840000000002 4.0 1.84 22.3214
21.41664 2.4 1.84 28.6944
44.33376 1.08 1.84 66.8896
44.33376 0.22 1.84 66.8896
12.23748 -6.42 1.84 13.3958
12.23748 -6.52 1.84 13.3958
12.23748 5.82 1.82 13.3958
12.23748 5.76 1.82 13.3958
15.15888 5.64 1.82 18.2648
15.15888 5.62 1.82 18.2648
13.4736 5.34 1.82 15.456
17.592840000000002 4.04 1.82 22.3214
17.592840000000002 4.0 1.82 22.3214
21.41664 3.32 1.82 28.6944
17.592840000000002 2.8 1.82 22.3214
21.41664 2.4 1.82 28.6944
44.33376 1.1 1.82 66.8896
44.33376 0.22 1.82 66.8896
12.23748 -6.0 1.82 13.3958
11.29218 -6.1 1.82 11.8203
12.23748 -6.18 1.82 13.3958
12.23748 5.76 1.8 13.3958
15.15888 5.64 1.8 18.2648
15.15888 5.62 1.8 18.2648
13.4736 4.96 1.8 15.456
13.4736 4.94 1.8 15.456
17.592840000000002 4.04 1.8 22.3214
17.592840000000002 4.0 1.8 22.3214
17.592840000000002 2.82 1.8 22.3214
17.592840000000002 2.8 1.8 22.3214
21.41664 2.4 1.8 28.6944
44.33376 -0.34 1.8 66.8896
44.33376 -0.36 1.8 66.8896
12.23748 -6.02 1.8 13.3958
12.23748 -6.2 1.8 13.3958
12.23748 -6.44 1.8 13.3958
13.4736 5.4 1.78 15.456
17.592840000000002 5.14 1.78 22.3214
17.592840000000002 4.2 1.78 22.3214
17.592840000000002 4.04 1.78 22.3214
17.592840000000002 2.82 1.78 22.3214
17.592840000000002 2.8 1.78 22.3214
17.592840000000002 2.74 1.78 22.3214
21.41664 2.4 1.78 28.6944
15.15888 5.64 1.76 18.2648
15.15888 5.62 1.76 18.2648
13.4736 5.08 1.76 15.456
17.592840000000002 4.2 1.76 22.3214
17.592840000000002 4.04 1.76 22.3214
17.592840000000002 4.0 1.76 22.3214
21.41664 3.68 1.76 28.6944
17.592840000000002 2.82 1.76 22.3214
17.592840000000002 2.8 1.76 22.3214
21.41664 2.4 1.76 28.6944
28.29636 1.54 1.76 40.1606
12.23748 -6.46 1.76 13.3958
15.15888 5.62 1.74 18.2648
15.15888 5.6 1.74 18.2648
13.4736 5.02 1.74 15.456
17.592840000000002 4.18 1.74 22.3214
17.592840000000002 4.04 1.74 22.3214
17.592840000000002 4.02 1.74 22.3214
17.592840000000002 4.0 1.74 22.3214
21.41664 3.68 1.74 28.6944
21.41664 3.64 1.74 28.6944
21.41664 3.58 1.74 28.6944
17.592840000000002 2.8 1.74 22.3214
21.41664 2.62 1.74 28.6944
21.41664 2.4 1.74 28.6944
28.29636 1.54 1.74 40.1606
28.29636 1.0 1.74 40.1606
12.23748 -6.46 1.74 13.3958
12.23748 -6.48 1.74 13.3958
15.15888 5.62 1.72 18.2648
21.41664 3.7 1.72 28.6944
21.41664 3.68 1.72 28.6944
21.41664 3.6 1.72 28.6944
21.41664 3.58 1.72 28.6944
21.41664 2.98 1.72 28.6944
21.41664 2.96 1.72 28.6944
21.41664 2.4 1.72 28.6944
28.29636 1.54 1.72 40.1606
28.29636 1.46 1.72 40.1606
28.29636 1.42 1.72 40.1606
124.19999999999999 0.04 1.72 200.0
12.23748 -6.06 1.72 13.3958
12.23748 -6.22 1.72 13.3958
12.23748 -6.6 1.72 13.3958
12.23748 5.68 1.7 13.3958
15.15888 5.62 1.7 18.2648
13.4736 4.4 1.7 15.456
21.41664 3.68 1.7 28.6944
21.41664 3.6 1.7 28.6944
21.41664 3.58 1.7 28.6944
21.41664 2.98 1.7 28.6944
21.41664 2.4 1.7 28.6944
21.41664 2.34 1.7 28.6944
28.29636 1.54 1.7 40.1606
28.29636 1.46 1.7 40.1606
28.29636 1.42 1.7 40.1606
12.23748 -6.08 1.7 13.3958
12.23748 -6.24 1.7 13.3958
12.23748 -6.48 1.7 13.3958
12.23748 5.82 1.68 13.3958
12.23748 5.7 1.68 13.3958
15.15888 5.62 1.68 18.2648
21.41664 3.58 1.68 28.6944
21.41664 2.98 1.68 28.6944
21.41664 2.4 1.68 28.6944
28.29636 1.54 1.68 40.1606
44.33376 1.22 1.68 66.8896
17.592840000000002 0.38 1.68 22.3214
11.29218 -5.68 1.68 11.8203
12.23748 -6.24 1.68 13.3958
12.23748 -6.48 1.68 13.3958
12.23748 5.76 1.66 13.3958
15.15888 5.62 1.66 18.2648
17.592840000000002 4.58 1.66 22.3214
21.41664 3.58 1.66 28.6944
21.41664 2.98 1.66 28.6944
21.41664 2.4 1.66 28.6944
28.29636 1.54 1.66 40.1606
44.33376 0.86 1.66 66.8896
44.33376 0.56 1.66 66.8896
124.19999999999999 0.04 1.66 200.0
13.4736 -0.3 1.66 15.456
12.23748 -6.26 1.66 13.3958
12.23748 -6.48 1.66 13.3958
12.23748 5.9 1.64 13.3958
15.15888 5.62 1.64 18.2648
13.4736 5.38 1.64 15.456
13.4736 5.34 1.64 15.456
13.4736 5.12 1.64 15.456
13.4736 5.06 1.64 15.456
17.592840000000002 4.6 1.64 22.3214
21.41664 3.58 1.64 28.6944
21.41664 3.3 1.64 28.6944
21.41664 2.98 1.64 28.6944
21.41664 2.4 1.64 28.6944
28.29636 1.96 1.64 40.1606
28.29636 1.74 1.64 40.1606
44.33376 1.12 1.64 66.8896
44.33376 0.56 1.64 66.8896
124.19999999999999 0.04 1.64 200.0
28.29636 -3.16 1.64 40.1606
12.23748 -6.26 1.64 13.3958
12.23748 -6.48 1.64 13.3958
15.15888 5.62 1.62 18.2648
15.15888 5.6 1.62 18.2648
13.4736 5.12 1.62 15.456
13.4736 5.06 1.62 15.456
13.4736 4.28 1.62 15.456
21.41664 3.3 1.62 28.6944
21.41664 2.4 1.62 28.6944
44.33376 1.12 1.62 66.8896
44.33376 0.56 1.62 66.8896
124.19999999999999 0.04 1.62 200.0
124.19999999999999 -0.56 1.62 200.0
12.23748 -6.14 1.62 13.3958
12.23748 -6.26 1.62 13.3958
12.23748 5.92 1.6 13.3958
12.23748 5.86 1.6 13.3958
17.592840000000002 5.6 1.6 22.3214
13.4736 5.32 1.6 15.456
13.4736 4.28 1.6 15.456
21.41664 3.3 1.6 28.6944
21.41664 2.4 1.6 28.6944
28.29636 1.7 1.6 40.1606
124.19999999999999 1.22 1.6 200.0
44.33376 1.12 1.6 66.8896
44.33376 0.56 1.6 66.8896
124.19999999999999 0.04 1.6 200.0
124.19999999999999 -0.56 1.6 200.0
124.19999999999999 -0.58 1.6 200.0
28.29636 -3.16 1.6 40.1606
12.23748 -6.16 1.6 13.3958
12.23748 5.88 1.58 13.3958
13.4736 5.76 1.58 15.456
13.4736 5.3 1.58 15.456
21.41664 3.26 1.58 28.6944
21.41664 2.4 1.58 28.6944
28.29636 1.96 1.58 40.1606
28.29636 1.7 1.58 40.1606
124.19999999999999 1.22 1.58 200.0
124.19999999999999 1.18 1.58 200.0
44.33376 1.12 1.58 66.8896
44.33376 0.56 1.58 66.8896
124.19999999999999 0.04 1.58 200.0
124.19999999999999 -0.58 1.58 200.0
28.29636 -3.16 1.58 40.1606
12.23748 -6.16 1.58 13.3958
13.4736 5.78 1.56 15.456
13.4736 5.76 1.56 15.456
21.41664 3.26 1.56 28.6944
21.41664 2.98 1.56 28.6944
21.41664 2.4 1.56 28.6944
124.19999999999999 1.18 1.56 200.0
44.33376 1.12 1.56 66.8896
44.33376 0.56 1.56 66.8896
124.19999999999999 0.04 1.56 200.0
44.33376 -0.34 1.56 66.8896
124.19999999999999 -0.6 1.56 200.0
12.23748 -6.18 1.56 13.3958
12.23748 5.94 1.54 13.3958
12.23748 5.92 1.54 13.3958
13.4736 5.78 1.54 15.456
13.4736 5.76 1.54 15.456
13.4736 5.16 1.54 15.456
13.4736 5.1 1.54 15.456
21.41664 3.26 1.54 28.6944
21.41664 2.98 1.54 28.6944
21.41664 2.4 1.54 28.6944
21.41664 2.38 1.54 28.6944
28.29636 1.54 1.54 40.1606
44.33376 0.56 1.54 66.8896
124.19999999999999 0.04 1.54 200.0
44.33376 -0.34 1.54 66.8896
124.19999999999999 -0.6 1.54 200.0
12.23748 5.9 1.52 13.3958
13.4736 5.78 1.52 15.456
13.4736 5.12 1.52 15.456
13.4736 5.1 1.52 15.456
13.4736 4.7 1.52 15.456
13.4736 4.04 1.52 15.456
21.41664 3.26 1.52 28.6944
21.41664 2.98 1.52 28.6944
21.41664 2.4 1.52 28.6944
21.41664 2.38 1.52 28.6944
28.29636 1.54 1.52 40.1606
44.33376 0.56 1.52 66.8896
44.33376 0.2 1.52 66.8896
28.29636 0.14 1.52 40.1606
124.19999999999999 -0.62 1.52 200.0
12.23748 5.9 1.5 13.3958
15.15888 5.68 1.5 18.2648
13.4736 5.12 1.5 15.456
13.4736 4.72 1.5 15.456
21.41664 3.26 1.5 28.6944
21.41664 2.98 1.5 28.6944
28.29636 2.38 1.5 40.1606
28.29636 1.52 1.5 40.1606
44.33376 0.22 1.5 66.8896
44.33376 0.2 1.5 66.8896
12.23748 -6.2 1.5 13.3958
12.23748 5.9 1.48 13.3958
12.23748 5.88 1.48 13.3958
13.4736 5.8 1.48 15.456
13.4736 5.14 1.48 15.456
13.4736 5.12 1.48 15.456
21.41664 3.26 1.48 28.6944
21.41664 2.98 1.48 28.6944
28.29636 2.4 1.48 40.1606
28.29636 1.5 1.48 40.1606
44.33376 0.84 1.48 66.8896
44.33376 0.56 1.48 66.8896
124.19999999999999 -0.64 1.48 200.0
124.19999999999999 -0.72 1.48 200.0
12.23748 -6.2 1.48 13.3958
12.23748 -6.22 1.48 13.3958
12.23748 5.9 1.46 13.3958
13.4736 5.14 1.46 15.456
13.4736 4.46 1.46 15.456
13.4736 4.02 1.46 15.456
21.41664 3.26 1.46 28.6944
44.33376 0.56 1.46 66.8896
124.19999999999999 -0.74 1.46 200.0
124.19999999999999 -2.26 1.46 200.0
12.23748 -6.48 1.46 13.3958
12.23748 5.9 1.44 13.3958
13.4736 5.84 1.44 15.456
13.4736 5.22 1.44 15.456
13.4736 5.16 1.44 15.456
13.4736 5.14 1.44 15.456
17.592840000000002 4.46 1.44 22.3214
17.592840000000002 4.44 1.44 22.3214
17.592840000000002 4.18 1.44 22.3214
21.41664 3.26 1.44 28.6944
21.41664 2.96 1.44 28.6944
124.19999999999999 -0.66 1.44 200.0
12.23748 -6.48 1.44 13.3958
12.23748 5.9 1.42 13.3958
13.4736 5.22 1.42 15.456
13.4736 5.16 1.42 15.456
17.592840000000002 4.42 1.42 22.3214
17.592840000000002 4.4 1.42 22.3214
17.592840000000002 4.38 1.42 22.3214
21.41664 3.26 1.42 28.6944
21.41664 2.96 1.42 28.6944
124.19999999999999 -0.66 1.42 200.0
12.23748 -6.48 1.42 13.3958
12.23748 5.9 1.4 13.3958
13.4736 5.72 1.4 15.456
13.4736 5.22 1.4 15.456
13.4736 5.16 1.4 15.456
17.592840000000002 4.44 1.4 22.3214
17.592840000000002 4.42 1.4 22.3214
17.592840000000002 4.4 1.4 22.3214
21.41664 3.26 1.4 28.6944
21.41664 2.96 1.4 28.6944
21.41664 2.6 1.4 28.6944
28.29636 2.54 1.4 40.1606
124.19999999999999 0.04 1.4 200.0
12.23748 -0.36 1.4 13.3958
124.19999999999999 -0.66 1.4 200.0
124.19999999999999 -0.88 1.4 200.0
12.23748 -6.48 1.4 13.3958
13.4736 5.9 1.38 15.456
13.4736 5.24 1.38 15.456
13.4736 5.22 1.38 15.456
13.4736 5.1 1.38 15.456
13.4736 5.08 1.38 15.456
17.592840000000002 4.42 1.38 22.3214
21.41664 3.62 1.38 28.6944
21.41664 3.26 1.38 28.6944
21.41664 2.96 1.38 28.6944
21.41664 2.6 1.38 28.6944
21.41664 2.56 1.38 28.6944
28.29636 2.08 1.38 40.1606
28.29636 2.06 1.38 40.1606
124.19999999999999 0.04 1.38 200.0
13.4736 -0.3 1.38 15.456
124.19999999999999 -0.68 1.38 200.0
124.19999999999999 -0.88 1.38 200.0
12.23748 -6.48 1.38 13.3958
13.4736 5.24 1.36 15.456
13.4736 5.14 1.36 15.456
13.4736 5.12 1.36 15.456
21.41664 3.92 1.36 28.6944
21.41664 3.26 1.36 28.6944
21.41664 3.08 1.36 28.6944
21.41664 2.96 1.36 28.6944
21.41664 2.64 1.36 28.6944
21.41664 2.56 1.36 28.6944
28.29636 2.08 1.36 40.1606
124.19999999999999 0.04 1.36 200.0
15.15888 -0.24 1.36 18.2648
124.19999999999999 -0.68 1.36 200.0
124.19999999999999 -0.9 1.36 200.0
12.23748 -6.48 1.36 13.3958
13.4736 5.9 1.34 15.456
13.4736 5.26 1.34 15.456
13.4736 5.24 1.34 15.456
13.4736 5.18 1.34 15.456
13.4736 5.16 1.34 15.456
13.4736 4.82 1.34 15.456
17.592840000000002 4.04 1.34 22.3214
21.41664 3.26 1.34 28.6944
21.41664 2.96 1.34 28.6944
21.41664 2.64 1.34 28.6944
28.29636 2.08 1.34 40.1606
124.19999999999999 0.04 1.34 200.0
124.19999999999999 -0.7 1.34 200.0
124.19999999999999 -0.9 1.34 200.0
13.4736 5.78 1.32 15.456
13.4736 5.26 1.32 15.456
13.4736 5.2 1.32 15.456
13.4736 5.18 1.32 15.456
13.4736 4.84 1.32 15.456
17.592840000000002 4.1 1.32 22.3214
17.592840000000002 4.04 1.32 22.3214
13.4736 3.9 1.32 15.456
21.41664 3.54 1.32 28.6944
21.41664 3.52 1.32 28.6944
21.41664 3.26 1.32 28.6944
21.41664 2.96 1.32 28.6944
21.41664 2.64 1.32 28.6944
21.41664 2.38 1.32 28.6944
28.29636 2.08 1.32 40.1606
124.19999999999999 0.04 1.32 200.0
124.19999999999999 0.0 1.32 200.0
124.19999999999999 -0.9 1.32 200.0
13.4736 5.28 1.3 15.456
13.4736 5.26 1.3 15.456
13.4736 5.2 1.3 15.456
13.4736 4.94 1.3 15.456
13.4736 4.88 1.3 15.456
13.4736 4.74 1.3 15.456
13.4736 4.54 1.3 15.456
17.592840000000002 4.1 1.3 22.3214
13.4736 3.9 1.3 15.456
21.41664 3.54 1.3 28.6944
21.41664 3.52 1.3 28.6944
21.41664 3.26 1.3 28.6944
21.41664 2.96 1.3 28.6944
21.41664 2.64 1.3 28.6944
21.41664 2.38 1.3 28.6944
28.29636 2.08 1.3 40.1606
124.19999999999999 0.04 1.3 200.0
13.4736 -0.32 1.3 15.456
44.33376 -0.78 1.3 66.8896
124.19999999999999 -0.92 1.3 200.0
124.19999999999999 -2.24 1.3 200.0
12.23748 -6.14 1.3 13.3958
13.4736 5.3 1.28 15.456
13.4736 5.28 1.28 15.456
13.4736 5.22 1.28 15.456
13.4736 4.9 1.28 15.456
13.4736 4.76 1.28 15.456
17.592840000000002 4.12 1.28 22.3214
17.592840000000002 4.1 1.28 22.3214
21.41664 4.0 1.28 28.6944
21.41664 3.1 1.28 28.6944
21.41664 3.08 1.28 28.6944
21.41664 2.96 1.28 28.6944
21.41664 2.64 1.28 28.6944
21.41664 2.38 1.28 28.6944
44.33376 0.04 1.28 66.8896
44.33376 0.0 1.28 66.8896
13.4736 -0.32 1.28 15.456
124.19999999999999 -0.72 1.28 200.0
124.19999999999999 -0.92 1.28 200.0
124.19999999999999 -2.22 1.28 200.0
12.23748 -6.42 1.28 13.3958
13.4736 5.8 1.26 15.456
13.4736 5.78 1.26 15.456
13.4736 5.32 1.26 15.456
13.4736 5.3 1.26 15.456
13.4736 5.24 1.26 15.456
13.4736 5.22 1.26 15.456
13.4736 4.96 1.26 15.456
13.4736 4.92 1.26 15.456
17.592840000000002 4.12 1.26 22.3214
21.41664 4.0 1.26 28.6944
21.41664 3.1 1.26 28.6944
21.41664 3.08 1.26 28.6944
21.41664 2.64 1.26 28.6944
21.41664 2.38 1.26 28.6944
28.29636 2.08 1.26 40.1606
28.29636 1.8 1.26 40.1606
44.33376 0.92 1.26 66.8896
124.19999999999999 0.0 1.26 200.0
124.19999999999999 -0.72 1.26 200.0
124.19999999999999 -0.92 1.26 200.0
124.19999999999999 -2.2 1.26 200.0
12.23748 -6.44 1.26 13.3958
12.23748 5.94 1.24 13.3958
13.4736 5.82 1.24 15.456
13.4736 5.8 1.24 15.456
13.4736 5.78 1.24 15.456
13.4736 5.32 1.24 15.456
13.4736 5.24 1.24 15.456
13.4736 4.96 1.24 15.456
21.41664 4.0 1.24 28.6944
21.41664 2.64 1.24 28.6944
21.41664 2.38 1.24 28.6944
28.29636 2.2 1.24 40.1606
28.29636 2.08 1.24 40.1606
28.29636 1.8 1.24 40.1606
44.33376 0.94 1.24 66.8896
44.33376 0.0 1.24 66.8896
124.19999999999999 -0.72 1.24 200.0
124.19999999999999 -2.06 1.24 200.0
44.33376 -2.58 1.24 66.8896
12.23748 -6.16 1.24 13.3958
12.23748 -6.3 1.24 13.3958
12.23748 -6.44 1.24 13.3958
13.4736 5.84 1.22 15.456
13.4736 5.82 1.22 15.456
13.4736 5.32 1.22 15.456
13.4736 5.26 1.22 15.456
13.4736 5.24 1.22 15.456
13.4736 4.98 1.22 15.456
13.4736 4.96 1.22 15.456
13.4736 4.58 1.22 15.456
13.4736 4.56 1.22 15.456
21.41664 4.0 1.22 28.6944
21.41664 2.74 1.22 28.6944
21.41664 2.64 1.22 28.6944
21.41664 2.38 1.22 28.6944
28.29636 2.2 1.22 40.1606
28.29636 2.18 1.22 40.1606
28.29636 2.08 1.22 40.1606
28.29636 1.72 1.22 40.1606
44.33376 0.04 1.22 66.8896
124.19999999999999 -0.72 1.22 200.0
124.19999999999999 -0.98 1.22 200.0
124.19999999999999 -2.06 1.22 200.0
124.19999999999999 -2.48 1.22 200.0
11.29218 -6.38 1.22 11.8203
12.23748 -6.44 1.22 13.3958
13.4736 5.86 1.2 15.456
13.4736 5.84 1.2 15.456
13.4736 5.34 1.2 15.456
13.4736 5.32 1.2 15.456
13.4736 5.26 1.2 15.456
13.4736 5.0 1.2 15.456
13.4736 4.98 1.2 15.456
13.4736 4.74 1.2 15.456
13.4736 4.72 1.2 15.456
13.4736 4.7 1.2 15.456
17.592840000000002 4.12 1.2 22.3214
21.41664 4.0 1.2 28.6944
21.41664 3.06 1.2 28.6944
21.41664 2.74 1.2 28.6944
21.41664 2.64 1.2 28.6944
21.41664 2.38 1.2 28.6944
28.29636 2.18 1.2 40.1606
28.29636 2.08 1.2 40.1606
44.33376 0.84 1.2 66.8896
44.33376 0.54 1.2 66.8896
124.19999999999999 -0.7 1.2 200.0
124.19999999999999 -1.0 1.2 200.0
12.23748 -6.44 1.2 13.3958
13.4736 5.86 1.18 15.456
13.4736 5.84 1.18 15.456
13.4736 5.34 1.18 15.456
13.4736 5.26 1.18 15.456
13.4736 5.0 1.18 15.456
13.4736 4.78 1.18 15.456
13.4736 4.76 1.18 15.456
21.41664 4.0 1.18 28.6944
21.41664 3.06 1.18 28.6944
21.41664 2.74 1.18 28.6944
21.41664 2.38 1.18 28.6944
28.29636 2.18 1.18 40.1606
28.29636 2.08 1.18 40.1606
28.29636 1.88 1.18 40.1606
17.592840000000002 1.8 1.18 22.3214
44.33376 0.84 1.18 66.8896
44.33376 0.56 1.18 66.8896
44.33376 0.54 1.18 66.8896
124.19999999999999 -0.7 1.18 200.0
12.23748 -6.44 1.18 13.3958
13.4736 5.88 1.16 15.456
13.4736 5.86 1.16 15.456
13.4736 5.36 1.16 15.456
13.4736 5.26 1.16 15.456
15.15888 5.2 1.16 18.2648
13.4736 4.82 1.16 15.456
13.4736 4.8 1.16 15.456
21.41664 2.74 1.16 28.6944
21.41664 2.38 1.16 28.6944
28.29636 2.18 1.16 40.1606
28.29636 1.88 1.16 40.1606
44.33376 1.08 1.16 66.8896
44.33376 1.06 1.16 66.8896
44.33376 0.84 1.16 66.8896
44.33376 0.56 1.16 66.8896
44.33376 0.54 1.16 66.8896
44.33376 0.16 1.16 66.8896
124.19999999999999 -0.7 1.16 200.0
124.19999999999999 -1.02 1.16 200.0
124.19999999999999 -1.98 1.16 200.0
13.4736 5.94 1.14 15.456
13.4736 5.9 1.14 15.456
13.4736 5.88 1.14 15.456
13.4736 5.36 1.14 15.456
13.4736 5.26 1.14 15.456
12.23748 4.9 1.14 13.3958
12.23748 4.88 1.14 13.3958
13.4736 4.84 1.14 15.456
13.4736 4.82 1.14 15.456
17.592840000000002 4.12 1.14 22.3214
17.592840000000002 4.1 1.14 22.3214
21.41664 4.0 1.14 28.6944
21.41664 2.74 1.14 28.6944
21.41664 2.38 1.14 28.6944
28.29636 2.18 1.14 40.1606
28.29636 1.88 1.14 40.1606
44.33376 1.08 1.14 66.8896
44.33376 0.84 1.14 66.8896
44.33376 0.56 1.14 66.8896
44.33376 0.54 1.14 66.8896
124.19999999999999 -0.7 1.14 200.0
124.19999999999999 -1.04 1.14 200.0
124.19999999999999 -1.98 1.14 200.0
124.19999999999999 -2.18 1.14 200.0
124.19999999999999 -2.26 1.14 200.0
28.29636 -4.1 1.14 40.1606
17.592840000000002 -4.8 1.14 22.3214
13.4736 5.9 1.12 15.456
13.4736 5.88 1.12 15.456
13.4736 5.36 1.12 15.456
13.4736 5.26 1.12 15.456
13.4736 5.0 1.12 15.456
13.4736 4.98 1.12 15.456
13.4736 4.96 1.12 15.456
17.592840000000002 4.12 1.12 22.3214
21.41664 2.62 1.12 28.6944
21.41664 2.38 1.12 28.6944
28.29636 2.18 1.12 40.1606
44.33376 0.84 1.12 66.8896
44.33376 0.56 1.12 66.8896
44.33376 0.54 1.12 66.8896
124.19999999999999 -2.18 1.12 200.0
124.19999999999999 -2.24 1.12 200.0
17.592840000000002 -4.78 1.12 22.3214
12.23748 -6.46 1.12 13.3958
13.4736 5.9 1.1 15.456
13.4736 5.88 1.1 15.456
13.4736 5.02 1.1 15.456
13.4736 5.0 1.1 15.456
17.592840000000002 4.12 1.1 22.3214
21.41664 4.0 1.1 28.6944
21.41664 2.62 1.1 28.6944
21.41664 2.38 1.1 28.6944
28.29636 2.18 1.1 40.1606
44.33376 0.54 1.1 66.8896
44.33376 0.0 1.1 66.8896
8.089788 -0.84 1.1 6.48298
124.19999999999999 -1.1 1.1 200.0
12.23748 -6.46 1.1 13.3958
12.23748 -6.6 1.1 13.3958
13.4736 5.88 1.08 15.456
13.4736 5.86 1.08 15.456
13.4736 4.2 1.08 15.456
17.592840000000002 4.12 1.08 22.3214
28.29636 2.38 1.08 40.1606
28.29636 2.36 1.08 40.1606
28.29636 2.18 1.08 40.1606
44.33376 0.54 1.08 66.8896
44.33376 0.02 1.08 66.8896
44.33376 0.0 1.08 66.8896
15.15888 -0.24 1.08 18.2648
13.4736 -0.32 1.08 15.456
124.19999999999999 -1.12 1.08 200.0
124.19999999999999 -2.1 1.08 200.0
12.23748 -6.46 1.08 13.3958
13.4736 5.86 1.06 15.456
15.15888 5.72 1.06 18.2648
13.4736 4.18 1.06 15.456
17.592840000000002 4.12 1.06 22.3214
17.592840000000002 2.8 1.06 22.3214
17.592840000000002 2.78 1.06 22.3214
21.41664 2.5 1.06 28.6944
28.29636 2.18 1.06 40.1606
21.41664 1.12 1.06 28.6944
44.33376 0.54 1.06 66.8896
44.33376 0.0 1.06 66.8896
13.4736 5.84 1.04 15.456
15.15888 5.72 1.04 18.2648
13.4736 5.42 1.04 15.456
13.4736 5.4 1.04 15.456
17.592840000000002 4.12 1.04 22.3214
21.41664 3.32 1.04 28.6944
17.592840000000002 2.8 1.04 22.3214
17.592840000000002 2.78 1.04 22.3214
21.41664 2.5 1.04 28.6944
28.29636 2.38 1.04 40.1606
28.29636 2.36 1.04 40.1606
28.29636 2.18 1.04 40.1606
44.33376 1.2 1.04 66.8896
44.33376 0.54 1.04 66.8896
44.33376 0.02 1.04 66.8896
44.33376 0.0 1.04 66.8896
13.4736 -0.32 1.04 15.456
124.19999999999999 -1.16 1.04 200.0
13.4736 5.86 1.02 15.456
13.4736 5.84 1.02 15.456
13.4736 5.46 1.02 15.456
13.4736 5.44 1.02 15.456
17.592840000000002 4.12 1.02 22.3214
17.592840000000002 2.8 1.02 22.3214
17.592840000000002 2.78 1.02 22.3214
21.41664 2.46 1.02 28.6944
28.29636 2.36 1.02 40.1606
28.29636 1.4 1.02 40.1606
44.33376 0.54 1.02 66.8896
44.33376 0.02 1.02 66.8896
44.33376 0.0 1.02 66.8896
13.4736 -0.32 1.02 15.456
124.19999999999999 -1.16 1.02 200.0
13.4736 5.84 1.0 15.456
13.4736 5.48 1.0 15.456
13.4736 5.46 1.0 15.456
17.592840000000002 4.12 1.0 22.3214
17.592840000000002 3.98 1.0 22.3214
17.592840000000002 2.78 1.0 22.3214
21.41664 2.52 1.0 28.6944
28.29636 1.4 1.0 40.1606
44.33376 0.54 1.0 66.8896
124.19999999999999 0.02 1.0 200.0
124.19999999999999 0.0 1.0 200.0
13.4736 -0.32 1.0 15.456
124.19999999999999 -1.16 1.0 200.0
124.19999999999999 -1.84 1.0 200.0
12.23748 -6.56 1.0 13.3958
13.4736 5.5 0.98 15.456
17.592840000000002 4.12 0.98 22.3214
17.592840000000002 2.78 0.98 22.3214
21.41664 2.52 0.98 28.6944
21.41664 1.98 0.98 28.6944
44.33376 0.54 0.98 66.8896
124.19999999999999 0.02 0.98 200.0
124.19999999999999 0.0 0.98 200.0
13.4736 -0.32 0.98 15.456
9.941628000000001 -0.58 0.98 9.56938
124.19999999999999 -1.16 0.98 200.0
12.23748 -6.56 0.98 13.3958
13.4736 5.9 0.96 15.456
13.4736 5.3 0.96 15.456
17.592840000000002 5.0 0.96 22.3214
17.592840000000002 4.98 0.96 22.3214
17.592840000000002 4.12 0.96 22.3214
17.592840000000002 2.78 0.96 22.3214
21.41664 2.5 0.96 28.6944
28.29636 2.36 0.96 40.1606
124.19999999999999 0.02 0.96 200.0
124.19999999999999 0.0 0.96 200.0
13.4736 -0.32 0.96 15.456
17.592840000000002 -4.14 0.96 22.3214
12.23748 -6.56 0.96 13.3958
13.4736 5.88 0.94 15.456
13.4736 5.32 0.94 15.456
17.592840000000002 5.0 0.94 22.3214
17.592840000000002 4.98 0.94 22.3214
17.592840000000002 4.12 0.94 22.3214
17.592840000000002 2.78 0.94 22.3214
21.41664 2.5 0.94 28.6944
28.29636 2.06 0.94 40.1606
44.33376 1.2 0.94 66.8896
124.19999999999999 0.02 0.94 200.0
124.19999999999999 0.0 0.94 200.0
13.4736 -0.32 0.94 15.456
124.19999999999999 -1.26 0.94 200.0
12.23748 -6.56 0.94 13.3958
13.4736 5.82 0.92 15.456
17.592840000000002 4.12 0.92 22.3214
21.41664 3.98 0.92 28.6944
44.33376 1.2 0.92 66.8896
124.19999999999999 0.02 0.92 200.0
124.19999999999999 0.0 0.92 200.0
124.19999999999999 -0.84 0.92 200.0
124.19999999999999 -1.26 0.92 200.0
13.4736 5.36 0.9 15.456
13.4736 5.26 0.9 15.456
13.4736 5.24 0.9 15.456
17.592840000000002 4.12 0.9 22.3214
17.592840000000002 4.1 0.9 22.3214
124.19999999999999 0.02 0.9 200.0
124.19999999999999 0.0 0.9 200.0
124.19999999999999 -0.6 0.9 200.0
124.19999999999999 -0.84 0.9 200.0
124.19999999999999 -1.26 0.9 200.0
12.23748 -6.34 0.9 13.3958
12.23748 -6.36 0.9 13.3958
13.4736 5.72 0.88 15.456
13.4736 5.7 0.88 15.456
13.4736 5.26 0.88 15.456
17.592840000000002 4.12 0.88 22.3214
17.592840000000002 3.96 0.88 22.3214
28.29636 1.86 0.88 40.1606
124.19999999999999 0.04 0.88 200.0
124.19999999999999 0.02 0.88 200.0
124.19999999999999 -0.34 0.88 200.0
28.29636 -0.46 0.88 40.1606
124.19999999999999 -0.6 0.88 200.0
13.4736 5.72 0.86 15.456
13.4736 5.7 0.86 15.456
13.4736 5.28 0.86 15.456
17.592840000000002 3.98 0.86 22.3214
17.592840000000002 3.96 0.86 22.3214
44.33376 0.16 0.86 66.8896
28.29636 -0.46 0.86 40.1606
124.19999999999999 -0.6 0.86 200.0
13.4736 5.74 0.84 15.456
13.4736 5.72 0.84 15.456
13.4736 5.7 0.84 15.456
21.41664 4.12 0.84 28.6944
17.592840000000002 3.96 0.84 22.3214
44.33376 0.18 0.84 66.8896
44.33376 0.16 0.84 66.8896
124.19999999999999 -0.9 0.84 200.0
124.19999999999999 -1.06 0.84 200.0
124.19999999999999 -1.52 0.84 200.0
12.23748 -6.38 0.84 13.3958
12.23748 -6.4 0.84 13.3958
13.4736 5.74 0.82 15.456
13.4736 5.72 0.82 15.456
13.4736 5.48 0.82 15.456
17.592840000000002 3.98 0.82 22.3214
17.592840000000002 3.96 0.82 22.3214
28.29636 1.68 0.82 40.1606
44.33376 0.16 0.82 66.8896
17.592840000000002 -4.26 0.82 22.3214
12.23748 -6.4 0.82 13.3958
13.4736 5.74 0.8 15.456
13.4736 5.5 0.8 15.456
17.592840000000002 4.16 0.8 22.3214
17.592840000000002 4.12 0.8 22.3214
17.592840000000002 3.98 0.8 22.3214
17.592840000000002 3.96 0.8 22.3214
17.592840000000002 2.78 0.8 22.3214
28.29636 1.68 0.8 40.1606
124.19999999999999 -0.9 0.8 200.0
124.19999999999999 -1.06 0.8 200.0
124.19999999999999 -1.3 0.8 200.0
124.19999999999999 -1.64 0.8 200.0
12.23748 -6.4 0.8 13.3958
13.4736 5.76 0.78 15.456
13.4736 5.74 0.78 15.456
13.4736 5.54 0.78 15.456
17.592840000000002 4.16 0.78 22.3214
17.592840000000002 2.78 0.78 22.3214
28.29636 1.68 0.78 40.1606
13.4736 -0.32 0.78 15.456
44.33376 -0.52 0.78 66.8896
124.19999999999999 -1.64 0.78 200.0
13.4736 5.78 0.76 15.456
13.4736 5.76 0.76 15.456
13.4736 5.56 0.76 15.456
13.4736 5.54 0.76 15.456
17.592840000000002 4.16 0.76 22.3214
124.19999999999999 0.02 0.76 200.0
21.41664 -4.16 0.76 28.6944
13.4736 5.8 0.74 15.456
13.4736 5.78 0.74 15.456
13.4736 5.58 0.74 15.456
13.4736 5.56 0.74 15.456
17.592840000000002 4.16 0.74 22.3214
21.41664 3.94 0.74 28.6944
21.41664 2.36 0.74 28.6944
124.19999999999999 0.02 0.74 200.0
12.23748 -6.68 0.74 13.3958
13.4736 5.8 0.72 15.456
13.4736 5.58 0.72 15.456
17.592840000000002 5.02 0.72 22.3214
21.41664 2.52 0.72 28.6944
21.41664 2.36 0.72 28.6944
44.33376 0.84 0.72 66.8896
44.33376 0.82 0.72 66.8896
44.33376 0.54 0.72 66.8896
44.33376 0.52 0.72 66.8896
124.19999999999999 0.02 0.72 200.0
12.23748 -6.42 0.72 13.3958
13.4736 5.82 0.7 15.456
13.4736 5.8 0.7 15.456
13.4736 5.58 0.7 15.456
15.15888 5.54 0.7 18.2648
15.15888 5.52 0.7 18.2648
17.592840000000002 5.02 0.7 22.3214
21.41664 3.28 0.7 28.6944
21.41664 2.82 0.7 28.6944
21.41664 2.8 0.7 28.6944
15.15888 2.74 0.7 18.2648
44.33376 0.54 0.7 66.8896
124.19999999999999 0.02 0.7 200.0
13.4736 5.82 0.68 15.456
13.4736 5.8 0.68 15.456
13.4736 5.58 0.68 15.456
15.15888 5.54 0.68 18.2648
15.15888 5.52 0.68 18.2648
17.592840000000002 5.02 0.68 22.3214
17.592840000000002 3.96 0.68 22.3214
21.41664 3.28 0.68 28.6944
21.41664 2.82 0.68 28.6944
21.41664 2.8 0.68 28.6944
44.33376 0.54 0.68 66.8896
124.19999999999999 0.02 0.68 200.0
124.19999999999999 -1.08 0.68 200.0
28.29636 -3.74 0.68 40.1606
13.4736 5.82 0.66 15.456
13.4736 5.8 0.66 15.456
13.4736 5.6 0.66 15.456
15.15888 5.54 0.66 18.2648
17.592840000000002 5.46 0.66 22.3214
17.592840000000002 5.02 0.66 22.3214
17.592840000000002 4.56 0.66 22.3214
17.592840000000002 3.98 0.66 22.3214
17.592840000000002 3.96 0.66 22.3214
21.41664 2.94 0.66 28.6944
21.41664 2.4 0.66 28.6944
44.33376 0.54 0.66 66.8896
124.19999999999999 0.02 0.66 200.0
124.19999999999999 -0.86 0.66 200.0
124.19999999999999 -1.08 0.66 200.0
28.29636 -3.74 0.66 40.1606
12.23748 -6.42 0.66 13.3958
13.4736 5.82 0.64 15.456
13.4736 5.6 0.64 15.456
15.15888 5.54 0.64 18.2648
17.592840000000002 5.14 0.64 22.3214
17.592840000000002 4.56 0.64 22.3214
17.592840000000002 4.42 0.64 22.3214
17.592840000000002 3.98 0.64 22.3214
17.592840000000002 3.96 0.64 22.3214
21.41664 2.96 0.64 28.6944
21.41664 2.94 0.64 28.6944
21.41664 1.84 0.64 28.6944
44.33376 0.54 0.64 66.8896
124.19999999999999 0.02 0.64 200.0
124.19999999999999 -0.6 0.64 200.0
124.19999999999999 -0.86 0.64 200.0
124.19999999999999 -1.08 0.64 200.0
13.4736 -1.24 0.64 15.456
28.29636 -3.72 0.64 40.1606
28.29636 -3.74 0.64 40.1606
17.592840000000002 -4.26 0.64 22.3214
12.23748 -6.4 0.64 13.3958
13.4736 5.84 0.62 15.456
13.4736 5.82 0.62 15.456
13.4736 5.62 0.62 15.456
13.4736 5.6 0.62 15.456
15.15888 5.54 0.62 18.2648
17.592840000000002 5.14 0.62 22.3214
17.592840000000002 4.56 0.62 22.3214
17.592840000000002 4.42 0.62 22.3214
21.41664 3.98 0.62 28.6944
21.41664 3.96 0.62 28.6944
21.41664 2.96 0.62 28.6944
21.41664 2.94 0.62 28.6944
17.592840000000002 2.76 0.62 22.3214
21.41664 1.84 0.62 28.6944
44.33376 0.54 0.62 66.8896
124.19999999999999 0.02 0.62 200.0
124.19999999999999 -0.86 0.62 200.0
124.19999999999999 -1.08 0.62 200.0
13.4736 -1.24 0.62 15.456
21.41664 -4.2 0.62 28.6944
12.23748 -6.4 0.62 13.3958
13.4736 5.84 0.6 15.456
13.4736 5.64 0.6 15.456
13.4736 5.62 0.6 15.456
15.15888 5.54 0.6 18.2648
17.592840000000002 5.14 0.6 22.3214
17.592840000000002 4.56 0.6 22.3214
17.592840000000002 4.42 0.6 22.3214
21.41664 3.98 0.6 28.6944
21.41664 3.96 0.6 28.6944
21.41664 2.94 0.6 28.6944
44.33376 0.54 0.6 66.8896
124.19999999999999 0.02 0.6 200.0
13.4736 -0.34 0.6 15.456
124.19999999999999 -0.86 0.6 200.0
44.33376 -0.92 0.6 66.8896
21.41664 -4.18 0.6 28.6944
13.4736 5.84 0.58 15.456
13.4736 5.66 0.58 15.456
13.4736 5.64 0.58 15.456
15.15888 5.54 0.58 18.2648
17.592840000000002 5.14 0.58 22.3214
17.592840000000002 4.56 0.58 22.3214
17.592840000000002 4.42 0.58 22.3214
21.41664 3.98 0.58 28.6944
21.41664 3.96 0.58 28.6944
44.33376 0.54 0.58 66.8896
124.19999999999999 0.02 0.58 200.0
124.19999999999999 -0.02 0.58 200.0
124.19999999999999 -0.86 0.58 200.0
21.41664 -4.16 0.58 28.6944
12.23748 -6.4 0.58 13.3958
13.4736 5.84 0.56 15.456
13.4736 5.66 0.56 15.456
13.4736 5.64 0.56 15.456
15.15888 5.54 0.56 18.2648
17.592840000000002 5.14 0.56 22.3214
17.592840000000002 4.56 0.56 22.3214
17.592840000000002 4.42 0.56 22.3214
21.41664 3.98 0.56 28.6944
21.41664 3.96 0.56 28.6944
21.41664 3.64 0.56 28.6944
21.41664 2.96 0.56 28.6944
17.592840000000002 2.48 0.56 22.3214
44.33376 0.54 0.56 66.8896
124.19999999999999 0.02 0.56 200.0
124.19999999999999 -0.02 0.56 200.0
124.19999999999999 -0.86 0.56 200.0
124.19999999999999 -1.22 0.56 200.0
12.23748 -6.38 0.56 13.3958
12.23748 -6.4 0.56 13.3958
13.4736 5.84 0.54 15.456
13.4736 5.66 0.54 15.456
15.15888 5.54 0.54 18.2648
17.592840000000002 5.14 0.54 22.3214
17.592840000000002 4.56 0.54 22.3214
17.592840000000002 4.4 0.54 22.3214
21.41664 3.98 0.54 28.6944
21.41664 3.64 0.54 28.6944
21.41664 3.6 0.54 28.6944
21.41664 3.56 0.54 28.6944
21.41664 3.54 0.54 28.6944
21.41664 3.52 0.54 28.6944
21.41664 2.96 0.54 28.6944
17.592840000000002 2.78 0.54 22.3214
17.592840000000002 2.58 0.54 22.3214
17.592840000000002 2.46 0.54 22.3214
44.33376 0.82 0.54 66.8896
44.33376 0.54 0.54 66.8896
44.33376 0.52 0.54 66.8896
124.19999999999999 0.04 0.54 200.0
124.19999999999999 0.02 0.54 200.0
124.19999999999999 -0.34 0.54 200.0
21.41664 -0.52 0.54 28.6944
15.15888 -4.8 0.54 18.2648
15.15888 -4.82 0.54 18.2648
12.23748 -6.52 0.54 13.3958
13.4736 5.86 0.52 15.456
13.4736 5.84 0.52 15.456
13.4736 5.68 0.52 15.456
13.4736 5.66 0.52 15.456
15.15888 5.54 0.52 18.2648
17.592840000000002 5.14 0.52 22.3214
17.592840000000002 4.56 0.52 22.3214
17.592840000000002 4.4 0.52 22.3214
21.41664 3.98 0.52 28.6944
21.41664 3.64 0.52 28.6944
21.41664 3.56 0.52 28.6944
21.41664 3.54 0.52 28.6944
17.592840000000002 2.78 0.52 22.3214
44.33376 0.16 0.52 66.8896
124.19999999999999 -1.08 0.52 200.0
28.29636 -4.1 0.52 40.1606
12.23748 -6.52 0.52 13.3958
13.4736 5.86 0.5 15.456
13.4736 5.68 0.5 15.456
13.4736 5.66 0.5 15.456
15.15888 5.54 0.5 18.2648
17.592840000000002 5.14 0.5 22.3214
17.592840000000002 4.56 0.5 22.3214
17.592840000000002 4.4 0.5 22.3214
21.41664 3.98 0.5 28.6944
21.41664 3.54 0.5 28.6944
21.41664 2.94 0.5 28.6944
17.592840000000002 2.76 0.5 22.3214
17.592840000000002 2.44 0.5 22.3214
44.33376 0.16 0.5 66.8896
124.19999999999999 -1.08 0.5 200.0
28.29636 -4.1 0.5 40.1606
12.23748 -6.38 0.5 13.3958
12.23748 -6.52 0.5 13.3958
13.4736 5.86 0.48 15.456
13.4736 5.68 0.48 15.456
15.15888 5.54 0.48 18.2648
17.592840000000002 5.14 0.48 22.3214
17.592840000000002 4.4 0.48 22.3214
21.41664 3.98 0.48 28.6944
21.41664 3.96 0.48 28.6944
21.41664 2.96 0.48 28.6944
21.41664 2.94 0.48 28.6944
44.33376 0.16 0.48 66.8896
124.19999999999999 -0.86 0.48 200.0
12.23748 -6.52 0.48 13.3958
13.4736 5.88 0.46 15.456
13.4736 5.86 0.46 15.456
13.4736 5.68 0.46 15.456
15.15888 5.54 0.46 18.2648
17.592840000000002 5.14 0.46 22.3214
17.592840000000002 4.54 0.46 22.3214
17.592840000000002 4.4 0.46 22.3214
21.41664 3.98 0.46 28.6944
21.41664 3.96 0.46 28.6944
21.41664 2.96 0.46 28.6944
21.41664 2.94 0.46 28.6944
21.41664 2.0 0.46 28.6944
21.41664 1.88 0.46 28.6944
28.29636 1.04 0.46 40.1606
13.4736 -0.32 0.46 15.456
12.23748 -6.52 0.46 13.3958
13.4736 5.88 0.44 15.456
13.4736 5.7 0.44 15.456
15.15888 5.54 0.44 18.2648
17.592840000000002 5.14 0.44 22.3214
17.592840000000002 4.54 0.44 22.3214
17.592840000000002 4.4 0.44 22.3214
21.41664 3.96 0.44 28.6944
17.592840000000002 2.76 0.44 22.3214
17.592840000000002 2.64 0.44 22.3214
17.592840000000002 2.44 0.44 22.3214
44.33376 -0.02 0.44 66.8896
28.29636 -4.1 0.44 40.1606
12.23748 -6.38 0.44 13.3958
12.23748 -6.52 0.44 13.3958
13.4736 5.88 0.42 15.456
13.4736 5.7 0.42 15.456
15.15888 5.54 0.42 18.2648
17.592840000000002 5.14 0.42 22.3214
17.592840000000002 4.4 0.42 22.3214
17.592840000000002 4.14 0.42 22.3214
17.592840000000002 2.76 0.42 22.3214
17.592840000000002 2.64 0.42 22.3214
17.592840000000002 2.46 0.42 22.3214
21.41664 1.96 0.42 28.6944
44.33376 0.02 0.42 66.8896
44.33376 0.0 0.42 66.8896
44.33376 -0.02 0.42 66.8896
124.19999999999999 -0.76 0.42 200.0
28.29636 -4.1 0.42 40.1606
12.23748 -6.38 0.42 13.3958
13.4736 5.88 0.4 15.456
13.4736 5.86 0.4 15.456
13.4736 5.7 0.4 15.456
15.15888 5.54 0.4 18.2648
17.592840000000002 5.46 0.4 22.3214
17.592840000000002 5.14 0.4 22.3214
17.592840000000002 5.12 0.4 22.3214
17.592840000000002 4.4 0.4 22.3214
21.41664 3.94 0.4 28.6944
17.592840000000002 2.64 0.4 22.3214
17.592840000000002 2.48 0.4 22.3214
17.592840000000002 2.46 0.4 22.3214
28.29636 2.34 0.4 40.1606
44.33376 1.16 0.4 66.8896
44.33376 -0.02 0.4 66.8896
124.19999999999999 -0.6 0.4 200.0
124.19999999999999 -0.62 0.4 200.0
124.19999999999999 -0.76 0.4 200.0
17.592840000000002 -0.86 0.4 22.3214
8.358006 -1.66 0.4 6.93001
7.8540779999999994 -2.48 0.4 6.09013
28.29636 -4.1 0.4 40.1606
12.23748 -6.38 0.4 13.3958
13.4736 5.88 0.38 15.456
13.4736 5.86 0.38 15.456
13.4736 5.7 0.38 15.456
15.15888 5.54 0.38 18.2648
